ply
format ascii 1.0
element vertex 1226
property float x
property float y
property float z
property uchar red
property uchar green
property uchar blue
end_header
-0.239237 0.102007 2.645014 179 171 168
-0.261211 0.107438 2.647229 181 174 168
-0.228491 0.107178 2.642880 179 170 168
-0.186680 0.106741 2.646081 180 170 169
-0.166798 0.107143 2.645532 180 170 168
-0.251596 0.111370 2.645935 180 170 168
-0.183533 0.109102 2.646999 180 170 169
0.521008 0.111051 2.643024 116 110 120
-0.251682 0.115049 2.645879 180 170 167
0.122564 0.115939 2.645714 0 1 6
0.547764 0.116711 2.645685 175 166 165
-0.231000 0.136146 2.646800 178 170 167
-0.300645 0.146674 2.646017 179 170 168
-0.281531 0.145828 2.647047 179 171 168
-0.271934 0.146365 2.645006 179 171 168
-0.221082 0.143757 2.646296 177 169 166
-0.057749 0.144535 2.644914 178 170 168
0.541664 0.152286 2.643851 180 172 169
-0.299914 0.162217 2.647175 182 175 169
-0.280870 0.162188 2.645853 179 169 167
-0.080757 0.162271 2.644994 175 167 165
-0.043719 0.160542 2.644512 182 175 167
-0.082743 0.164808 2.647368 175 167 165
0.791097 0.165721 2.647277 182 175 167
-0.300181 0.173664 2.645829 179 169 167
-0.160283 0.180175 2.646647 177 169 166
-0.226167 0.195883 2.642932 179 171 168
-0.117561 0.201304 2.647055 186 180 166
0.231618 0.199458 2.643178 0 1 6
0.596775 0.205843 2.644983 139 156 132
0.516093 0.211533 2.644724 0 1 9
-0.022584 0.215231 2.644700 183 176 168
-0.309419 0.225721 2.646216 181 172 165
-0.276839 0.227422 2.645990 180 171 164
0.589497 0.223547 2.643393 138 153 131
-0.074187 0.234205 2.645347 181 174 166
-0.129690 0.242519 2.646836 180 170 168
0.531456 0.242559 2.647459 159 153 142
-0.362334 0.246334 2.644568 179 169 167
0.273139 0.246036 2.645256 0 0 10
0.383212 0.246923 2.647292 1 1 9
0.477880 0.245646 2.646787 173 167 155
0.581643 0.246122 2.643316 140 157 137
0.615191 0.245224 2.642947 0 3 1
-0.264732 0.249189 2.642934 187 179 164
-0.201751 0.257193 2.647613 179 171 160
0.565956 0.256289 2.645659 145 162 142
-0.322118 0.259885 2.645643 180 171 161
-0.219863 0.258813 2.647708 174 166 154
0.557953 0.261957 2.646616 143 162 146
-0.138341 0.266552 2.646566 186 179 161
-0.342052 0.270806 2.644674 177 169 162
-0.294660 0.271516 2.647809 188 180 169
-0.347948 0.274982 2.645432 178 170 164
-0.239109 0.277425 2.643007 176 168 157
-0.226590 0.274046 2.645967 180 172 161
0.459887 0.282665 2.645944 142 160 136
0.482668 0.278866 2.645785 142 160 136
0.509951 0.279155 2.644121 138 156 134
-0.361569 0.285958 2.646547 178 169 165
-0.170365 0.284068 2.646067 174 167 161
-0.260303 0.292757 2.643819 180 170 168
-0.184951 0.290936 2.646720 179 170 163
0.471121 0.297474 2.643683 135 152 134
0.482159 0.295674 2.646015 138 155 136
-0.329771 0.308039 2.644140 176 168 165
-0.201788 0.307382 2.646304 180 171 161
0.533412 0.306835 2.645297 137 156 128
0.429703 0.320574 2.645799 139 153 129
0.442707 0.329970 2.644681 142 156 134
0.577955 0.332348 2.644217 165 159 146
-0.344404 0.333676 2.644614 179 170 165
0.441738 0.338135 2.643847 142 157 135
0.485555 0.334741 2.644144 143 160 138
0.520258 0.334581 2.647240 0 9 18
0.515040 0.342067 2.643094 138 149 125
-0.271420 0.370020 2.643068 179 170 163
0.219995 0.398304 2.643485 0 0 0
0.535400 0.420013 2.645371 0 4 11
0.170348 -0.372841 2.650098 158 160 166
0.250816 -0.349654 2.651354 102 104 109
0.260749 -0.347858 2.651671 116 115 120
0.202127 -0.338438 2.650072 88 98 109
0.248241 -0.337791 2.648015 38 47 58
0.123014 -0.324330 2.651493 142 143 149
0.206598 -0.321359 2.652382 162 157 162
0.226683 -0.313066 2.648224 63 65 73
0.259014 -0.247077 2.652185 97 105 119
0.215607 -0.232863 2.648941 55 75 107
0.226779 -0.227039 2.652019 155 149 142
0.259245 -0.229940 2.650818 89 96 107
0.347226 -0.229951 2.649469 132 135 143
0.177566 -0.220950 2.652053 155 149 158
0.226492 -0.220297 2.650097 45 68 99
0.055972 -0.203133 2.649500 171 166 171
0.054248 -0.200977 2.652310 174 169 175
0.043292 -0.190809 2.649314 32 42 55
0.264411 -0.184438 2.648073 78 83 88
0.108208 -0.178289 2.651035 102 110 131
0.386381 -0.179081 2.651438 172 165 159
0.094572 -0.167139 2.650632 86 102 111
0.338142 -0.166717 2.651200 61 78 106
0.358241 -0.166501 2.648165 116 116 126
0.384658 -0.157015 2.650691 52 62 68
-0.023060 -0.147362 2.650525 123 134 145
0.307284 -0.144716 2.650498 176 168 166
0.242474 -0.138399 2.650717 100 99 99
0.411550 -0.137050 2.650761 159 158 155
0.260315 -0.135132 2.652393 171 164 163
0.285303 -0.132391 2.651752 111 127 133
0.303780 -0.129544 2.651290 173 165 162
0.040604 -0.116658 2.649641 146 152 159
0.318928 -0.104684 2.649332 133 134 139
0.465803 -0.106501 2.650434 127 128 129
0.240105 -0.097652 2.649060 58 76 93
0.264028 -0.100817 2.651933 85 106 130
0.376304 -0.099355 2.650994 177 170 168
0.626845 -0.100719 2.649000 184 177 169
0.364080 -0.092838 2.648969 29 33 44
0.175768 -0.087556 2.650620 158 159 165
0.042520 -0.086599 2.649742 100 110 118
0.356778 -0.081958 2.648767 171 163 161
0.154038 -0.079408 2.651780 172 169 168
0.205815 -0.077933 2.651847 63 81 105
0.316281 -0.079008 2.652232 156 149 139
0.377685 -0.081078 2.650555 170 162 160
0.544902 -0.081140 2.651108 172 168 165
0.270006 -0.073878 2.651750 0 2 2
0.314955 -0.065125 2.647877 155 147 144
0.145166 -0.057833 2.650699 140 144 146
0.165422 -0.055667 2.648733 86 96 105
0.136104 -0.036857 2.649938 146 147 150
-0.201231 -0.021902 2.650980 179 171 169
0.477754 -0.023390 2.649193 37 46 45
-0.197080 -0.020071 2.649252 179 171 169
-0.012327 -0.012203 2.652748 141 143 142
-0.194643 -0.002771 2.649344 178 170 168
0.368467 -0.002415 2.649870 176 167 164
-0.240640 0.000506 2.648575 180 170 169
-0.208601 -0.000444 2.652694 178 171 165
-0.004321 0.000238 2.650515 151 148 149
-0.225082 0.004108 2.648716 179 170 167
-0.194626 0.003981 2.650840 178 170 168
-0.156908 0.006624 2.649841 179 171 169
-0.190134 0.014464 2.648327 178 170 168
-0.163549 0.016053 2.647907 185 176 169
-0.142927 0.015963 2.651647 180 170 168
0.465788 0.022551 2.652261 165 157 154
-0.196278 0.028375 2.648964 178 170 167
-0.162927 0.028140 2.651558 177 169 164
-0.217651 0.035883 2.648559 179 169 168
-0.192956 0.037741 2.651616 178 170 167
0.436623 0.037269 2.649400 156 148 145
-0.198305 0.045628 2.651126 177 169 166
0.495917 0.047499 2.648125 0 9 17
0.505812 0.044982 2.652490 178 170 168
-0.175188 0.052463 2.649600 179 169 167
-0.097444 0.051299 2.651129 179 168 172
0.449018 0.072412 2.648292 171 163 161
-0.160506 0.075593 2.648156 179 169 167
0.498769 0.091918 2.648629 167 159 156
-0.232119 0.097250 2.648130 178 170 167
0.163914 0.097561 2.649883 0 1 6
-0.195536 0.098578 2.650515 177 169 166
-0.189541 0.099345 2.647874 177 169 166
0.559996 0.102117 2.651206 178 170 167
-0.118831 0.115207 2.651326 175 167 165
0.538482 0.116227 2.649897 178 170 168
-0.214910 0.126200 2.650014 182 175 165
0.383926 0.127936 2.648521 0 1 6
0.555633 0.131679 2.652722 157 152 160
-0.221499 0.139726 2.652224 177 169 166
-0.367665 0.161473 2.649480 179 171 169
-0.301970 0.163333 2.651473 182 175 169
-0.281632 0.160542 2.650430 179 169 167
-0.242283 0.161588 2.650958 179 169 167
-0.185259 0.162193 2.650740 179 172 164
-0.301013 0.165063 2.650127 179 170 164
0.395594 0.166412 2.651135 148 140 133
-0.270240 0.177310 2.650951 179 169 167
-0.363684 0.180936 2.652177 179 171 169
-0.191141 0.178452 2.649222 179 171 169
-0.159995 0.179531 2.650984 177 169 166
-0.274156 0.189565 2.648691 180 170 168
-0.067374 0.189753 2.651558 180 171 167
0.253837 0.191602 2.650815 0 1 6
-0.252152 0.201252 2.652513 181 173 165
-0.312663 0.203976 2.649096 179 170 166
0.240085 0.206283 2.652688 0 0 8
0.579745 0.205318 2.649281 85 99 90
0.569043 0.211695 2.650177 70 82 76
-0.357479 0.217405 2.648741 189 182 166
-0.349196 0.216011 2.650301 187 179 168
-0.300221 0.220864 2.652029 180 171 164
-0.128831 0.223530 2.652864 180 170 168
0.536474 0.226180 2.652364 81 97 79
-0.262183 0.231502 2.648268 179 170 165
-0.199065 0.237861 2.648354 175 167 164
-0.203684 0.240970 2.650179 186 178 166
-0.074399 0.243386 2.649111 181 174 164
-0.242581 0.243493 2.648229 181 172 165
-0.192608 0.244649 2.652750 179 170 163
0.635844 0.249218 2.648484 68 75 59
-0.362909 0.262399 2.650060 178 170 167
0.374310 0.259761 2.648433 1 2 7
0.576198 0.260366 2.649898 140 155 133
0.547779 0.267558 2.650153 141 158 141
-0.276860 0.271526 2.649291 180 171 161
0.521295 0.271264 2.648130 139 157 135
0.649670 0.272536 2.649848 148 158 141
-0.363428 0.278441 2.648314 179 169 167
-0.099226 0.280007 2.651360 181 174 157
0.539109 0.283379 2.649256 140 157 138
0.557353 0.281754 2.652111 141 157 139
0.590152 0.282706 2.649784 141 151 127
-0.287626 0.288339 2.650789 183 174 167
0.506653 0.286251 2.648357 139 156 137
-0.297679 0.290649 2.651320 182 173 166
-0.170450 0.288537 2.652739 174 167 159
0.447313 0.289937 2.650132 136 153 133
0.516527 0.288622 2.652064 141 158 140
0.531107 0.292538 2.649290 139 155 133
-0.230501 0.297980 2.648393 176 167 159
0.498834 0.293953 2.649786 141 158 140
0.509082 0.297974 2.649398 141 155 135
0.653169 0.302455 2.650752 156 157 139
-0.247788 0.303865 2.648061 180 170 168
0.492617 0.306131 2.651611 138 155 133
0.481325 0.311868 2.652029 139 157 136
-0.264120 0.315345 2.648952 180 170 168
0.464785 0.315735 2.650105 140 157 136
0.500000 0.316985 2.652673 137 155 131
0.571562 0.315219 2.648023 141 155 134
0.399977 0.329684 2.650086 140 154 131
0.410729 0.338489 2.650328 140 156 134
0.425674 0.342819 2.649457 139 157 134
0.618040 0.341448 2.650820 174 167 159
0.481740 0.347971 2.648158 144 161 141
0.339124 0.358101 2.650136 0 1 3
0.438255 0.358240 2.649267 143 159 140
0.241177 -0.395936 2.657087 166 166 164
0.155262 -0.376073 2.654760 161 162 172
-0.000393 -0.364412 2.655104 155 152 158
0.096813 -0.361784 2.655019 35 56 77
0.201816 -0.353212 2.655637 155 152 159
0.233710 -0.349161 2.657710 96 100 112
0.207388 -0.346097 2.655843 150 151 168
0.269182 -0.341336 2.657754 60 62 70
0.233313 -0.299245 2.655131 153 153 153
0.242508 -0.250243 2.654676 115 122 135
0.256288 -0.242354 2.654271 82 88 104
0.122370 -0.240885 2.656955 178 169 175
0.209939 -0.240146 2.653292 70 84 100
0.208894 -0.232930 2.656105 38 53 78
0.216574 -0.234282 2.656417 55 70 101
0.201336 -0.227582 2.656306 43 58 79
0.276342 -0.227862 2.655856 154 153 146
0.218330 -0.209168 2.653588 172 172 164
0.206454 -0.201836 2.656150 121 124 130
0.250881 -0.205085 2.654362 27 32 32
0.244037 -0.184442 2.655333 9 20 29
0.369659 -0.181812 2.656697 160 156 156
0.387953 -0.171330 2.653617 157 150 142
0.344815 -0.166057 2.656125 4 16 24
0.083029 -0.161381 2.656997 162 170 173
0.321727 -0.144218 2.655710 154 160 191
0.259992 -0.139360 2.654531 177 169 166
0.358057 -0.127142 2.652944 135 136 136
0.399049 -0.109775 2.657411 154 151 147
0.317137 -0.105324 2.655272 172 164 162
0.410210 -0.101851 2.653747 49 56 57
0.049066 -0.100763 2.656921 88 105 114
0.188200 -0.096789 2.653466 137 140 148
0.247788 -0.099409 2.654771 83 102 119
0.285161 -0.099081 2.654523 156 161 168
0.295211 -0.097823 2.655232 118 130 134
0.352408 -0.097054 2.653211 64 65 69
0.461888 -0.097652 2.653999 67 80 91
0.376508 -0.093927 2.655975 178 169 168
0.236004 -0.082935 2.655296 29 42 56
0.615901 -0.084358 2.657015 184 177 169
0.163000 -0.067547 2.654007 115 123 130
0.042524 -0.065971 2.653280 150 152 157
0.377868 -0.064804 2.656980 175 166 167
0.456420 -0.050298 2.655024 177 169 166
0.402432 -0.040956 2.655522 178 170 168
0.604747 -0.040448 2.654519 178 169 171
0.366222 -0.036270 2.653891 176 168 166
0.350744 -0.029950 2.654051 1 2 5
0.402156 -0.027873 2.655968 178 170 168
0.368869 -0.026086 2.657000 172 164 162
-0.187820 -0.017485 2.653726 179 171 169
-0.228325 -0.015368 2.655463 179 170 169
-0.174031 -0.015775 2.656014 179 171 169
0.141388 -0.010420 2.655343 166 166 167
-0.158982 0.001574 2.656394 179 171 169
0.426813 0.001309 2.655987 174 166 164
-0.228736 0.004399 2.655748 179 170 167
-0.162978 0.008356 2.655661 179 170 169
-0.234355 0.009016 2.656096 179 170 169
-0.185031 0.009253 2.653193 178 170 168
-0.136687 0.011608 2.655865 184 169 166
-0.130917 0.010794 2.656152 185 171 169
-0.177579 0.016622 2.654499 178 170 168
-0.147176 0.015137 2.655028 180 170 169
0.443156 0.016851 2.654874 174 166 164
0.534738 0.019625 2.653673 177 169 167
-0.150263 0.028239 2.655824 184 177 169
0.356650 0.023641 2.654617 149 141 138
0.423025 0.023459 2.655915 157 149 146
-0.198219 0.030199 2.654686 178 169 167
0.375739 0.031578 2.654773 7 27 44
0.537049 0.031176 2.652893 178 170 168
0.546655 0.029325 2.654106 179 171 169
-0.233042 0.037055 2.654227 180 170 169
-0.217496 0.036587 2.654536 180 170 169
-0.142225 0.037071 2.653603 180 170 169
-0.176976 0.039637 2.657859 177 169 166
-0.159143 0.038689 2.655347 177 169 166
0.256936 0.040661 2.655643 0 1 5
-0.145264 0.048749 2.653861 179 171 169
0.470621 0.059667 2.656714 174 166 169
-0.234549 0.063783 2.656664 179 171 167
-0.225510 0.063946 2.654809 179 170 163
-0.097933 0.068767 2.653150 178 170 167
0.647703 0.069282 2.654303 2 13 19
0.448028 0.077245 2.653188 170 162 160
-0.222349 0.080362 2.656651 179 169 166
-0.200536 0.096423 2.653719 177 169 166
-0.099361 0.096139 2.654662 177 168 166
-0.239218 0.099932 2.655657 179 171 168
-0.250794 0.108413 2.656347 179 170 168
-0.188715 0.110589 2.653252 180 170 169
-0.168854 0.112301 2.653771 180 170 168
-0.086834 0.110432 2.657432 175 167 164
-0.076391 0.121929 2.654587 178 168 167
0.551818 0.118792 2.653972 175 166 163
0.554762 0.118954 2.655328 178 168 164
0.566420 0.120928 2.654060 175 167 164
-0.213749 0.126243 2.656559 182 175 165
-0.205528 0.126373 2.657376 180 172 165
-0.284626 0.143376 2.653884 179 171 168
0.452063 0.147329 2.654207 166 158 155
-0.188828 0.168533 2.654171 179 171 166
-0.239744 0.174678 2.655086 179 172 164
0.414433 0.202926 2.655419 156 149 141
-0.258729 0.206429 2.657221 181 172 166
0.232257 0.204019 2.657859 0 1 6
-0.094270 0.209857 2.654249 179 170 167
0.668702 0.212199 2.653525 0 1 6
-0.357508 0.215386 2.656506 189 182 166
-0.178625 0.221789 2.655271 187 179 168
0.448271 0.222062 2.657663 0 1 5
-0.369893 0.224858 2.655245 187 180 164
0.489214 0.226289 2.654727 0 6 12
-0.356084 0.230871 2.654066 187 180 162
0.567125 0.235831 2.655071 140 157 131
-0.215568 0.240129 2.657124 179 170 163
0.514208 0.240510 2.655569 151 145 133
-0.230816 0.247942 2.654193 178 170 161
-0.132204 0.247825 2.654375 179 169 167
-0.226127 0.256137 2.656556 174 166 154
-0.222544 0.256653 2.653453 174 166 154
-0.323167 0.261627 2.655435 180 171 164
0.373494 0.260053 2.656576 2 1 7
-0.366804 0.265005 2.655442 178 170 167
-0.346067 0.264186 2.654931 178 169 162
-0.096191 0.267612 2.652889 180 173 157
-0.226570 0.270217 2.655097 180 172 161
-0.346038 0.274058 2.656335 177 169 162
-0.329933 0.283128 2.655715 177 170 162
-0.306059 0.282088 2.653773 178 169 162
-0.239483 0.281420 2.653386 176 168 157
-0.143314 0.282826 2.652893 179 172 156
0.490715 0.294274 2.655887 137 155 132
-0.263355 0.300082 2.653577 180 170 168
-0.248244 0.302647 2.657457 180 170 168
0.524744 0.300919 2.654891 145 153 130
-0.204035 0.306804 2.656591 180 171 161
0.339905 0.310752 2.655682 0 0 8
0.399476 0.310973 2.654838 143 163 144
0.510329 0.309861 2.654685 138 153 128
0.433465 0.317700 2.657820 136 150 124
0.517493 0.322025 2.653831 141 160 138
0.424398 0.338285 2.655805 140 156 134
0.545451 0.340142 2.654780 137 151 127
0.446385 0.344759 2.657796 141 158 139
0.372910 0.348943 2.652882 143 158 135
0.490368 0.350875 2.655147 138 153 132
0.415011 0.360499 2.653747 143 160 141
0.669666 0.363448 2.654941 179 171 168
0.538443 0.424620 2.655831 1 4 11
0.611113 0.425694 2.656050 161 154 146
0.132662 -0.434087 2.662392 92 101 119
0.249405 -0.387513 2.660402 162 161 166
0.159131 -0.359474 2.660527 49 64 84
0.258377 -0.352128 2.661687 112 113 118
0.190028 -0.339163 2.662391 84 100 121
0.257244 -0.337550 2.661961 31 40 50
0.185231 -0.334155 2.660752 51 76 113
0.261316 -0.334844 2.662047 36 45 51
0.334599 -0.249685 2.658391 161 155 159
0.200463 -0.226816 2.662501 40 53 73
0.254682 -0.229440 2.660763 103 111 126
0.233843 -0.225460 2.660502 68 71 67
0.361951 -0.215308 2.662156 26 39 47
0.014440 -0.191813 2.662095 148 150 159
0.282738 -0.191021 2.662031 144 142 148
0.277503 -0.174527 2.662261 162 162 157
-0.011754 -0.168767 2.660710 155 153 154
0.358533 -0.170775 2.662072 137 133 141
-0.005397 -0.158562 2.658970 87 96 113
0.357123 -0.160168 2.661648 22 37 50
0.308025 -0.147275 2.661150 176 168 166
0.244608 -0.138053 2.661462 76 75 78
0.071817 -0.131055 2.660772 85 96 106
0.053101 -0.112176 2.659314 114 125 138
0.412455 -0.109990 2.661892 151 148 145
0.265570 -0.097479 2.659955 87 108 130
0.394618 -0.089925 2.657967 178 169 172
0.469039 -0.088201 2.660348 20 34 47
0.041477 -0.086491 2.661391 137 143 148
0.381180 -0.078692 2.660896 178 169 170
0.642629 -0.077330 2.658699 184 177 168
0.337721 -0.065092 2.661039 170 162 162
0.363935 -0.064818 2.658789 178 169 172
0.608775 -0.056333 2.662847 179 171 169
0.141964 -0.050438 2.661021 165 166 167
0.155352 -0.037574 2.659391 92 103 113
0.317337 -0.037054 2.662661 152 144 141
0.463093 -0.038625 2.660443 25 35 38
0.139578 -0.032465 2.658997 159 160 161
0.606235 -0.034337 2.662604 178 169 169
0.286881 -0.024634 2.658256 0 4 14
0.141351 -0.019131 2.661773 161 161 162
-0.232134 -0.014796 2.658002 179 170 169
-0.202005 -0.012821 2.658782 179 171 166
-0.201247 -0.002293 2.658414 178 170 166
-0.165952 -0.001722 2.662379 179 171 169
0.422302 -0.001807 2.658731 179 171 169
0.333846 0.000826 2.658355 0 0 7
0.376146 0.003111 2.658069 167 161 166
-0.206961 0.013054 2.658304 178 169 170
0.445862 0.009855 2.658459 176 168 166
0.524987 0.009600 2.660589 175 167 165
-0.196400 0.015404 2.658202 178 170 168
-0.162913 0.016768 2.658886 185 177 169
0.502555 0.020377 2.658789 172 164 162
-0.204007 0.030438 2.662159 179 169 168
-0.182533 0.031692 2.658267 178 170 167
-0.166405 0.028993 2.658214 177 169 165
-0.200362 0.035425 2.659205 178 169 167
-0.166703 0.034936 2.658255 178 170 166
-0.199915 0.039699 2.662855 178 169 167
0.502402 0.044743 2.661397 0 8 17
0.223633 0.051935 2.658435 0 0 4
0.421664 0.055752 2.659595 162 155 146
0.528620 0.062265 2.662245 175 167 164
0.515545 0.066712 2.660023 171 163 160
-0.222774 0.083394 2.660543 179 169 167
-0.206988 0.088714 2.660544 179 169 167
-0.139452 0.093800 2.662335 178 168 166
0.483621 0.097029 2.659730 167 158 158
-0.168534 0.112290 2.660636 180 170 168
-0.056659 0.114888 2.661220 178 168 173
-0.200563 0.120236 2.658182 179 169 166
-0.120487 0.119676 2.662238 175 167 165
-0.222376 0.125969 2.658940 182 175 169
-0.220466 0.126875 2.661274 182 175 168
-0.193609 0.128922 2.657906 179 173 169
-0.170341 0.129770 2.658723 180 170 168
-0.201391 0.138272 2.658018 179 170 163
-0.228552 0.145631 2.658829 178 170 167
0.459154 0.147297 2.658078 160 152 149
-0.251233 0.166607 2.661913 179 169 167
-0.243126 0.163946 2.661773 179 169 167
-0.083974 0.168820 2.660954 175 167 165
0.459785 0.179846 2.661391 156 146 144
-0.095852 0.185786 2.661871 180 170 168
-0.278582 0.190101 2.660343 180 170 168
-0.113501 0.190760 2.659189 180 170 168
-0.200693 0.199452 2.659856 180 171 164
-0.101341 0.206227 2.660972 180 170 168
0.602455 0.208070 2.662396 135 154 128
0.570649 0.211947 2.660598 46 56 54
0.613504 0.211653 2.660403 136 150 126
0.578490 0.215427 2.662131 130 146 136
-0.258631 0.220185 2.658893 180 171 164
-0.373946 0.225690 2.660779 187 180 164
-0.284099 0.227861 2.662021 186 179 163
-0.263600 0.229480 2.658488 180 171 164
-0.073745 0.229344 2.661908 182 175 169
0.539149 0.228543 2.661127 89 105 86
0.604920 0.234445 2.662358 147 160 142
-0.309989 0.241514 2.658491 180 171 164
-0.246199 0.241263 2.659659 180 171 164
-0.070951 0.239267 2.658418 181 174 166
0.583527 0.241377 2.659314 171 163 160
-0.366507 0.248021 2.661702 179 169 167
-0.221708 0.246515 2.660558 178 170 160
-0.199194 0.244404 2.661520 175 167 164
0.568614 0.245198 2.662425 138 156 133
0.585035 0.247514 2.659063 141 158 143
0.601510 0.246150 2.658354 146 162 142
0.612934 0.247381 2.658250 27 33 27
0.638706 0.250696 2.658032 47 52 39
0.531738 0.254099 2.659417 137 155 132
0.592900 0.257658 2.658997 139 150 126
-0.203024 0.262893 2.659844 183 174 166
0.576284 0.259002 2.658968 141 158 137
-0.158144 0.270680 2.659944 179 170 161
0.652094 0.269778 2.662643 150 163 149
0.576115 0.277605 2.660933 140 155 130
-0.280317 0.279559 2.657926 183 174 167
0.515057 0.279660 2.662228 138 156 133
0.483940 0.284237 2.662499 142 159 140
0.532893 0.288173 2.661649 140 156 137
-0.297772 0.291198 2.662365 182 173 166
-0.290827 0.292645 2.661114 182 173 166
0.501157 0.292421 2.658385 140 158 139
0.435392 0.303358 2.658114 143 160 141
0.549427 0.300897 2.660374 137 155 133
0.476133 0.308359 2.662165 121 136 120
-0.264517 0.312231 2.658670 180 170 168
0.488975 0.312844 2.662671 139 156 135
0.573177 0.315340 2.661384 141 156 134
0.455867 0.319435 2.658649 142 155 132
0.426054 0.324674 2.661376 139 153 128
0.493851 0.326894 2.659799 139 156 131
0.443876 0.332417 2.658455 142 156 134
0.466321 0.330366 2.662490 125 134 110
0.431387 0.334243 2.658156 141 154 135
0.411404 0.342877 2.661387 139 157 135
-0.267265 0.348093 2.662841 179 170 163
0.499571 0.346174 2.662696 147 161 144
0.353139 0.350541 2.658356 0 2 0
0.345214 0.362919 2.661024 0 1 4
0.569330 0.472270 2.658197 1 6 12
0.597847 0.492734 2.662627 81 84 94
0.152189 -0.377026 2.665122 156 157 168
0.207862 -0.380791 2.663072 12 25 28
0.164186 -0.375655 2.663217 157 159 163
-0.024766 -0.354532 2.662953 162 166 173
0.233528 -0.351115 2.665589 28 47 45
0.294386 -0.322854 2.663821 178 168 176
0.245782 -0.254219 2.665573 165 162 167
0.242489 -0.247948 2.665311 111 118 130
0.209020 -0.239161 2.663209 64 79 92
0.212673 -0.232958 2.664399 46 61 90
0.214545 -0.232799 2.664217 54 70 101
0.072689 -0.210964 2.662984 129 134 138
0.271129 -0.210545 2.667641 1 9 14
0.264624 -0.191768 2.663651 59 66 71
0.306094 -0.189341 2.664174 168 166 167
0.390127 -0.179087 2.667444 176 169 162
0.311934 -0.171899 2.664975 178 170 167
0.307015 -0.162973 2.667406 176 168 164
0.348837 -0.165290 2.665539 4 14 23
0.269479 -0.159426 2.666023 4 10 15
-0.021257 -0.151257 2.664159 137 143 147
0.325331 -0.150407 2.666155 0 2 15
0.287102 -0.129695 2.664679 104 117 126
0.400867 -0.123580 2.665715 159 156 157
0.313162 -0.105588 2.665010 171 163 161
0.329158 -0.098061 2.666599 142 143 147
0.511104 -0.096381 2.662911 175 169 167
0.391300 -0.091481 2.667640 160 156 154
0.245417 -0.086176 2.664499 50 67 85
0.427061 -0.084867 2.663372 174 166 163
0.358442 -0.079864 2.664819 170 162 160
0.616587 -0.075136 2.667568 182 175 169
0.398296 -0.068530 2.664380 28 28 35
0.172233 -0.063859 2.664864 107 117 126
0.157349 -0.061339 2.666463 149 153 156
0.471879 -0.052414 2.664778 177 168 170
0.173891 -0.048903 2.665287 87 96 105
0.430153 -0.048561 2.664791 3 5 13
0.353180 -0.029510 2.664422 4 3 7
0.356173 -0.031219 2.664239 7 6 11
0.457096 -0.026720 2.663072 179 176 169
0.148979 -0.021935 2.666705 124 127 130
-0.199832 -0.018209 2.664306 179 171 168
-0.187003 -0.016631 2.663585 179 171 169
0.556626 -0.018333 2.663516 175 167 165
-0.207402 -0.012883 2.665714 179 172 162
-0.174254 -0.013122 2.663916 179 171 169
-0.198605 -0.010479 2.664124 179 171 169
-0.199765 -0.001721 2.667726 178 170 167
-0.208246 0.001447 2.664977 178 170 165
-0.210019 0.006359 2.664259 178 169 167
-0.198796 0.011404 2.664506 178 169 168
0.511480 0.014082 2.665481 175 167 165
-0.165620 0.025949 2.666348 184 175 168
-0.178836 0.032125 2.664377 178 170 167
-0.145189 0.039271 2.665388 180 170 169
-0.210908 0.045549 2.666159 179 171 168
-0.168430 0.051598 2.666153 179 171 168
-0.163339 0.050543 2.666795 179 171 169
-0.134274 0.052288 2.666605 179 171 169
0.507586 0.049248 2.665689 178 170 168
-0.169459 0.057265 2.665965 179 171 169
-0.134434 0.056029 2.664382 179 171 169
-0.163649 0.058598 2.666058 179 171 169
-0.097452 0.061849 2.664676 179 168 172
-0.095453 0.060972 2.664304 179 168 173
0.470443 0.058924 2.665541 91 94 97
-0.099217 0.072334 2.667021 178 170 167
0.452406 0.078157 2.666435 170 162 160
-0.184638 0.081335 2.667713 184 177 169
-0.099641 0.095577 2.663658 178 168 166
0.473526 0.107752 2.662961 6 16 21
-0.091964 0.109575 2.665988 175 167 164
0.461135 0.117127 2.666634 180 172 168
0.560162 0.119243 2.666066 177 168 163
0.570407 0.122576 2.666669 175 167 165
-0.077959 0.125173 2.662943 178 168 167
-0.209415 0.128411 2.666967 180 171 164
0.554776 0.132209 2.662887 164 158 163
0.578002 0.130338 2.665625 175 167 163
-0.279324 0.136153 2.664551 181 174 166
-0.062504 0.137427 2.663108 180 170 168
0.381358 0.137012 2.666723 0 4 11
0.557400 0.135118 2.665021 107 103 112
-0.096958 0.141824 2.664526 177 168 169
0.549500 0.142846 2.666356 6 7 26
-0.285728 0.148163 2.666622 180 172 166
0.549098 0.148784 2.665570 0 0 11
-0.190229 0.169663 2.664618 179 171 164
-0.249586 0.175395 2.665404 178 169 166
-0.152057 0.181256 2.664707 179 172 164
0.271864 0.181741 2.667571 0 1 5
-0.066985 0.185795 2.665387 179 169 167
0.357247 0.187122 2.664789 0 1 6
-0.115180 0.196928 2.665925 183 175 167
-0.228211 0.202711 2.664645 179 171 168
0.328741 0.212931 2.664575 0 0 3
-0.231633 0.215177 2.666887 189 181 167
0.439001 0.215115 2.665118 163 156 148
-0.269008 0.238714 2.663570 180 171 164
-0.071712 0.240545 2.667021 181 174 166
0.521636 0.240561 2.664915 0 1 4
-0.364817 0.243610 2.667795 179 169 167
-0.239195 0.244790 2.666741 179 170 163
-0.228095 0.243631 2.667141 182 173 166
-0.199381 0.247612 2.664886 175 167 165
-0.167789 0.247122 2.664758 175 167 164
0.541100 0.244178 2.665627 143 158 137
-0.192280 0.248605 2.663977 179 170 163
0.560082 0.260652 2.663426 139 156 139
-0.368004 0.264190 2.666850 178 170 167
-0.295528 0.272858 2.663247 188 180 169
-0.095193 0.272334 2.667596 179 172 156
0.522485 0.270132 2.663297 138 156 133
0.539450 0.271799 2.663454 138 156 136
-0.367279 0.281654 2.665672 179 169 167
0.560368 0.283334 2.663675 139 158 139
0.551213 0.285051 2.665217 140 157 137
-0.358931 0.289035 2.664449 179 169 165
-0.099245 0.293282 2.665001 182 175 157
0.507421 0.292173 2.667459 139 156 138
0.491476 0.297240 2.667599 139 157 132
0.538013 0.300072 2.666816 138 156 131
-0.200349 0.306960 2.666826 181 173 162
0.660312 0.307262 2.666755 158 157 143
0.475180 0.318332 2.667203 140 158 137
0.509683 0.322103 2.665936 140 157 128
0.541263 0.322345 2.665664 145 160 139
0.443146 0.329087 2.666174 144 158 135
0.487179 0.337269 2.663861 141 159 136
0.439235 0.347919 2.664369 141 158 139
0.626318 0.346394 2.664005 175 168 160
0.573421 0.366580 2.663187 1 17 23
-0.273062 0.401121 2.665417 179 170 163
0.594056 0.413944 2.667741 155 148 140
0.575488 0.473935 2.667570 1 6 12
0.468211 -0.576334 2.670995 182 175 169
0.204751 -0.356029 2.670215 160 157 164
0.282417 -0.353666 2.668541 174 168 170
0.195895 -0.345646 2.670931 121 125 132
0.241493 -0.244438 2.671269 98 107 119
0.246184 -0.235122 2.671098 153 152 145
0.217633 -0.231570 2.671121 55 70 103
0.264462 -0.229286 2.669317 10 13 20
0.353582 -0.230724 2.669109 131 134 141
0.241764 -0.225495 2.671621 16 18 20
0.208636 -0.219552 2.667969 27 52 72
0.243298 -0.205170 2.670600 30 33 36
0.334222 -0.177035 2.672317 77 88 104
0.362060 -0.162703 2.671344 47 58 70
0.226758 -0.149865 2.668321 51 65 78
0.307828 -0.147892 2.672306 176 168 165
0.409569 -0.138990 2.668167 150 151 149
0.062391 -0.111779 2.669124 97 112 127
0.399138 -0.114294 2.671404 132 135 137
0.412293 -0.097931 2.671411 60 72 73
0.630450 -0.098429 2.667926 184 177 167
0.234931 -0.094640 2.672634 126 141 157
0.256958 -0.096384 2.672754 110 126 144
0.273109 -0.096069 2.670365 108 127 150
0.482622 -0.095306 2.667916 178 170 168
0.561403 -0.094378 2.671088 174 166 165
0.363689 -0.088840 2.671355 49 52 58
0.629562 -0.089024 2.668067 183 176 168
0.317386 -0.083434 2.670596 156 150 140
0.397533 -0.082188 2.670827 178 169 172
0.620219 -0.085328 2.668132 184 177 169
0.222487 -0.080409 2.672426 0 1 5
0.492517 -0.079068 2.668386 171 167 165
0.544621 -0.080642 2.668368 173 167 165
0.649495 -0.080420 2.672770 183 176 169
0.211756 -0.073046 2.667984 59 75 101
0.259786 -0.072353 2.668156 0 0 10
0.176792 -0.068354 2.671551 143 146 149
0.376748 -0.069604 2.668301 174 166 164
0.333616 -0.064234 2.668032 193 187 191
0.459937 -0.052259 2.670003 177 169 166
0.153120 -0.039810 2.671069 135 141 145
0.465945 -0.033577 2.669798 177 168 168
0.356679 -0.028767 2.670997 3 3 7
-0.213499 -0.017892 2.671984 180 173 167
0.535175 -0.018228 2.671788 174 166 163
0.408461 -0.003267 2.669745 137 134 141
-0.164038 0.000795 2.667892 179 171 169
0.366818 -0.000122 2.668108 0 0 8
0.373598 0.000400 2.671962 156 149 156
0.385978 0.001510 2.667959 1 4 12
0.422006 0.004928 2.670452 86 79 86
0.373430 0.018089 2.671977 1 1 9
0.472756 0.018055 2.669371 166 158 155
0.523496 0.034674 2.668807 180 171 164
-0.199850 0.040606 2.670534 177 169 166
-0.133951 0.039734 2.668241 180 169 173
0.445449 0.041998 2.671837 171 163 161
-0.106265 0.044906 2.670141 184 177 169
-0.167834 0.050504 2.670068 179 171 169
0.632304 0.053173 2.670027 51 53 60
-0.135582 0.058213 2.670621 179 171 169
0.507190 0.053627 2.671615 177 169 167
-0.135749 0.060403 2.671373 179 171 169
-0.127559 0.066565 2.670022 182 175 167
-0.097271 0.064416 2.670511 179 168 172
0.536050 0.069431 2.668545 174 166 163
-0.096373 0.076985 2.671916 178 170 167
0.486501 0.089685 2.668482 170 162 159
0.483715 0.096175 2.669524 167 158 159
-0.044581 0.111171 2.672091 179 171 169
-0.053206 0.117701 2.669794 178 168 175
-0.211370 0.121886 2.671691 180 171 166
0.570015 0.127038 2.672144 173 164 160
-0.222213 0.140098 2.668814 177 169 166
0.371560 0.139779 2.668608 0 5 11
0.440742 0.142532 2.669448 155 148 143
-0.235583 0.148653 2.668374 179 171 167
-0.086155 0.150009 2.668034 178 169 167
0.547953 0.151369 2.672564 1 1 12
-0.367325 0.166507 2.669345 179 171 169
-0.304013 0.164288 2.668321 179 170 164
-0.239328 0.165578 2.672333 181 174 166
-0.036870 0.166489 2.672449 182 175 167
-0.081278 0.170389 2.671808 175 167 165
0.486230 0.169344 2.668282 176 168 166
-0.272405 0.177723 2.672819 179 169 167
-0.303850 0.186396 2.669971 188 182 169
-0.062339 0.194204 2.670259 186 179 169
-0.370415 0.201906 2.670124 179 169 167
-0.316468 0.203250 2.671447 179 169 167
-0.262590 0.202570 2.669883 181 172 166
-0.228043 0.203149 2.672286 179 171 168
0.415955 0.203001 2.672630 157 150 142
-0.332424 0.204281 2.668917 189 181 169
-0.216601 0.205118 2.667894 176 168 165
0.589902 0.214082 2.668251 146 164 143
-0.220726 0.218974 2.671479 177 169 159
-0.177743 0.218934 2.669276 187 179 168
-0.365406 0.228038 2.668542 179 169 167
0.554677 0.226875 2.672417 71 84 76
0.592520 0.227243 2.670099 140 154 131
-0.314650 0.229559 2.672299 185 179 163
-0.214091 0.230918 2.669891 179 170 163
0.589565 0.241507 2.669752 138 153 129
0.606871 0.241540 2.672390 135 148 129
-0.134453 0.249456 2.667888 180 170 168
0.389914 0.249477 2.672747 0 0 8
0.643701 0.252266 2.670125 44 49 36
0.533949 0.254922 2.670242 140 158 135
0.589190 0.258025 2.668487 142 156 135
0.574322 0.265852 2.670591 142 162 139
-0.156796 0.277137 2.670714 179 170 158
0.577048 0.277773 2.670791 138 155 133
0.589603 0.274796 2.668681 141 156 130
-0.249601 0.279858 2.669413 184 178 166
-0.366315 0.286823 2.671834 179 169 166
0.541768 0.286514 2.668242 140 157 137
0.598678 0.288742 2.671819 140 151 127
-0.367729 0.294853 2.670046 177 169 162
0.448920 0.295936 2.672502 133 150 128
0.467070 0.301835 2.669208 0 1 4
0.477248 0.298503 2.669190 136 153 133
-0.251288 0.308277 2.669855 180 170 168
0.520182 0.303556 2.669273 87 96 85
-0.266450 0.317163 2.668411 180 170 168
0.522355 0.324732 2.668653 140 159 137
0.501994 0.331058 2.670146 139 157 133
0.415862 0.335031 2.669153 142 156 132
0.526859 0.341250 2.672004 140 154 132
0.393731 0.347854 2.669159 148 165 141
0.489880 0.351566 2.667887 141 158 137
0.350955 0.366765 2.671958 0 1 5
0.220886 0.406026 2.669664 0 0 0
0.221110 0.408996 2.672291 0 0 0
0.095424 -0.431391 2.674930 177 169 167
0.251610 -0.392811 2.677864 170 169 174
0.207336 -0.383551 2.675438 11 25 27
0.151578 -0.364891 2.677575 77 96 113
0.285352 -0.357219 2.676806 173 167 171
0.266405 -0.354850 2.673220 133 132 138
0.260908 -0.338999 2.676178 31 38 48
0.194089 -0.332504 2.677201 99 110 131
0.244546 -0.249275 2.675706 115 118 128
0.256981 -0.237851 2.673806 81 86 102
0.355173 -0.232099 2.677134 138 141 147
0.280587 -0.225745 2.677538 93 95 99
0.237883 -0.214670 2.676026 46 51 49
0.354555 -0.205430 2.676057 162 158 159
0.286797 -0.196852 2.675161 175 167 175
0.048238 -0.190956 2.673385 34 45 60
0.270438 -0.183841 2.675511 166 166 162
0.106146 -0.167829 2.673462 88 101 107
0.478365 -0.150529 2.676965 178 170 167
0.290630 -0.130239 2.673857 126 138 144
0.399791 -0.126618 2.677628 164 158 157
-0.043789 -0.109511 2.673019 166 165 163
0.406595 -0.108418 2.675907 123 124 124
0.379603 -0.099631 2.676669 178 170 168
0.483182 -0.096112 2.677050 178 169 168
0.515010 -0.095575 2.676513 175 169 167
0.429971 -0.084458 2.677063 173 165 163
0.477136 -0.085079 2.673853 15 31 42
0.318898 -0.067172 2.675195 154 146 143
0.470858 -0.051718 2.677801 177 168 171
0.320346 -0.039859 2.676311 152 144 141
0.408072 -0.039221 2.674465 178 170 168
0.467598 -0.040421 2.673078 176 167 169
0.528705 -0.038169 2.674798 175 167 165
0.364483 -0.036444 2.675151 175 167 165
-0.205272 -0.018175 2.676747 179 172 167
0.422286 -0.003662 2.675105 175 166 167
-0.213514 0.001576 2.676587 178 170 165
-0.202293 0.001246 2.677081 178 170 167
0.409115 -0.001357 2.675054 49 46 55
-0.199151 0.009448 2.674775 178 170 168
0.473773 0.010279 2.676997 169 161 158
-0.158045 0.016519 2.677275 186 179 169
0.505405 0.018021 2.673979 172 164 161
0.542913 0.016849 2.675319 177 169 167
0.611445 0.019751 2.677003 185 178 169
-0.150368 0.038501 2.675431 180 170 169
0.427939 0.042566 2.674905 171 166 163
0.485756 0.041221 2.673856 173 165 162
0.505704 0.040587 2.673330 3 13 23
-0.213477 0.046547 2.673704 179 171 168
0.459931 0.045038 2.673898 172 164 162
-0.176475 0.049855 2.673186 179 169 167
-0.150772 0.057071 2.675185 179 171 169
-0.167786 0.061543 2.673836 179 171 169
-0.164918 0.061685 2.673177 179 171 169
0.425939 0.062353 2.676760 162 155 146
0.473227 0.065720 2.673775 174 165 168
-0.226653 0.079029 2.674085 179 169 165
-0.100195 0.101198 2.676835 177 168 166
0.570715 0.101937 2.677396 178 170 167
-0.086813 0.112352 2.673727 177 168 165
-0.085439 0.109466 2.677599 179 170 167
-0.073433 0.108689 2.676913 177 168 165
-0.050859 0.113099 2.675122 178 169 171
-0.170191 0.116508 2.675977 180 170 168
-0.056449 0.117852 2.675502 178 169 172
-0.052296 0.118165 2.674155 178 168 172
-0.121784 0.121890 2.675756 175 167 165
-0.097948 0.118789 2.673075 179 171 168
-0.074979 0.122418 2.674786 179 169 167
0.526914 0.120404 2.676728 84 80 90
-0.115685 0.125042 2.674363 180 171 168
-0.060771 0.127212 2.674835 179 169 167
0.529043 0.124958 2.677489 0 1 11
0.561211 0.127394 2.673269 177 165 162
-0.278305 0.128619 2.673948 182 175 167
-0.206785 0.130844 2.676388 177 175 168
0.134564 0.130333 2.673584 0 0 8
0.551786 0.132995 2.676153 177 168 169
-0.223103 0.138496 2.675204 177 169 166
0.472838 0.141443 2.676498 180 172 169
-0.287091 0.148110 2.676587 180 172 166
-0.098622 0.146650 2.674572 177 168 168
-0.051214 0.146175 2.675618 179 171 169
0.475520 0.148009 2.677578 0 0 12
-0.093634 0.152945 2.674986 179 169 167
0.371848 0.151518 2.674034 0 2 9
-0.287690 0.163263 2.677083 179 169 167
0.522631 0.160321 2.673135 0 2 11
-0.207402 0.166615 2.677462 180 172 164
0.482946 0.167694 2.676747 178 170 167
-0.193331 0.173358 2.675615 180 171 164
-0.367985 0.178610 2.674700 179 171 169
-0.373244 0.204314 2.674953 179 169 167
-0.318545 0.205258 2.676396 179 169 167
0.438476 0.212994 2.674907 163 156 148
-0.260825 0.217668 2.673888 180 171 164
0.572452 0.217361 2.673519 74 85 77
-0.290858 0.230384 2.674463 186 179 163
0.581593 0.228915 2.673214 142 157 136
0.572181 0.236952 2.676515 138 156 130
-0.263007 0.238573 2.674459 187 180 164
-0.370300 0.249506 2.676739 179 169 167
-0.067970 0.250291 2.676958 181 174 164
-0.372854 0.254373 2.675248 179 169 167
-0.053303 0.256760 2.672950 181 174 164
0.622903 0.255619 2.673356 0 1 6
-0.061879 0.262932 2.673798 181 174 165
0.501683 0.261246 2.677708 175 169 157
-0.135276 0.272409 2.677505 182 175 159
-0.092600 0.275958 2.676483 179 172 156
0.552354 0.274939 2.675437 142 159 141
0.561273 0.281931 2.673856 139 155 137
-0.093877 0.285320 2.675207 181 174 156
0.328981 0.283394 2.673198 0 2 4
-0.366929 0.289518 2.675500 179 169 166
-0.366704 0.296364 2.675342 177 170 162
0.518055 0.295389 2.677596 143 152 130
0.550950 0.296993 2.675049 137 155 131
0.492423 0.305125 2.675653 140 157 138
0.457131 0.313804 2.674976 144 155 130
0.555968 0.316982 2.675836 70 83 76
0.577976 0.318186 2.674394 141 155 135
0.537282 0.322516 2.677286 143 161 137
0.427779 0.325644 2.674995 139 153 127
0.489903 0.324464 2.673912 138 155 132
0.520673 0.326483 2.677645 141 159 135
0.484319 0.340458 2.675836 141 159 136
0.642606 0.343693 2.674295 176 168 164
0.475569 0.352970 2.677052 143 159 142
0.679874 0.366340 2.677360 179 171 168
0.207545 0.413906 2.676914 0 0 0
0.605323 0.495254 2.674051 130 133 142
0.149544 -0.374849 2.679135 122 129 143
0.162832 -0.373201 2.679351 128 136 145
-0.028638 -0.353859 2.680803 161 163 168
0.183183 -0.298736 2.678898 22 40 51
0.213272 -0.294079 2.678682 163 157 159
0.199171 -0.247338 2.680640 167 167 177
0.267074 -0.227583 2.681640 0 2 9
0.225322 -0.224675 2.678623 152 151 142
0.110807 -0.208420 2.678767 77 83 95
0.219304 -0.201951 2.679542 166 165 171
0.303633 -0.185187 2.680376 157 155 156
0.375282 -0.185498 2.680835 175 166 171
0.357872 -0.165608 2.678350 73 82 94
0.111929 -0.153591 2.678334 75 90 118
0.303795 -0.155315 2.680512 174 166 164
0.368673 -0.128099 2.682333 107 115 119
0.066533 -0.105673 2.680269 97 113 129
0.627199 -0.100386 2.681262 184 177 167
0.249120 -0.092205 2.681488 114 129 144
0.625898 -0.091810 2.680292 183 176 168
0.252783 -0.082391 2.678666 58 75 94
0.360543 -0.084891 2.680515 170 162 160
0.380076 -0.082627 2.678660 174 166 164
0.396714 -0.083590 2.681562 178 169 172
0.614418 -0.086263 2.679554 184 177 169
0.058403 -0.076621 2.678144 111 118 121
0.270772 -0.074632 2.678811 0 2 2
0.218662 -0.068949 2.681961 78 95 121
0.182490 -0.064105 2.682168 146 146 148
0.369235 -0.062776 2.682580 0 16 17
0.355162 -0.040584 2.681370 165 157 155
0.164408 -0.027269 2.678834 98 109 117
0.279235 -0.019435 2.678729 0 3 8
0.475003 -0.017688 2.677873 178 169 172
-0.188141 -0.013837 2.682425 179 171 169
-0.168129 0.000730 2.678525 179 171 169
-0.208406 0.010700 2.681086 178 169 170
0.528366 0.009738 2.678788 175 167 165
0.552592 0.017116 2.682566 178 170 168
0.419411 0.041970 2.679371 163 155 152
-0.168383 0.049065 2.681662 182 175 167
0.613431 0.057600 2.678761 175 166 166
0.581755 0.065345 2.678791 177 169 167
-0.080155 0.075894 2.680321 182 172 169
0.552207 0.075261 2.682308 178 169 172
-0.092774 0.111666 2.682192 177 169 166
0.448997 0.108474 2.679705 160 152 149
-0.055844 0.114549 2.681363 178 169 172
0.120684 0.116601 2.679932 0 1 6
0.548241 0.116273 2.679632 176 171 164
-0.119415 0.121960 2.682194 175 167 165
-0.070974 0.120045 2.682416 179 169 167
0.486766 0.120244 2.682023 6 14 21
-0.072934 0.132000 2.680364 179 169 167
0.562429 0.131527 2.680700 177 163 162
0.572622 0.130552 2.680599 175 166 163
-0.171883 0.136393 2.681819 180 170 168
-0.108678 0.136312 2.682775 180 170 168
0.400225 0.135530 2.681292 148 142 139
0.565500 0.135635 2.678905 179 171 169
0.376817 0.139236 2.678463 0 5 11
-0.150014 0.152338 2.678816 178 168 166
0.468646 0.149392 2.682306 160 152 149
-0.191023 0.160488 2.678790 179 172 164
-0.189932 0.179464 2.681427 179 171 169
-0.068613 0.185018 2.680568 181 171 169
0.545150 0.188485 2.680362 167 160 152
-0.276926 0.196656 2.682076 180 170 168
-0.304123 0.207338 2.680761 187 179 168
-0.267572 0.204608 2.679061 180 170 166
0.596251 0.215571 2.679835 144 161 142
0.596770 0.227166 2.681324 140 154 131
-0.106849 0.229690 2.681671 185 178 169
-0.367528 0.238015 2.681358 179 169 167
-0.071556 0.237618 2.678433 181 174 166
0.482628 0.236068 2.679692 163 162 148
0.550011 0.233404 2.680481 135 154 129
-0.224375 0.242755 2.682130 180 171 165
-0.044732 0.243509 2.680218 184 177 169
-0.204098 0.257711 2.681619 179 171 160
-0.321300 0.261313 2.679482 180 171 161
0.386479 0.263235 2.678668 1 2 7
0.566011 0.258767 2.680175 138 154 134
0.540276 0.263830 2.678952 137 155 131
0.581435 0.266788 2.680729 142 159 139
0.591532 0.269439 2.679210 141 156 131
0.542201 0.274952 2.679324 136 154 132
-0.149313 0.279578 2.681305 184 175 165
0.530911 0.282527 2.678115 139 157 135
-0.121579 0.285055 2.681788 179 172 152
0.520564 0.283691 2.678985 138 156 133
0.485137 0.289253 2.679048 139 157 135
0.507840 0.290224 2.680111 139 156 134
-0.105316 0.295508 2.678288 180 173 156
0.526925 0.301299 2.679916 133 150 130
-0.203531 0.304985 2.681998 180 172 161
0.504025 0.305338 2.679122 138 157 137
0.662980 0.304548 2.678890 154 157 139
0.527835 0.312689 2.681890 137 152 131
0.447063 0.313724 2.682506 139 156 137
0.478117 0.313868 2.678559 138 156 137
0.499097 0.317044 2.680856 166 159 149
0.516709 0.314568 2.678448 138 153 129
0.465905 0.324843 2.679606 140 155 134
-0.271123 0.332467 2.678975 179 169 167
0.443915 0.329330 2.682273 148 163 139
0.508922 0.329936 2.680726 138 155 131
0.459393 0.343273 2.679929 141 157 138
0.417604 0.348348 2.679336 140 158 138
0.488951 0.351773 2.680030 143 161 141
0.368406 0.357122 2.682143 11 14 12
0.352757 0.359295 2.678379 0 1 4
0.356814 0.370237 2.681017 0 1 5
0.707869 0.416751 2.678390 178 171 163
0.157312 -0.359187 2.685907 41 57 78
0.286860 -0.358990 2.686310 172 166 171
0.202771 -0.351238 2.686501 127 130 137
0.129347 -0.329155 2.683519 145 142 148
0.233057 -0.319298 2.687046 35 36 48
0.203135 -0.311649 2.684252 166 164 164
0.231570 -0.301362 2.685099 144 144 146
0.247316 -0.249734 2.685044 138 139 146
0.244080 -0.245332 2.684631 113 120 132
0.265520 -0.195539 2.686088 32 45 48
0.273364 -0.182480 2.684724 163 163 157
0.359310 -0.167073 2.685329 81 88 99
0.381364 -0.159010 2.686130 4 15 21
-0.029430 -0.129804 2.687305 165 166 170
0.306430 -0.100472 2.687313 164 156 154
0.317736 -0.086662 2.685768 157 149 146
0.380913 -0.091351 2.683219 177 169 167
0.398310 -0.089300 2.685390 178 169 172
0.551601 -0.083423 2.686606 174 166 165
0.320710 -0.068276 2.683531 154 146 143
0.378207 -0.068751 2.684386 173 165 163
0.322266 -0.043005 2.687160 152 144 141
0.469854 -0.040927 2.686255 177 168 169
-0.209245 -0.018142 2.685017 180 173 166
-0.214064 -0.014578 2.684990 179 172 164
0.505185 -0.009698 2.685196 31 40 41
0.408492 -0.003219 2.686962 82 79 87
-0.202607 0.001239 2.683692 178 170 168
-0.169535 0.000263 2.686776 179 171 169
0.366755 -0.000053 2.687247 0 0 9
0.374833 -0.000284 2.685544 124 117 126
-0.205373 0.009426 2.685256 178 169 168
0.368835 0.021665 2.685133 149 141 138
0.477773 0.020289 2.684834 165 157 154
0.614630 0.021051 2.685193 184 177 168
-0.161200 0.030908 2.683697 182 173 168
0.542398 0.037054 2.684046 178 170 168
-0.216538 0.049633 2.686497 180 172 169
0.510590 0.054677 2.683259 177 169 167
0.535017 0.058534 2.684196 179 171 169
0.426404 0.064742 2.686502 161 154 146
0.583568 0.068970 2.684694 177 169 167
0.586851 0.069882 2.687066 177 169 167
0.488355 0.077395 2.685796 177 168 173
0.673845 0.076302 2.687154 1 11 18
-0.228250 0.082363 2.686855 179 169 167
-0.180914 0.081778 2.685647 184 177 169
-0.101740 0.101907 2.683671 178 168 166
-0.100075 0.106729 2.685676 177 169 166
0.584368 0.107850 2.683721 175 167 166
-0.073598 0.112147 2.683346 179 169 167
-0.052627 0.112780 2.684180 178 169 171
0.584598 0.110158 2.684602 175 167 165
-0.095030 0.115105 2.684405 175 167 164
0.120603 0.113876 2.683949 0 1 6
0.549909 0.113643 2.684789 179 171 168
-0.097347 0.119186 2.684449 179 171 168
-0.083891 0.120540 2.683275 179 169 167
0.525413 0.122490 2.685442 29 27 38
-0.213571 0.127587 2.685277 180 171 164
-0.123651 0.125838 2.683116 175 167 165
-0.286306 0.135186 2.686948 181 174 166
-0.142842 0.142672 2.685005 177 169 166
-0.069838 0.140100 2.684062 179 169 167
0.725048 0.139098 2.687804 184 177 169
-0.064623 0.147217 2.684868 180 172 169
0.515110 0.145371 2.686251 177 169 167
0.363383 0.149480 2.683088 0 0 4
-0.092524 0.159655 2.684784 179 169 167
-0.243999 0.168026 2.684919 181 174 166
-0.159077 0.188096 2.684447 177 169 166
-0.113783 0.191081 2.686722 181 171 169
-0.318700 0.201670 2.683563 179 169 167
-0.272326 0.202357 2.686475 180 170 167
0.256291 0.201837 2.687292 0 1 6
-0.207917 0.209059 2.683045 180 171 164
-0.265529 0.216638 2.687234 180 171 164
0.624189 0.215277 2.687382 143 159 134
-0.231702 0.220688 2.685310 184 176 164
-0.384944 0.228097 2.683376 187 180 164
0.563355 0.224486 2.685017 46 58 51
0.580775 0.226158 2.686776 120 136 121
0.575502 0.248184 2.684750 139 156 133
0.589397 0.245439 2.683111 136 151 128
0.601230 0.244887 2.684626 139 153 130
-0.228548 0.250568 2.685567 181 172 165
0.395705 0.254369 2.687654 0 1 5
-0.056892 0.263133 2.685388 181 174 165
0.483561 0.259120 2.683835 0 0 4
0.566027 0.270161 2.687659 138 156 136
0.473888 0.277609 2.684240 138 151 136
-0.257028 0.281187 2.685730 184 178 166
0.563738 0.282449 2.687009 137 151 136
0.541810 0.287031 2.683812 140 158 138
0.556249 0.295668 2.687440 137 155 131
-0.352393 0.298746 2.684244 177 170 162
0.483013 0.302078 2.685223 69 78 70
-0.268203 0.310669 2.687676 180 170 168
0.546093 0.312448 2.687347 139 155 128
0.493535 0.326941 2.684792 140 158 134
0.537398 0.325702 2.686520 143 161 138
0.429416 0.329354 2.684152 136 150 124
0.470474 0.336454 2.684095 139 153 135
0.503768 0.333739 2.687554 139 156 132
0.489382 0.338449 2.687288 140 158 134
0.444226 0.351359 2.683124 141 158 139
0.598381 0.416593 2.684699 157 150 142
-0.277933 0.422099 2.687847 181 169 160
0.620607 0.422086 2.684625 167 160 152
0.091495 -0.436547 2.691998 174 166 164
0.156806 -0.372459 2.689628 105 116 128
0.121096 -0.361989 2.688272 36 59 76
0.215624 -0.324839 2.691198 149 147 150
0.206179 -0.295067 2.691196 158 154 154
0.197154 -0.246104 2.691771 167 170 179
0.254819 -0.246490 2.689884 128 133 144
0.261329 -0.231781 2.692204 2 4 9
0.237615 -0.227478 2.689239 51 54 53
0.151989 -0.219815 2.689800 98 99 108
0.210089 -0.216604 2.688052 26 48 69
0.304968 -0.187479 2.689502 168 164 162
-0.000890 -0.160129 2.690011 102 109 123
0.308033 -0.150950 2.691440 176 168 165
0.406448 -0.117335 2.691034 117 123 128
0.389057 -0.108594 2.690194 178 169 171
0.442187 -0.087661 2.690536 142 138 145
0.551642 -0.088503 2.692466 176 166 165
0.383603 -0.084116 2.691256 176 167 167
0.406795 -0.086011 2.690298 176 168 170
0.481289 -0.085577 2.688594 13 27 39
0.368558 -0.069441 2.688515 178 169 172
0.224917 -0.065473 2.691626 84 100 126
0.382097 -0.065425 2.691411 174 166 164
0.397279 -0.053221 2.689617 176 168 166
0.472663 -0.054098 2.689237 178 169 172
0.215018 -0.045045 2.688442 148 153 147
0.406867 -0.033105 2.689449 178 169 169
0.476964 -0.034920 2.687955 178 169 174
0.169492 -0.023227 2.688205 99 109 116
0.406788 -0.018304 2.689327 155 147 144
0.580495 -0.011875 2.687969 178 170 167
0.162617 -0.011132 2.692015 130 130 132
0.385042 -0.001349 2.690666 154 148 151
0.525227 0.007973 2.691145 177 169 167
0.540584 0.010030 2.688449 178 170 168
0.435374 0.015774 2.690327 172 164 162
0.512347 0.020187 2.688765 171 163 160
-0.206111 0.038579 2.688996 179 169 168
0.262042 0.039439 2.692279 0 1 5
0.541004 0.065352 2.690255 174 166 163
0.552696 0.064741 2.689517 178 169 173
0.622275 0.067841 2.691054 184 177 167
0.552362 0.072811 2.689143 178 169 172
-0.080168 0.076246 2.691531 182 172 169
0.553032 0.075506 2.691542 178 169 172
0.585623 0.074904 2.691524 177 169 167
0.477330 0.079267 2.689979 174 164 171
-0.101557 0.106281 2.691991 177 168 166
-0.129303 0.108447 2.692543 178 168 166
-0.057497 0.121437 2.691941 178 169 172
0.508236 0.119463 2.689022 0 5 18
-0.276586 0.132129 2.692580 182 174 167
-0.095835 0.129156 2.690900 175 167 165
-0.080941 0.129528 2.688785 178 168 167
-0.072423 0.130295 2.692400 179 169 167
0.560424 0.131360 2.692086 178 169 170
0.350657 0.143483 2.691167 0 1 6
-0.090792 0.163318 2.691259 180 170 168
