ply
format ascii 1.0
element vertex 1172
property float x
property float y
property float z
property uchar red
property uchar green
property uchar blue
end_header
-0.150996 0.095976 1.667448 197 189 186
-0.151303 0.097412 1.670832 197 189 186
-0.236615 0.160101 2.612937 197 189 184
-0.236095 0.161685 2.607188 195 188 181
-0.205727 0.196574 2.271836 193 185 178
-0.205733 0.198268 2.271907 193 185 178
-0.195577 0.214147 2.159748 193 185 178
-0.194994 0.215108 2.153315 193 185 178
-0.195108 0.216834 2.154569 193 185 178
-0.195098 0.218424 2.154465 193 185 178
-0.253427 -0.642408 2.821726 215 209 219
-0.253335 -0.640082 2.820709 215 209 219
-0.253919 -0.639458 2.827215 215 209 219
-0.274763 -0.687405 3.059294 215 209 219
-0.276876 -0.690400 3.082816 215 209 219
-0.276059 -0.686082 3.073727 215 209 219
-0.159398 -0.394829 1.774785 215 209 219
-0.161199 -0.396623 1.794836 215 209 219
-0.161233 -0.395374 1.795218 215 209 219
-0.148563 -0.355705 1.654149 215 209 219
-0.191436 -0.452023 2.131511 214 208 218
-0.260154 -0.601370 2.896630 214 208 218
-0.260643 -0.596035 2.902081 212 206 216
-0.260361 -0.593235 2.898934 212 206 216
-0.261463 -0.593585 2.911212 212 206 216
-0.187619 -0.421286 2.089007 212 206 216
-0.187643 -0.419787 2.089267 212 206 215
-0.187785 -0.418551 2.090849 212 207 214
-0.188855 -0.419375 2.102767 212 207 214
-0.269045 -0.557395 2.995623 216 206 217
-0.271127 -0.557225 3.018812 217 206 219
-0.274371 -0.561622 3.054924 216 205 219
-0.275938 -0.562549 3.072378 216 206 218
-0.275103 -0.558572 3.063084 216 206 217
-0.151820 -0.289423 1.690412 216 204 218
-0.151177 -0.286946 1.683248 215 204 216
-0.158131 -0.289684 1.760683 212 207 213
-0.285096 -0.505768 3.174340 215 205 213
-0.286056 -0.505106 3.185029 215 205 213
-0.285961 -0.502573 3.183970 215 205 213
-0.291304 -0.504736 3.243461 215 205 211
-0.291624 -0.502879 3.247031 215 205 209
-0.292193 -0.501444 3.253365 215 206 209
-0.292247 -0.499119 3.253966 215 206 209
-0.292066 -0.496395 3.251954 215 206 209
-0.291908 -0.493712 3.250187 215 206 209
-0.295183 -0.469957 3.286659 215 206 209
-0.290852 -0.455845 3.238435 214 205 208
-0.256162 -0.367579 2.852180 212 204 202
-0.209169 -0.275930 2.328955 212 204 202
-0.209192 -0.274229 2.329204 212 204 202
-0.209117 -0.272402 2.328376 212 204 202
-0.209168 -0.270738 2.328936 212 204 202
-0.209236 -0.269096 2.329698 212 204 202
-0.209194 -0.267311 2.329226 212 204 202
-0.208968 -0.265295 2.326717 212 204 202
-0.208836 -0.263400 2.325241 212 204 202
-0.208754 -0.261570 2.324324 212 204 202
-0.281486 -0.348048 3.134154 212 204 202
-0.206563 -0.253699 2.299930 212 204 202
-0.329171 -0.398842 3.665085 212 204 202
-0.326537 -0.384848 3.635759 212 204 201
-0.327082 -0.382785 3.641828 212 204 201
-0.327684 -0.380780 3.648535 212 204 201
-0.328049 -0.378491 3.652597 212 204 201
-0.241945 -0.273144 2.693887 212 204 201
-0.284859 -0.314525 3.171707 212 204 202
-0.402567 -0.341282 4.482300 211 203 200
-0.293935 -0.205431 3.272756 206 201 197
-0.294865 -0.203643 3.283111 207 200 197
-0.295110 -0.201372 3.285843 208 200 197
-0.294690 -0.198648 3.281165 208 200 197
-0.142388 -0.093627 1.585390 208 199 197
-0.141776 -0.092053 1.578578 208 199 197
-0.189685 -0.090215 2.112012 207 199 196
-0.189684 -0.087077 2.111996 207 199 196
-0.189961 -0.085633 2.115078 207 199 196
-0.207322 -0.084887 2.308385 209 201 198
-0.208685 -0.083719 2.323557 210 202 199
-0.209491 -0.082310 2.332540 211 203 200
-0.210100 -0.080811 2.339314 211 203 200
-0.210173 -0.079102 2.340132 211 203 200
-0.231510 -0.085217 2.577701 211 203 200
-0.233426 -0.083992 2.599032 211 203 200
-0.233553 -0.082106 2.600445 211 203 200
-0.233957 -0.080313 2.604943 211 203 200
-0.234062 -0.076478 2.606112 211 203 200
-0.298922 -0.072949 3.328290 208 200 197
-0.261155 -0.042134 2.907779 208 200 197
-0.211479 -0.030622 2.354675 206 198 195
-0.211051 -0.018342 2.349904 205 198 190
-0.211561 -0.016636 2.355583 204 197 189
-0.212002 -0.014918 2.360490 203 196 188
-0.211818 -0.006146 2.358444 200 193 185
-0.213056 -0.004420 2.372233 200 193 185
-0.212949 -0.002656 2.371037 200 193 185
-0.212446 0.000864 2.365442 200 193 185
-0.213599 0.004402 2.378280 199 192 184
-0.214018 0.006180 2.382936 199 192 184
-0.193227 0.045531 2.151449 197 189 186
-0.530202 0.142472 5.903429 197 189 186
-0.142623 0.043043 1.588012 197 190 183
-0.151235 0.049394 1.683899 197 190 182
-0.151150 0.050616 1.682949 197 190 182
-0.151031 0.051826 1.681627 197 190 182
-0.142715 0.057234 1.589031 198 188 185
-0.151190 0.071886 1.683396 197 190 181
-0.151089 0.073087 1.682265 197 190 182
-0.151021 0.074304 1.681512 197 189 184
-0.509942 0.364764 5.677851 195 188 180
-0.204401 0.198613 2.275863 193 186 178
-0.192738 0.212783 2.145998 194 185 178
-0.251331 -0.642408 2.821726 215 209 219
-0.251240 -0.640082 2.820709 215 209 219
-0.251819 -0.639458 2.827215 215 209 219
-0.271112 -0.683926 3.043812 215 209 219
-0.275009 -0.691464 3.087564 215 209 219
-0.273884 -0.686351 3.074936 215 209 219
-0.158232 -0.395208 1.776492 215 209 219
-0.158437 -0.394399 1.778795 215 209 219
-0.159062 -0.394630 1.785817 215 209 219
-0.159106 -0.393411 1.786306 215 209 219
-0.147352 -0.356976 1.654347 215 209 219
-0.147487 -0.356072 1.655857 215 209 219
-0.204873 -0.491199 2.300135 215 209 219
-0.188218 -0.448130 2.113153 214 208 218
-0.225537 -0.533220 2.532133 214 208 218
-0.254103 -0.592282 2.852858 214 208 218
-0.255861 -0.587844 2.872588 212 206 216
-0.185714 -0.420486 2.085042 212 206 216
-0.185788 -0.419104 2.085870 212 206 215
-0.185967 -0.417957 2.087879 212 207 214
-0.186569 -0.417754 2.094638 212 207 214
-0.266874 -0.555283 2.996229 217 207 217
-0.270104 -0.559753 3.032503 217 206 219
-0.271898 -0.561202 3.052640 217 206 220
-0.272853 -0.560898 3.063360 217 206 218
-0.269882 -0.552541 3.030011 217 207 218
-0.151216 -0.293198 1.697729 214 205 215
-0.149839 -0.288028 1.682265 216 204 218
-0.157086 -0.291480 1.763633 212 207 213
-0.156480 -0.289050 1.756825 212 207 213
-0.280089 -0.501030 3.144603 214 204 212
-0.282896 -0.503692 3.176113 214 204 212
-0.284003 -0.503294 3.188539 214 204 212
-0.287253 -0.506658 3.225029 214 204 212
-0.287797 -0.505219 3.231143 214 204 212
-0.287200 -0.501774 3.224433 214 204 211
-0.287567 -0.500019 3.228560 214 205 210
-0.288092 -0.498528 3.234447 214 205 208
-0.288115 -0.496166 3.234711 214 205 208
-0.288044 -0.493642 3.233915 214 205 208
-0.288143 -0.491408 3.235019 214 205 208
-0.287946 -0.457454 3.232808 214 205 210
-0.287440 -0.454254 3.227132 214 205 208
-0.287559 -0.452045 3.228473 213 204 205
-0.254428 -0.368137 2.856506 212 204 202
-0.252577 -0.363352 2.835718 212 204 202
-0.286833 -0.407847 3.220312 212 204 202
-0.287909 -0.406977 3.232401 212 204 202
-0.287150 -0.403510 3.223878 212 204 202
-0.207401 -0.272420 2.328525 212 204 202
-0.207430 -0.270727 2.328843 212 204 202
-0.207465 -0.269043 2.329242 212 204 202
-0.207416 -0.267250 2.328692 212 204 202
-0.207165 -0.265199 2.325870 212 204 202
-0.207038 -0.263310 2.324451 212 204 202
-0.319362 -0.376867 3.585521 212 204 201
-0.320091 -0.375059 3.593713 212 204 201
-0.238945 -0.272007 2.682672 212 204 201
-0.258373 -0.279041 2.900795 212 204 202
-0.294999 -0.284156 3.311998 212 204 202
-0.396923 -0.345923 4.456308 212 204 201
-0.396420 -0.342180 4.450670 212 204 201
-0.395836 -0.338375 4.444111 211 203 200
-0.289229 -0.203829 3.247219 206 201 197
-0.290840 -0.202538 3.265300 207 200 197
-0.291589 -0.200628 3.273715 208 200 197
-0.291201 -0.197933 3.269358 208 200 197
-0.290272 -0.194881 3.258929 208 200 197
-0.140604 -0.092053 1.578578 208 200 197
-0.259683 -0.161351 2.915496 207 199 196
-0.187690 -0.094706 2.107218 207 199 196
-0.188068 -0.093329 2.111467 207 199 196
-0.188127 -0.091790 2.112134 207 199 196
-0.187755 -0.090042 2.107952 207 199 196
-0.187716 -0.086893 2.107517 207 199 196
-0.187876 -0.085400 2.109315 207 199 196
-0.188367 -0.082482 2.114827 208 200 197
-0.189599 -0.079859 2.128655 209 201 198
-0.207560 -0.082231 2.330309 211 203 200
-0.207862 -0.080618 2.333700 211 203 200
-0.207928 -0.078909 2.334438 211 203 200
-0.231168 -0.085801 2.595353 211 203 200
-0.232187 -0.084243 2.606802 211 203 200
-0.230214 -0.081607 2.584652 211 203 200
-0.209053 -0.060159 2.347068 210 202 199
-0.295977 -0.072833 3.322978 208 200 197
-0.254688 -0.058425 2.859421 208 200 197
-0.253707 -0.056084 2.848402 208 200 197
-0.253974 -0.054025 2.851403 208 200 197
-0.255875 -0.043760 2.872750 208 200 197
-0.255657 -0.041591 2.870303 208 200 197
-0.255941 -0.039503 2.873493 207 199 196
-0.292104 -0.040213 3.279491 206 198 195
-0.207117 -0.019877 2.325330 205 198 190
-0.207239 -0.018160 2.326703 205 198 190
-0.207186 -0.016428 2.326113 204 197 189
-0.207963 -0.006084 2.334832 200 193 185
-0.209160 -0.004375 2.348267 200 193 185
-0.209573 -0.002636 2.352902 200 193 185
-0.208395 -0.000883 2.339687 200 193 185
-0.207890 0.000852 2.334008 200 193 185
-0.209061 0.006087 2.347160 199 192 184
-0.232062 0.039656 2.605391 197 189 186
-0.232481 0.041666 2.610102 197 189 186
-0.191408 0.043882 2.148962 197 189 186
-0.190306 0.045216 2.136595 197 189 186
-0.508928 0.137896 5.713811 197 189 186
-0.149015 0.050318 1.673014 197 190 182
-0.148781 0.051479 1.670381 197 190 182
-0.262477 0.110519 2.946872 197 189 183
-0.148860 0.068886 1.671271 197 190 180
-0.148891 0.071383 1.671619 197 190 181
-0.148749 0.072556 1.670028 197 190 183
-0.495380 0.353172 5.561704 195 188 180
-0.202579 0.198484 2.274385 193 186 178
-0.202717 0.205381 2.275930 193 186 178
-0.202929 0.207288 2.278313 193 186 178
-0.191209 0.212856 2.146727 194 185 178
-0.249235 -0.642408 2.821726 215 209 219
-0.249145 -0.640082 2.820709 215 209 219
-0.249720 -0.639458 2.827215 215 209 219
-0.268172 -0.682200 3.036129 215 209 219
-0.271493 -0.688365 3.073727 215 209 219
-0.271046 -0.684951 3.068660 215 209 219
-0.156716 -0.394713 1.774267 215 209 219
-0.156781 -0.393559 1.775004 215 209 219
-0.156920 -0.392589 1.776582 215 209 219
-0.156842 -0.391075 1.775700 215 209 219
-0.146354 -0.357538 1.656953 215 209 219
-0.146240 -0.356031 1.655667 215 209 219
-0.222764 -0.529219 2.522031 214 208 218
-0.249081 -0.585459 2.819990 214 208 218
-0.250036 -0.581395 2.830801 212 206 216
-0.183669 -0.419352 2.079419 212 206 216
-0.183811 -0.418131 2.081026 212 206 215
-0.183925 -0.416843 2.082313 212 207 214
-0.184377 -0.416317 2.087434 212 207 214
-0.169726 -0.378955 1.921566 212 207 213
-0.268463 -0.563286 3.039417 217 207 217
-0.269453 -0.563099 3.050634 217 206 219
-0.270726 -0.563482 3.065039 217 206 220
-0.270131 -0.559971 3.058301 217 206 218
-0.268947 -0.555255 3.044897 217 207 218
-0.148879 -0.291094 1.685546 214 205 215
-0.148183 -0.288487 1.677666 215 204 217
-0.147492 -0.285901 1.669840 216 204 218
-0.147043 -0.283793 1.664752 215 204 216
-0.147410 -0.283263 1.668911 215 205 216
-0.156948 -0.296312 1.776900 212 206 213
-0.156662 -0.294455 1.773663 212 207 213
-0.156332 -0.292519 1.769919 212 207 213
-0.239193 -0.437506 2.708037 212 205 212
-0.279656 -0.502111 3.166145 214 204 212
-0.280727 -0.501673 3.178271 214 204 212
-0.285440 -0.498094 3.231630 214 205 208
-0.285445 -0.495702 3.231687 214 205 208
-0.285681 -0.493710 3.234361 214 205 208
-0.285867 -0.491627 3.236465 214 205 208
-0.851884 -1.457884 9.644660 214 205 208
-0.285393 -0.454812 3.231096 213 204 206
-0.285741 -0.452964 3.235039 212 204 204
-0.843201 -1.258664 9.546348 211 203 201
-0.251869 -0.367498 2.851549 212 204 202
-0.285502 -0.409368 3.232323 212 204 202
-0.285614 -0.407127 3.233591 212 204 202
-0.285047 -0.403923 3.227180 212 204 202
-0.833170 -1.152608 9.432783 212 204 202
-0.205721 -0.272484 2.329078 212 204 202
-0.205805 -0.270865 2.330029 212 204 202
-0.205862 -0.269209 2.330675 212 204 202
-0.205786 -0.267380 2.329822 212 204 202
-0.205515 -0.265299 2.326751 212 204 202
-0.205448 -0.263485 2.325989 212 204 202
-0.236215 -0.271161 2.674321 212 204 201
-0.256382 -0.285687 2.902645 212 204 202
-0.256602 -0.283775 2.905140 212 204 202
-0.256554 -0.281564 2.904596 212 204 202
-0.256185 -0.279005 2.900412 212 204 202
-0.551751 -0.549860 6.246680 212 204 202
-0.292539 -0.284156 3.311998 212 204 202
-0.245796 -0.209815 2.782799 211 203 200
-0.285403 -0.202823 3.231206 206 200 197
-0.287416 -0.201837 3.253997 207 200 197
-0.288880 -0.200436 3.270575 208 200 197
-0.288281 -0.197596 3.263788 208 200 197
-0.286157 -0.193734 3.239744 208 200 197
-0.256609 -0.160782 2.905218 207 199 196
-0.256983 -0.158855 2.909452 207 199 196
-0.256997 -0.156702 2.909602 207 199 196
-0.186295 -0.094793 2.109147 207 199 196
-0.186617 -0.093387 2.112792 207 199 196
-0.186629 -0.091824 2.112927 207 199 196
-0.186346 -0.090118 2.109728 207 199 196
-0.186848 -0.082505 2.115416 208 200 197
-0.187906 -0.081391 2.127393 208 200 197
-0.204931 -0.080149 2.320137 211 203 200
-0.205217 -0.078535 2.323375 211 203 200
-0.228011 -0.085341 2.581445 211 203 200
-0.229040 -0.083800 2.593086 211 203 200
-0.227348 -0.081269 2.573932 211 203 200
-0.225918 -0.078858 2.557747 211 203 200
-0.208808 -0.065862 2.364033 210 202 199
-0.206061 -0.061530 2.332933 210 202 199
-0.206133 -0.059818 2.333750 210 202 199
-0.206049 -0.058061 2.332792 210 202 199
-0.206189 -0.056366 2.334379 210 202 199
-0.188533 -0.040442 2.134483 208 200 197
-0.253299 -0.043684 2.867736 208 200 197
-0.253194 -0.041537 2.866551 208 200 197
-0.253260 -0.039418 2.867296 207 199 196
-0.207437 -0.002631 2.348508 200 193 185
-0.205706 -0.000879 2.328909 200 193 185
-0.205451 0.000850 2.326022 200 193 185
-0.206088 0.004318 2.333234 199 192 184
-0.206354 0.006059 2.336249 199 192 184
-0.226431 0.012361 2.563555 199 192 184
-0.226973 0.029569 2.569690 197 190 182
-0.227131 0.037229 2.571481 197 189 185
-0.228327 0.039345 2.585013 197 189 186
-0.228622 0.041319 2.588356 197 189 186
-0.228248 0.043171 2.584121 197 189 186
-0.189093 0.042126 2.140832 197 189 186
-0.188677 0.043620 2.136122 197 189 186
-0.188429 0.045147 2.133311 197 189 186
-0.257056 0.109146 2.910273 197 189 183
-0.146210 0.071917 1.655324 197 190 182
-0.232072 0.159037 2.627423 196 188 185
-0.232710 0.161430 2.634637 196 188 183
-0.188278 0.165440 2.131598 194 185 178
-0.200945 0.205298 2.275017 193 186 178
-0.200827 0.206866 2.273676 193 186 178
-0.200849 0.208577 2.273922 193 186 178
-0.289155 0.339188 3.273690 194 185 177
-0.290268 0.342933 3.286282 193 184 175
-0.290246 0.345348 3.286035 193 184 174
-0.247139 -0.642408 2.821726 215 209 219
-0.247050 -0.640082 2.820709 215 209 219
-0.247620 -0.639458 2.827215 215 209 219
-0.264360 -0.678205 3.018353 215 209 219
-0.266928 -0.682529 3.047668 215 209 219
-0.266590 -0.679404 3.043812 215 209 219
-0.155179 -0.394158 1.771772 215 209 219
-0.155146 -0.392757 1.771388 215 209 219
-0.155143 -0.391435 1.771359 215 209 219
-0.154501 -0.388504 1.764024 215 209 219
-0.145205 -0.357742 1.657894 215 209 219
-0.145048 -0.356124 1.656101 215 209 219
-0.219524 -0.527809 2.506437 214 208 218
-0.219561 -0.526035 2.506856 214 208 218
-0.243622 -0.579549 2.781573 214 208 218
-0.244745 -0.580145 2.794396 214 208 218
-0.319070 -0.753620 3.643010 214 208 218
-0.246548 -0.578146 2.814981 212 206 216
-0.182192 -0.419507 2.080186 212 206 216
-0.182514 -0.415605 2.083863 212 207 214
-0.167400 -0.378351 1.911307 212 207 214
-0.167105 -0.376266 1.907934 212 207 213
-0.167018 -0.374655 1.906944 212 207 213
-0.167043 -0.373294 1.907226 212 207 213
-0.265415 -0.561614 3.030392 217 207 217
-0.267006 -0.562716 3.048559 217 206 219
-0.267849 -0.562221 3.058183 217 206 220
-0.268401 -0.561105 3.064491 217 206 218
-0.266987 -0.555885 3.048349 217 207 218
-0.146547 -0.288964 1.673214 214 205 215
-0.145569 -0.285801 1.662044 215 204 217
-0.144861 -0.283183 1.653967 216 204 218
-0.144745 -0.281727 1.652634 215 204 216
-0.145048 -0.281088 1.656101 215 205 216
-0.155173 -0.295446 1.771704 212 206 213
-0.154943 -0.293693 1.769076 212 207 213
-0.154661 -0.291847 1.765852 212 207 213
-0.153951 -0.289201 1.757742 212 207 213
-1.338748 -2.446757 15.285259 212 204 212
-0.274854 -0.500005 3.138169 214 204 212
-0.283199 -0.498373 3.233443 214 205 208
-0.283109 -0.495815 3.232420 214 205 208
-0.283445 -0.493999 3.236257 214 205 208
-0.283145 -0.491076 3.232834 214 205 208
-0.846464 -1.460894 9.664568 214 205 208
-1.317119 -2.194996 15.038303 214 205 208
-0.283103 -0.454989 3.232351 213 204 206
-0.283988 -0.454003 3.242455 212 204 204
-0.282275 -0.446476 3.222897 211 203 200
-0.831129 -1.251166 9.489480 211 203 201
-0.282926 -0.409116 3.230331 212 204 202
-0.283097 -0.406962 3.232277 212 204 202
-0.282372 -0.403525 3.224000 212 204 202
-0.476466 -0.648571 5.440087 212 204 202
-0.475370 -0.643048 5.427576 212 204 202
-0.203752 -0.272166 2.326357 214 206 204
-0.203765 -0.270455 2.326500 214 206 204
-0.203758 -0.268717 2.326419 214 206 204
-0.203676 -0.266882 2.325482 214 206 204
-0.203577 -0.265026 2.324356 214 206 204
-0.203727 -0.263493 2.326068 214 206 204
-0.253928 -0.285352 2.899242 212 204 202
-0.253901 -0.283169 2.898934 212 204 202
-0.253466 -0.280535 2.893971 212 204 202
-0.253373 -0.278282 2.892900 212 204 202
-0.253604 -0.276386 2.895547 212 204 202
-0.257566 -0.267597 2.940776 212 204 202
-0.241481 -0.205832 2.757130 211 203 200
-0.285555 -0.202231 3.260350 208 200 197
-0.285918 -0.200063 3.264488 208 200 197
-0.285433 -0.197303 3.258951 208 200 197
-0.281988 -0.192530 3.219617 208 200 197
-0.253893 -0.160429 2.898845 207 199 196
-0.253812 -0.158226 2.897923 207 199 196
-0.184701 -0.094779 2.108834 207 199 196
-0.184914 -0.093320 2.111270 207 199 196
-0.185087 -0.091838 2.113248 207 199 196
-0.184736 -0.086963 2.109233 207 199 196
-0.185016 -0.085526 2.112431 207 199 196
-0.185475 -0.082593 2.117672 208 200 197
-0.186296 -0.081378 2.127053 208 200 197
-0.194943 -0.080196 2.225773 210 202 199
-0.225288 -0.085037 2.572247 211 203 200
-0.226908 -0.083724 2.590739 211 203 200
-0.224489 -0.080928 2.563119 211 203 200
-0.206058 -0.065546 2.352684 210 202 199
-0.204183 -0.063218 2.331277 210 202 199
-0.203401 -0.061251 2.322349 210 202 199
-0.203775 -0.059635 2.326621 210 202 199
-0.203535 -0.057839 2.323877 210 202 199
-0.221815 -0.059271 2.532590 210 202 199
-0.186418 -0.040327 2.128438 208 200 197
-0.250760 -0.043613 2.863072 208 200 197
-0.250755 -0.041486 2.863018 208 200 197
-0.250631 -0.039340 2.861599 207 199 196
-0.204438 -0.002615 2.334185 200 193 185
-0.203578 -0.000878 2.324365 200 193 185
-0.203546 0.000849 2.324006 200 193 185
-0.203546 0.004301 2.324006 199 192 184
-0.221960 0.012220 2.534244 199 192 184
-0.223982 0.027527 2.557331 197 190 182
-0.224044 0.029435 2.558043 197 190 182
-0.225312 0.039155 2.572516 197 189 186
-0.225073 0.041022 2.569787 197 189 186
-0.224955 0.042909 2.568435 197 189 186
-0.143876 0.057947 1.642716 198 188 186
-0.143797 0.059135 1.641818 198 188 185
-0.253720 0.108643 2.896864 197 189 183
-0.254645 0.111199 2.907423 197 190 182
-0.144159 0.069065 1.645951 197 190 180
-0.144108 0.070262 1.645364 197 190 182
-0.144055 0.071458 1.644760 197 189 183
-0.143878 0.072591 1.642743 197 189 185
-0.144033 0.073890 1.644510 197 189 185
-0.143878 0.075031 1.642735 197 189 186
-0.224453 0.120857 2.562713 197 189 186
-0.224453 0.128471 2.562713 197 190 184
-0.223372 0.129746 2.550363 197 190 182
-0.221871 0.211665 2.533226 193 186 178
-0.221802 0.213480 2.532438 193 186 178
-0.199158 0.205198 2.273901 193 186 178
-0.199009 0.206732 2.272204 193 186 178
-0.245043 -0.642408 2.821726 215 209 219
-0.244955 -0.640082 2.820709 215 209 219
-0.245520 -0.639458 2.827215 215 209 219
-0.259553 -0.671567 2.988808 215 209 219
-0.266101 -0.686235 3.064217 215 209 219
-0.153788 -0.393964 1.770899 215 209 219
-0.153710 -0.392451 1.770010 215 209 219
-0.143865 -0.358700 1.656634 215 209 219
-0.143882 -0.357512 1.656829 215 209 219
-0.143742 -0.355935 1.655220 215 209 219
-0.238582 -0.572415 2.747331 214 208 218
-0.240218 -0.574283 2.766160 214 208 218
-0.313762 -0.747420 3.613037 214 208 218
-0.165277 -0.376748 1.903206 212 207 214
-0.164714 -0.374055 1.896720 212 207 213
-0.163915 -0.370839 1.887521 212 207 213
-0.229027 -0.490722 2.637298 216 206 217
-0.262962 -0.558935 3.028073 217 206 219
-0.265129 -0.561273 3.053023 217 206 220
-0.266142 -0.561141 3.064691 217 206 218
-0.265025 -0.556518 3.051820 217 207 218
-0.144133 -0.286635 1.659728 214 205 215
-0.153021 -0.291223 1.762077 212 207 213
-0.280906 -0.496163 3.234694 214 205 208
-0.280455 -0.492968 3.229503 214 205 208
-0.280701 -0.491000 3.232337 214 205 208
-0.836544 -1.456121 9.632997 214 205 208
-0.841056 -1.456782 9.684958 214 205 208
-0.280626 -0.454865 3.231468 213 204 206
-0.281442 -0.453780 3.240866 212 204 204
-0.281071 -0.450778 3.236592 212 204 202
-0.820625 -1.252938 9.449684 211 203 201
-0.820955 -1.246421 9.453487 211 203 201
-0.247798 -0.367743 2.853453 212 204 202
-0.280523 -0.409110 3.230282 212 204 202
-0.280350 -0.406460 3.228296 212 204 202
-0.279854 -0.403348 3.222585 212 204 202
-0.471255 -0.646964 5.426612 212 204 202
-0.202103 -0.272273 2.327268 214 206 204
-0.202139 -0.270592 2.327678 214 206 204
-0.202157 -0.268886 2.327881 214 206 204
-0.202093 -0.267073 2.327147 214 206 204
-0.202052 -0.265291 2.326676 214 206 204
-0.202241 -0.263809 2.328855 214 206 204
-0.207469 -0.247560 2.389052 212 204 201
-0.250675 -0.277674 2.886577 212 204 202
-0.252063 -0.266276 2.902566 212 204 202
-0.252854 -0.264948 2.911666 212 204 202
-0.501757 -0.500008 5.777851 212 204 202
-0.286672 -0.283221 3.301091 212 204 202
-0.235239 -0.204239 2.708833 211 203 200
-0.235361 -0.202331 2.710234 211 203 200
-0.283358 -0.199968 3.262931 208 200 197
-0.281009 -0.195907 3.235888 208 200 197
-0.251952 -0.160564 2.901285 207 199 196
-0.251758 -0.158287 2.899050 207 199 196
-0.139347 -0.084036 1.604613 207 199 196
-0.183166 -0.094795 2.109194 207 199 196
-0.183312 -0.093303 2.110875 207 199 196
-0.183352 -0.087050 2.111344 207 199 196
-0.184171 -0.084289 2.120774 207 199 196
-0.187477 -0.080991 2.158836 209 201 198
-0.216914 -0.086287 2.497812 211 203 200
-0.218148 -0.084912 2.512026 211 203 200
-0.222216 -0.084595 2.558864 211 203 200
-0.223784 -0.083278 2.576925 211 203 200
-0.214954 -0.076314 2.475240 211 203 200
-0.221342 -0.057758 2.548805 210 202 199
-0.249047 -0.043686 2.867832 208 200 197
-0.248563 -0.041475 2.862259 208 200 197
-0.248958 -0.039411 2.866807 207 199 196
-0.201732 -0.000877 2.322996 200 193 185
-0.201521 0.000848 2.320557 200 193 185
-0.199915 0.004261 2.302064 199 192 184
-0.216787 0.012037 2.496349 199 192 184
-0.221342 0.025542 2.548805 197 190 182
-0.251810 0.110901 2.899653 197 190 182
-0.141881 0.068555 1.633796 197 190 180
-0.142056 0.069854 1.635807 197 190 182
-0.142340 0.071211 1.639075 197 189 182
-0.142251 0.072384 1.638059 197 189 184
-0.142536 0.073747 1.641334 197 189 186
-0.222758 0.126686 2.565110 197 189 184
-0.220711 0.129297 2.541534 197 190 182
-0.227674 0.158691 2.621717 196 188 185
-0.226994 0.160159 2.613883 196 188 183
-0.226379 0.161661 2.606802 195 188 180
-0.199724 0.146043 2.299863 195 188 180
-0.200549 0.162084 2.309371 194 185 178
-0.201198 0.164330 2.316844 194 185 178
-0.201781 0.166532 2.323557 194 185 178
-0.197357 0.205081 2.272611 193 186 178
-0.197210 0.206615 2.270917 193 186 178
-0.283603 0.338365 3.265754 194 185 177
-0.242947 -0.642408 2.821726 215 209 219
-0.242859 -0.640082 2.820709 215 209 219
-0.243420 -0.639458 2.827215 215 209 219
-0.250046 -0.654709 2.904183 215 209 219
-0.260968 -0.678802 3.031029 215 209 219
-0.152306 -0.393535 1.768968 215 209 219
-0.312314 -0.798888 3.627398 215 209 219
-0.142464 -0.358271 1.654654 215 209 219
-0.142478 -0.357078 1.654818 215 209 219
-0.142225 -0.355216 1.651877 215 209 219
-0.197311 -0.489395 2.291684 215 209 219
-0.232399 -0.564395 2.699216 214 208 218
-0.233311 -0.564597 2.709808 214 208 218
-0.234744 -0.566039 2.726451 214 208 218
-0.203157 -0.470594 2.359578 212 207 214
-0.198524 -0.451298 2.305766 212 207 213
-0.198467 -0.447745 2.305110 212 207 213
-0.198193 -0.445418 2.301930 212 206 213
-0.198021 -0.443323 2.299930 212 206 213
-0.197730 -0.440965 2.296548 213 205 213
-0.225078 -0.486421 2.614182 216 206 215
-0.261912 -0.559246 3.042000 217 206 220
-0.142407 -0.285646 1.654002 214 205 215
-0.141755 -0.281892 1.646424 216 204 218
-0.152541 -0.299394 1.771704 215 205 216
-0.151546 -0.293517 1.760140 212 206 213
-0.151357 -0.291847 1.757952 212 207 213
-0.278906 -0.496881 3.239370 214 205 208
-0.278921 -0.494501 3.239542 214 205 208
-0.279055 -0.492332 3.241108 214 205 208
-0.830436 -1.457960 9.645161 214 205 208
-0.831940 -1.453423 9.662627 214 205 208
-1.233323 -2.090812 14.324523 214 205 208
-0.279129 -0.456341 3.241960 213 204 206
-0.278883 -0.453535 3.239112 212 204 204
-0.803054 -1.229761 9.327134 211 203 201
-0.243524 -0.364519 2.828430 212 204 202
-0.278774 -0.410067 3.237841 212 204 202
-0.278413 -0.407134 3.233647 212 204 202
-0.465701 -0.644855 5.408921 212 204 202
-0.465492 -0.640549 5.406490 212 204 202
-0.200095 -0.271892 2.324018 214 206 204
-0.200153 -0.270244 2.324687 214 206 204
-0.200226 -0.268616 2.325539 214 206 204
-0.200198 -0.266851 2.325211 214 206 204
-0.200228 -0.265163 2.325560 214 206 204
-0.200415 -0.263682 2.327732 214 206 204
-0.252978 -0.324109 2.938234 212 204 202
-0.253302 -0.322338 2.941990 212 204 202
-0.203813 -0.245296 2.367205 212 204 201
-0.250471 -0.286324 2.909115 212 204 202
-0.249971 -0.283596 2.903307 212 204 202
-0.483530 -0.486002 5.615996 212 204 202
-0.282737 -0.281743 3.283868 212 204 202
-0.279918 -0.199244 3.251127 208 200 197
-0.277592 -0.195194 3.224113 208 200 197
-0.250565 -0.163220 2.910206 207 199 196
-0.250163 -0.160800 2.905541 207 199 196
-0.181915 -0.094960 2.112865 207 199 196
-0.182007 -0.093438 2.113934 207 199 196
-0.181803 -0.090196 2.111562 207 199 196
-0.181970 -0.088709 2.113508 207 199 196
-0.182153 -0.087227 2.115629 207 199 196
-0.182959 -0.086035 2.124989 207 199 196
-0.183499 -0.084705 2.131260 209 201 198
-0.182684 -0.082753 2.121794 209 201 198
-0.183188 -0.081401 2.127651 209 201 198
-0.183675 -0.080033 2.133311 209 201 198
-0.212605 -0.085302 2.469311 210 202 199
-0.213723 -0.083907 2.482305 210 202 199
-0.218050 -0.083725 2.532556 211 203 200
-0.218918 -0.082169 2.542637 211 203 200
-0.250394 -0.061582 2.908217 208 200 197
-0.251103 -0.059590 2.916449 208 200 197
-0.248002 -0.043878 2.880442 208 200 197
-0.247821 -0.041708 2.878331 208 200 197
-0.248745 -0.039717 2.889070 207 199 196
-0.207573 -0.004492 2.410876 200 193 185
-0.199929 -0.000877 2.322094 200 193 185
-0.198859 0.000844 2.309658 200 193 185
-0.212488 0.008234 2.467955 199 192 184
-0.212318 0.010059 2.465984 199 192 184
-0.212492 0.011900 2.468008 199 192 184
-0.212307 0.013722 2.465858 199 192 184
-0.213280 0.043224 2.477157 197 189 186
-0.213163 0.045039 2.475797 197 189 186
-0.140298 0.069585 1.629500 197 190 182
-0.224286 0.126720 2.604988 197 189 186
-0.221860 0.127263 2.576806 197 189 185
-0.219221 0.129532 2.546153 197 190 182
-0.224545 0.150112 2.607990 194 186 184
-0.224369 0.151930 2.605955 194 186 184
-0.224221 0.155698 2.604229 195 187 184
-0.224599 0.157899 2.608620 195 187 184
-0.223954 0.159377 2.601125 195 187 183
-0.223528 0.161002 2.596180 195 187 182
-0.185725 0.144989 2.157115 195 188 180
-0.198742 0.162010 2.308307 194 185 178
-0.199648 0.164471 2.318829 194 185 178
-0.200278 0.166718 2.326149 194 185 178
-0.224020 0.192279 2.601897 194 185 178
-0.281032 0.335766 3.264066 194 185 178
-0.282272 0.339683 3.278470 194 185 177
-0.240851 -0.642408 2.821726 215 209 219
-0.240764 -0.640082 2.820709 215 209 219
-0.241320 -0.639458 2.827215 215 209 219
-0.246402 -0.650781 2.886759 215 209 219
-0.141077 -0.356645 1.652812 215 209 219
-0.196024 -0.490433 2.296548 215 209 218
-0.141259 -0.349729 1.654940 214 208 218
-0.141316 -0.348640 1.655606 214 208 218
-0.228066 -0.556708 2.671945 214 208 216
-0.201749 -0.473155 2.363616 212 207 214
-0.201563 -0.470965 2.361440 212 207 214
-0.201867 -0.469918 2.364999 212 207 214
-0.200868 -0.465845 2.353298 212 207 214
-0.197195 -0.453896 2.310272 212 207 213
-0.197071 -0.451894 2.308810 212 207 213
-0.196969 -0.449946 2.307613 212 207 213
-0.196899 -0.448073 2.306799 212 207 213
-0.196226 -0.444834 2.298911 212 206 213
-0.195558 -0.441617 2.291082 213 205 213
-0.194940 -0.438527 2.283852 214 205 213
-0.194564 -0.435986 2.279438 214 205 213
-0.221316 -0.482454 2.592863 216 206 217
-0.258351 -0.556443 3.026753 217 206 220
-0.275670 -0.492990 3.229646 214 205 208
-0.275721 -0.490683 3.230247 214 205 208
-0.817776 -1.448226 9.580769 214 205 208
-0.818774 -1.442870 9.592465 214 205 208
-0.815591 -1.430162 9.555169 214 205 208
-0.219216 -0.378678 2.568251 214 205 208
-0.275569 -0.454443 3.228473 213 204 206
-0.274888 -0.450927 3.220488 212 204 204
-0.768251 -1.193389 9.000558 211 203 201
-0.781478 -1.207135 9.155520 211 203 201
-0.275323 -0.408515 3.225585 212 204 202
-0.275020 -0.405672 3.222034 212 204 202
-0.458621 -0.640578 5.373044 212 204 202
-0.458932 -0.637018 5.376685 212 204 202
-0.198015 -0.269684 2.319875 214 206 204
-0.198138 -0.268128 2.321315 214 206 204
-0.198123 -0.266383 2.321136 214 206 204
-0.247889 -0.324667 2.904183 212 204 202
-0.248124 -0.322815 2.906929 212 204 202
-0.247889 -0.320353 2.904183 212 204 202
-0.248073 -0.318431 2.906331 212 204 202
-0.247245 -0.285095 2.896630 212 204 202
-0.247063 -0.282736 2.894507 212 204 202
-0.467261 -0.473736 5.474265 212 204 202
-0.279535 -0.280976 3.274927 212 204 202
-0.473408 -0.467610 5.546281 212 204 202
-0.475925 -0.457671 5.575765 212 204 201
-0.277879 -0.204350 3.255527 208 200 197
-0.277831 -0.201897 3.254966 208 200 197
-0.278316 -0.199828 3.260656 208 200 197
-0.248176 -0.163070 2.907541 207 199 196
-0.247201 -0.160278 2.896115 207 199 196
-0.246942 -0.157962 2.893089 207 199 196
-0.244810 -0.152337 2.868102 207 199 196
-0.199436 -0.106747 2.336517 208 199 196
-0.180108 -0.094835 2.110085 208 200 197
-0.179950 -0.093186 2.108229 208 200 197
-0.179910 -0.090034 2.107767 208 200 197
-0.180068 -0.088546 2.109616 208 200 197
-0.180927 -0.087394 2.119680 208 200 197
-0.180914 -0.081091 2.119528 210 202 199
-0.198116 -0.085353 2.321051 210 202 199
-0.209328 -0.082897 2.452410 210 202 199
-0.212784 -0.082414 2.492901 211 203 200
-0.246674 -0.061195 2.889950 210 202 199
-0.248152 -0.059402 2.907265 210 202 199
-0.245300 -0.043777 2.873852 208 200 197
-0.245678 -0.041707 2.878281 208 200 197
-0.246569 -0.039712 2.888718 207 199 196
-0.246752 -0.037595 2.890858 206 198 195
-0.203076 -0.006200 2.379165 200 193 185
-0.203519 -0.004442 2.384353 200 193 185
-0.198884 -0.000880 2.330054 200 193 185
-0.208242 0.008140 2.439690 199 192 184
-0.208389 0.009959 2.441412 199 192 184
-0.208627 0.011786 2.444201 199 192 184
-0.208049 0.013563 2.437423 199 192 184
-0.245127 0.109837 2.871826 197 190 182
-0.221307 0.124199 2.592755 196 188 185
-0.220330 0.125568 2.581306 196 188 185
-0.219334 0.126909 2.569641 196 189 183
-0.224113 0.151127 2.625630 194 186 183
-0.182096 0.143393 2.133370 195 188 180
-0.198069 0.164589 2.320501 194 185 178
-0.198436 0.166621 2.324804 194 185 178
-0.191812 0.204457 2.247198 193 186 178
-0.275692 0.332252 3.229907 194 185 178
-0.238755 -0.642408 2.821726 215 209 219
-0.238669 -0.640082 2.820709 215 209 219
-0.239150 -0.639271 2.826390 215 209 219
-0.241648 -0.643828 2.855917 215 209 219
-0.268291 -0.710103 3.170793 215 209 219
-0.150437 -0.394208 1.777933 215 209 219
-0.151190 -0.394855 1.786837 215 209 219
-0.303196 -0.789181 3.583322 215 209 219
-0.193685 -0.490536 2.289067 215 209 219
-0.194619 -0.491193 2.300107 215 209 218
-0.140430 -0.351962 1.659674 214 209 216
-0.222850 -0.548749 2.633746 214 209 216
-0.223556 -0.548525 2.642091 214 209 216
-0.222783 -0.544673 2.632955 214 209 216
-0.201925 -0.483043 2.386448 211 206 213
-0.201748 -0.480848 2.384353 211 206 213
-0.199903 -0.472941 2.362546 211 206 213
-0.199471 -0.470168 2.357442 211 206 213
-0.199572 -0.468654 2.358639 211 206 213
-0.197022 -0.460937 2.328505 211 206 213
-0.195642 -0.455992 2.312196 211 206 212
-0.195258 -0.453383 2.307658 211 206 212
-0.195208 -0.451551 2.307060 211 206 212
-0.195046 -0.449465 2.305148 211 206 212
-0.195026 -0.447708 2.304917 211 206 212
-0.192809 -0.439231 2.278705 212 206 212
-0.192275 -0.436329 2.272402 212 206 213
-0.282924 -0.634586 3.343732 213 206 212
-0.283162 -0.632635 3.346552 213 206 211
-0.217278 -0.477809 2.567903 216 206 216
-0.242038 -0.466392 2.860525 212 206 213
-0.273462 -0.493336 3.231910 214 205 208
-0.273162 -0.490396 3.228361 214 205 208
-0.271955 -0.452420 3.214098 213 204 206
-0.272243 -0.407491 3.217501 212 204 202
-0.196220 -0.271308 2.319025 214 206 204
-0.196540 -0.270026 2.322809 214 206 204
-0.196822 -0.268684 2.326134 214 206 204
-0.196782 -0.266903 2.325669 214 206 204
-0.196448 -0.264726 2.321722 214 206 204
-0.243329 -0.317220 2.875779 212 204 202
-0.242223 -0.313652 2.862713 212 204 202
-0.241476 -0.310565 2.853884 212 204 202
-0.243137 -0.282820 2.873511 212 204 202
-0.453654 -0.467961 5.361507 212 204 202
-0.277610 -0.281491 3.280931 212 204 202
-0.456655 -0.455021 5.396973 212 204 202
-0.456844 -0.451200 5.399209 212 204 202
-0.458078 -0.448397 5.413790 212 204 202
-0.459111 -0.445378 5.426000 212 204 201
-0.197232 -0.170556 2.330986 211 203 200
-0.276297 -0.204970 3.265409 208 200 197
-0.276868 -0.202964 3.272166 208 200 197
-0.277235 -0.200799 3.276495 208 200 197
-0.276540 -0.197868 3.268289 208 200 197
-0.245322 -0.162610 2.899337 207 199 196
-0.245242 -0.160404 2.898392 207 199 196
-0.245044 -0.158123 2.896049 207 199 196
-0.197711 -0.117167 2.336646 208 198 196
-0.197147 -0.113371 2.329979 208 198 196
-0.197318 -0.106541 2.332003 208 199 196
-0.178594 -0.090160 2.110708 208 200 197
-0.178815 -0.088702 2.113322 208 200 197
-0.179551 -0.087491 2.122021 208 200 197
-0.179808 -0.086037 2.125056 208 200 197
-0.179769 -0.081285 2.124599 210 202 199
-0.197109 -0.087395 2.329535 210 202 199
-0.197076 -0.085650 2.329139 210 202 199
-0.204678 -0.081767 2.418987 210 202 199
-0.207364 -0.081020 2.450729 211 203 200
-0.199550 -0.065704 2.358375 209 201 198
-0.198328 -0.063561 2.343931 208 200 197
-0.197634 -0.061604 2.335739 208 200 197
-0.246489 -0.059522 2.913124 210 202 199
-0.247459 -0.057584 2.924596 210 202 199
-0.248128 -0.055562 2.932504 210 202 199
-0.245647 -0.044224 2.903182 208 200 197
-0.244904 -0.041940 2.894400 208 200 197
-0.245409 -0.039872 2.900363 207 199 196
-0.183857 -0.016960 2.172913 205 198 190
-0.183941 -0.015353 2.173904 204 197 189
-0.201407 -0.007971 2.380324 201 194 186
-0.200395 -0.006172 2.368364 201 194 186
-0.199957 -0.004403 2.363189 201 194 186
-0.196932 -0.000879 2.327440 201 194 186
-0.195358 0.000843 2.308839 201 194 186
-0.203992 0.008043 2.410876 199 192 184
-0.204299 0.009849 2.414505 199 192 184
-0.204875 0.011675 2.421309 199 192 184
-0.203951 0.013413 2.410397 199 192 184
-0.203554 0.015174 2.405699 199 192 184
-0.202238 0.016851 2.390148 199 192 184
-0.250953 0.027519 2.965888 197 190 182
-0.204187 0.038523 2.413184 197 189 186
-0.203380 0.040156 2.403649 197 189 186
-0.134335 0.057184 1.587636 198 188 185
-0.185971 0.085694 2.197897 197 190 182
-0.217506 0.123138 2.570592 194 186 183
-0.217390 0.124980 2.569219 194 186 182
-0.216718 0.126496 2.561278 194 186 182
-0.221874 0.150930 2.622211 194 186 184
-0.180574 0.143443 2.134114 195 188 180
-0.195176 0.160183 2.306689 194 185 178
-0.195612 0.162257 2.311834 194 185 178
-0.196448 0.164676 2.321722 194 185 178
-0.197390 0.167198 2.332851 194 185 178
-0.202331 0.183816 2.391244 194 185 178
-0.201591 0.253930 2.382500 193 185 172
-0.236659 -0.642408 2.821726 215 209 219
-0.236418 -0.639660 2.818850 215 209 219
-0.236582 -0.638007 2.820801 215 209 219
-0.261859 -0.701536 3.122185 215 209 219
-0.263212 -0.702829 3.138314 215 209 219
-0.275622 -0.733526 3.286282 215 209 219
-0.148606 -0.392861 1.771855 215 209 219
-0.148948 -0.392446 1.775933 215 209 219
-0.192047 -0.490694 2.289806 215 209 219
-0.192695 -0.490644 2.297534 215 209 218
-0.139117 -0.352990 1.658711 215 210 217
-0.139007 -0.351481 1.657405 214 209 216
-0.216046 -0.538619 2.575944 214 209 215
-0.217686 -0.540782 2.595507 214 209 215
-0.218388 -0.540591 2.603872 214 209 215
-0.218022 -0.537753 2.599504 214 209 215
-0.218222 -0.534383 2.601897 212 207 213
-0.197859 -0.472251 2.359101 211 206 212
-0.193654 -0.457070 2.308970 211 206 212
-0.193295 -0.452799 2.304690 211 206 212
-0.193421 -0.451380 2.306183 211 206 212
-0.193284 -0.449349 2.304552 211 206 212
-0.193244 -0.447544 2.304074 211 206 212
-0.266394 -0.607520 3.176253 212 206 213
-0.275754 -0.623982 3.287858 213 206 212
-0.276287 -0.622740 3.294206 213 206 212
-0.275845 -0.619303 3.288947 213 205 212
-0.212864 -0.474133 2.538013 213 205 213
-0.213241 -0.473083 2.542501 215 207 214
-0.184506 -0.406067 2.199897 216 207 216
-0.144652 -0.294014 1.724708 215 204 215
-0.271292 -0.541807 3.234654 212 206 213
-0.270978 -0.490783 3.230908 214 205 208
-0.271499 -0.421999 3.237128 211 203 201
-0.272696 -0.421444 3.251397 212 204 202
-0.193637 -0.276967 2.308758 212 204 202
-0.193941 -0.270532 2.312390 214 206 204
-0.194194 -0.269165 2.315410 214 206 204
-0.194607 -0.268014 2.320330 214 206 204
-0.194504 -0.266149 2.319101 214 206 204
-0.194075 -0.263844 2.313988 214 206 204
-0.236532 -0.311090 2.820205 212 204 202
-0.236132 -0.308472 2.815433 212 204 202
-0.236129 -0.306377 2.815398 212 204 202
-0.265224 -0.330035 3.162303 212 204 201
-0.265258 -0.327728 3.162714 212 204 201
-0.438985 -0.456839 5.234083 212 204 202
-0.437555 -0.451476 5.217040 212 204 202
-0.273024 -0.279293 3.255312 212 204 202
-0.440396 -0.442707 5.250915 212 204 202
-0.441952 -0.440357 5.269458 212 204 202
-0.193293 -0.168630 2.304668 211 203 200
-0.271540 -0.203226 3.237618 208 199 197
-0.272618 -0.201618 3.250468 208 199 197
-0.273419 -0.199789 3.260020 208 200 197
-0.272269 -0.196537 3.246301 208 200 197
-0.242233 -0.161985 2.888186 207 199 196
-0.242352 -0.159917 2.889596 207 199 196
-0.242327 -0.157755 2.889297 207 199 196
-0.195701 -0.117002 2.333371 208 198 196
-0.195384 -0.115083 2.329597 208 198 196
-0.194810 -0.113019 2.322749 208 198 196
-0.195157 -0.106307 2.326887 208 199 196
-0.193798 -0.103851 2.310682 208 200 197
-0.177147 -0.090221 2.112150 208 200 197
-0.241566 -0.112333 2.880231 210 202 199
-0.195292 -0.087356 2.328491 210 202 199
-0.195328 -0.085642 2.328921 210 202 199
-0.215620 -0.090720 2.570866 210 202 199
-0.196730 -0.072319 2.345645 211 203 200
-0.196268 -0.070411 2.340132 211 203 200
-0.195823 -0.068517 2.334832 211 203 200
-0.195328 -0.066614 2.328928 211 203 200
-0.196806 -0.065375 2.346544 209 201 198
-0.196259 -0.063455 2.340023 208 200 197
-0.195844 -0.061586 2.335077 208 200 197
-0.196395 -0.060020 2.341650 208 200 197
-0.196743 -0.058385 2.345802 208 200 197
-0.197499 -0.056860 2.354816 208 200 197
-0.243592 -0.059343 2.904384 210 202 199
-0.243672 -0.057205 2.905340 210 202 199
-0.244406 -0.055213 2.914091 210 202 199
-0.243608 -0.052875 2.904580 210 202 199
-0.243156 -0.050623 2.899183 210 202 199
-0.243801 -0.048599 2.906882 210 202 199
-0.244666 -0.044437 2.917186 208 200 197
-0.243169 -0.042012 2.899337 208 200 197
-0.242955 -0.039823 2.896795 207 199 196
-0.199858 -0.009750 2.382936 201 194 186
-0.198075 -0.007908 2.361682 201 194 186
-0.197061 -0.006123 2.349587 201 194 186
-0.197356 -0.004384 2.353102 201 194 186
-0.197601 -0.002640 2.356025 201 194 186
-0.195980 -0.000882 2.336700 201 194 186
-0.200187 0.009736 2.386864 199 192 184
-0.200693 0.011538 2.392891 199 192 184
-0.200201 0.013283 2.387025 199 192 184
-0.199528 0.015005 2.379002 199 192 184
-0.198836 0.016714 2.370755 199 192 184
-0.246990 0.027324 2.944905 197 190 182
-0.215728 0.029597 2.572162 197 190 182
-0.216265 0.037332 2.578558 197 189 185
-0.199850 0.038038 2.382839 197 189 186
-0.199328 0.039704 2.376621 197 189 186
-0.246896 0.086351 2.943781 197 190 182
-0.132396 0.056857 1.578578 198 188 185
-0.213519 0.125733 2.545814 194 187 181
-0.133427 0.095113 1.590873 195 187 184
-0.178106 0.141158 2.123582 195 188 180
-0.178500 0.143051 2.128278 195 188 180
-0.193476 0.161907 2.306846 194 185 178
-0.195255 0.165125 2.328054 194 185 178
-0.194737 0.166411 2.321875 194 185 178
-0.198360 0.181805 2.365077 194 185 178
-0.198309 0.252008 2.364468 193 185 172
-0.187804 0.251964 2.239211 194 186 175
-0.234563 -0.642408 2.821726 215 209 219
-0.234248 -0.639451 2.817932 215 209 219
-0.234385 -0.637730 2.819576 215 209 219
-0.257527 -0.696096 3.097974 215 209 219
-0.258053 -0.695211 3.104297 215 209 219
-0.191781 -0.501248 2.307068 215 209 219
-0.190806 -0.490174 2.295336 215 209 218
-0.137570 -0.352184 1.654926 215 210 217
-0.137471 -0.350702 1.653735 214 209 216
-0.211744 -0.534505 2.547220 214 209 215
-0.212213 -0.533792 2.552861 214 209 215
-0.213053 -0.534001 2.562963 214 209 215
-0.213573 -0.533396 2.569219 214 209 215
-0.213645 -0.531667 2.570086 214 209 215
-0.175521 -0.435225 2.111467 214 209 215
-0.212430 -0.522948 2.555465 211 206 212
-0.191530 -0.447538 2.304043 211 206 212
-0.191031 -0.444667 2.298049 211 206 212
-0.264152 -0.607791 3.177669 212 206 213
-0.269052 -0.614257 3.236614 212 206 213
-0.269592 -0.613081 3.243113 212 206 213
-0.269003 -0.609338 3.236028 212 206 213
-0.218956 -0.494015 2.633968 212 206 213
-0.209019 -0.467861 2.514439 214 207 214
-0.180483 -0.400761 2.171154 216 207 215
-0.267532 -0.543852 3.218322 215 205 213
-0.268212 -0.540443 3.226512 213 205 213
-0.268072 -0.489858 3.224820 214 205 208
-0.268309 -0.463920 3.227674 214 205 208
-0.268063 -0.453915 3.224720 213 204 206
-0.268842 -0.426406 3.234082 211 203 201
-0.269987 -0.425810 3.247858 211 203 201
-0.268809 -0.421552 3.233695 211 203 201
-0.269538 -0.420285 3.242455 212 204 202
-0.269748 -0.418203 3.244987 212 204 202
-0.268395 -0.404115 3.228713 212 204 202
-0.191829 -0.276833 2.307648 212 204 202
-0.192039 -0.270272 2.310169 214 206 204
-0.192273 -0.268884 2.312986 214 206 204
-0.192687 -0.267740 2.317960 214 206 204
-0.192716 -0.266059 2.318312 214 206 204
-0.192287 -0.263749 2.313157 214 206 204
-0.230956 -0.306471 2.778334 212 204 202
-0.230796 -0.304196 2.776408 212 204 202
-0.230812 -0.302155 2.776603 212 204 202
-0.259033 -0.327526 3.116092 212 204 201
-0.259517 -0.325819 3.121907 212 204 201
-0.259523 -0.323507 3.121980 212 204 201
-0.425160 -0.446405 5.114542 212 204 202
-0.424882 -0.434724 5.111199 212 204 202
-0.425778 -0.431837 5.121978 212 204 202
-0.427116 -0.429377 5.138069 212 204 202
-0.264399 -0.202012 3.180635 209 199 197
-0.266416 -0.201172 3.204902 209 199 197
-0.267443 -0.199558 3.217252 208 199 197
-0.267851 -0.197470 3.222170 208 200 197
-0.267982 -0.195171 3.223743 208 200 197
-0.238002 -0.160577 2.863085 207 199 196
-0.238092 -0.158510 2.864174 207 199 196
-0.238084 -0.156378 2.864076 207 199 196
-0.193505 -0.116723 2.327804 208 198 196
-0.193402 -0.114933 2.326569 208 198 196
-0.191989 -0.112378 2.309564 208 198 196
-0.192926 -0.106031 2.320838 208 199 196
-0.190978 -0.103254 2.297405 208 200 197
-0.175754 -0.091882 2.114262 208 200 197
-0.175777 -0.090324 2.114547 208 200 197
-0.237579 -0.111467 2.858004 210 202 199
-0.193432 -0.087297 2.326928 210 202 199
-0.193457 -0.085580 2.327224 210 202 199
-0.213449 -0.092516 2.567723 210 202 199
-0.213628 -0.090685 2.569878 210 202 199
-0.195330 -0.079427 2.349759 210 202 199
-0.196336 -0.078082 2.361863 211 203 200
-0.195014 -0.075814 2.345963 211 203 200
-0.194039 -0.073701 2.334228 211 203 200
-0.193958 -0.071937 2.333257 211 203 200
-0.193632 -0.070086 2.329328 211 203 200
-0.193964 -0.065006 2.333323 209 201 198
-0.193671 -0.063178 2.329808 208 200 197
-0.193488 -0.061389 2.327603 208 200 197
-0.194054 -0.059835 2.334411 208 200 197
-0.193995 -0.058083 2.333700 208 200 197
-0.240119 -0.059020 2.888558 210 202 199
-0.239682 -0.054629 2.883299 210 202 199
-0.240637 -0.044096 2.894784 208 200 197
-0.240299 -0.041887 2.890723 208 200 197
-0.240427 -0.039761 2.892259 207 199 196
-0.195726 -0.014880 2.354519 203 196 188
-0.196211 -0.011410 2.360358 202 195 187
-0.196569 -0.009675 2.364666 201 194 186
-0.195991 -0.007895 2.357714 201 194 186
-0.195104 -0.006116 2.347038 201 194 186
-0.195136 -0.004373 2.347425 201 194 186
-0.195337 -0.002633 2.349849 201 194 186
-0.194191 -0.000882 2.336053 201 194 186
-0.193651 0.000851 2.329557 201 194 186
-0.237744 0.003169 2.859991 201 194 186
-0.194045 0.004320 2.334299 199 192 184
-0.195907 0.007863 2.356700 199 192 184
-0.196871 0.009660 2.368298 199 192 184
-0.196905 0.011422 2.368711 199 192 184
-0.196727 0.013169 2.366570 199 192 184
-0.195895 0.014864 2.356560 199 192 184
-0.195388 0.016571 2.350452 199 192 184
-0.241976 0.027009 2.910892 197 190 182
-0.242026 0.029177 2.911500 197 190 182
-0.213869 0.029604 2.572775 197 190 182
-0.213769 0.037231 2.571573 197 189 185
-0.196133 0.035912 2.359418 197 189 186
-0.195821 0.037604 2.355662 197 189 186
-0.195285 0.039246 2.349213 197 189 186
-0.195257 0.040985 2.348884 197 189 186
-0.195520 0.042788 2.352040 197 189 186
-0.177561 0.049963 2.136001 197 189 186
-0.177143 0.051429 2.130971 197 189 186
-0.243807 0.086032 2.932924 197 190 182
-0.243502 0.088100 2.929258 197 190 182
-0.241069 0.089374 2.899982 197 190 182
-0.177183 0.138515 2.131454 195 188 180
-0.177061 0.140002 2.129991 195 188 180
-0.176104 0.140819 2.118475 195 188 180
-0.176657 0.142839 2.125125 195 188 180
-0.178061 0.145566 2.142017 194 185 178
-0.178440 0.147470 2.146578 194 185 178
-0.192235 0.164024 2.312533 194 185 178
-0.193552 0.178983 2.328376 194 185 178
-0.193647 0.225789 2.329512 194 185 178
-0.191387 0.248805 2.302331 193 185 174
-0.232468 -0.642408 2.821726 215 209 219
-0.232384 -0.640082 2.820709 215 209 219
-0.232875 -0.639336 2.826675 215 209 219
-0.249053 -0.681506 3.023048 215 209 219
-0.257274 -0.699362 3.122833 215 209 219
-0.189812 -0.500573 2.303960 215 209 219
-0.136105 -0.356482 1.652059 215 209 219
-0.136097 -0.355235 1.651964 215 209 219
-0.188385 -0.488318 2.286643 215 209 218
-0.135954 -0.351185 1.650229 215 210 217
-0.135779 -0.349508 1.648105 214 209 216
-0.208097 -0.530034 2.525913 214 209 215
-0.208650 -0.529561 2.532626 214 209 215
-0.209260 -0.529224 2.540035 214 209 215
-0.209505 -0.527954 2.543006 214 209 215
-0.209689 -0.526526 2.545236 214 209 215
-0.208754 -0.518531 2.533881 211 206 212
-0.258410 -0.637214 3.136614 211 206 212
-0.157789 -0.374868 1.915272 211 206 212
-0.157348 -0.372402 1.909917 211 206 212
-0.262238 -0.608825 3.183078 212 207 213
-0.264955 -0.612746 3.216068 212 207 213
-0.265192 -0.610902 3.218936 212 207 213
-0.266261 -0.610963 3.231910 212 207 213
-0.265784 -0.607475 3.226131 212 206 213
-0.177194 -0.397005 2.150807 216 207 215
-0.265263 -0.582367 3.219798 217 207 215
-0.265697 -0.580924 3.225069 217 207 215
-0.266418 -0.580098 3.233817 217 207 215
-0.265649 -0.552078 3.224484 215 205 213
-0.266008 -0.545631 3.228848 215 205 213
-0.266167 -0.543557 3.230777 213 205 213
-0.266131 -0.541083 3.230331 212 206 213
-0.265784 -0.490057 3.226131 214 205 208
-0.266343 -0.467074 3.232912 214 205 208
-0.265759 -0.463654 3.225824 214 205 207
-0.266483 -0.455306 3.234607 212 203 204
-0.266831 -0.448685 3.238836 211 203 201
-0.266766 -0.426930 3.238050 211 203 201
-0.267438 -0.425594 3.246206 211 203 201
-0.266605 -0.421865 3.236096 211 203 201
-0.267193 -0.420385 3.243225 212 204 202
-0.267509 -0.418471 3.247062 212 204 202
-0.269781 -0.419593 3.274645 212 204 202
-0.266499 -0.409683 3.234807 212 204 202
-0.265360 -0.403147 3.220978 212 204 202
-0.190115 -0.276833 2.307648 212 204 202
-0.190167 -0.270050 2.308270 213 205 203
-0.190262 -0.268470 2.309430 213 205 203
-0.190433 -0.266994 2.311501 214 206 204
-0.190631 -0.265553 2.313905 214 206 204
-0.225705 -0.302202 2.739635 212 204 202
-0.225671 -0.300122 2.739224 212 204 202
-0.253932 -0.326260 3.082265 212 204 201
-0.253501 -0.323421 3.077033 212 204 201
-0.253426 -0.321040 3.076123 212 204 201
-0.253328 -0.314065 3.074936 212 204 201
-0.409879 -0.430546 4.975174 212 204 202
-0.411404 -0.424729 4.993679 212 204 202
-0.412355 -0.421993 5.005230 212 204 202
-0.258917 -0.199607 3.142778 209 199 197
-0.259807 -0.197951 3.153577 209 199 197
-0.261393 -0.196802 3.172824 208 199 197
