ply
format ascii 1.0
element vertex 1260
property float x
property float y
property float z
property uchar red
property uchar green
property uchar blue
end_header
0.979173 -5.815259 26.857412 207 198 201
1.011377 -5.985909 27.740709 207 198 201
1.077843 -6.357334 29.563782 207 198 201
0.083001 -0.486175 2.276606 207 198 201
0.192738 -1.117175 5.286547 207 198 201
0.092325 -0.531383 2.532341 207 198 201
0.092484 -0.530415 2.536711 207 198 201
0.155658 -0.889562 4.269493 207 198 201
0.155360 -0.884692 4.261312 207 198 201
0.148014 -0.830800 4.059828 206 197 198
0.488512 -2.732052 13.399220 206 197 199
0.485740 -2.706658 13.323210 206 197 199
0.484750 -2.691263 13.296042 206 197 199
0.481335 -2.652692 13.202380 206 197 199
0.125751 -0.621292 3.449177 206 198 196
0.125821 -0.619078 3.451112 206 198 196
0.082659 -0.403339 2.267229 206 198 196
0.082467 -0.400719 2.261949 206 198 196
0.080292 -0.380340 2.202314 206 198 196
0.083669 -0.372471 2.294935 200 193 198
0.083910 -0.371832 2.301530 198 189 201
0.085895 -0.368379 2.355982 182 178 179
0.085775 -0.366116 2.352684 176 173 181
0.085656 -0.363864 2.349425 164 162 175
0.083772 -0.352449 2.297758 88 90 105
0.083550 -0.349810 2.291652 75 80 94
0.083223 -0.346749 2.282705 89 97 112
0.083265 -0.345226 2.283852 93 104 119
0.083733 -0.345458 2.296672 77 89 105
0.083292 -0.341942 2.284575 59 74 90
0.083077 -0.339368 2.278687 52 69 83
0.083042 -0.337535 2.277736 49 67 81
0.082948 -0.335463 2.275160 48 67 81
0.083029 -0.334097 2.277366 45 66 80
0.083103 -0.332704 2.279410 38 60 75
0.082744 -0.329578 2.269547 33 54 72
0.082691 -0.327685 2.268113 34 54 72
0.082622 -0.325727 2.266211 38 55 71
0.082443 -0.323343 2.261311 40 53 69
0.082134 -0.320455 2.252812 38 52 69
0.082084 -0.318590 2.251463 37 53 74
0.082171 -0.317253 2.253842 38 55 78
0.081965 -0.314786 2.248179 37 56 79
0.081746 -0.312281 2.242183 35 56 76
0.081490 -0.309643 2.235163 34 55 74
0.081688 -0.308732 2.240602 36 55 71
0.081752 -0.307307 2.242342 31 48 63
0.081857 -0.306033 2.245216 22 38 53
0.082462 -0.306615 2.261815 22 35 52
0.082560 -0.305298 2.264504 29 42 59
0.081365 -0.299222 2.231733 28 41 60
0.081612 -0.298466 2.238497 19 32 51
0.081370 -0.295924 2.231864 15 31 47
0.081360 -0.294232 2.231607 20 36 52
0.081350 -0.292538 2.231328 20 36 51
0.081104 -0.289999 2.224567 24 40 55
0.081054 -0.288170 2.223204 27 43 59
0.080767 -0.285506 2.215341 26 42 58
0.080955 -0.284519 2.220479 26 42 58
0.080966 -0.282907 2.220776 26 42 58
0.081052 -0.281558 2.223144 22 38 53
0.081710 -0.282178 2.241188 15 31 44
0.081403 -0.279459 2.232762 12 28 39
0.081604 -0.278488 2.238285 11 28 37
0.081790 -0.277456 2.243387 13 30 37
0.081752 -0.275661 2.242342 15 32 39
0.081897 -0.274482 2.246320 14 31 38
0.081531 -0.271593 2.236273 11 28 35
0.081565 -0.270045 2.237212 16 33 40
0.081617 -0.268555 2.238643 25 43 50
0.081496 -0.266497 2.235328 30 49 58
0.081505 -0.264867 2.235579 35 53 64
0.081664 -0.263719 2.239936 38 48 61
0.081445 -0.261353 2.233933 43 45 59
0.081514 -0.259912 2.235806 68 67 77
0.081439 -0.258015 2.233768 104 102 109
0.081584 -0.256812 2.237741 126 126 129
0.081483 -0.254834 2.234972 134 137 139
0.081373 -0.252831 2.231941 138 141 146
0.081500 -0.251566 2.235429 139 142 153
0.081429 -0.249689 2.233495 134 138 153
0.081201 -0.247335 2.227234 127 133 152
0.081004 -0.245085 2.221840 120 130 149
0.080881 -0.243065 2.218466 101 114 130
0.081246 -0.242506 2.228463 97 111 125
0.080907 -0.239847 2.219178 109 123 132
0.080699 -0.237585 2.213459 109 120 122
0.080989 -0.236790 2.221429 117 125 119
0.080692 -0.234277 2.213275 123 130 122
0.080783 -0.232895 2.215765 89 96 90
0.080686 -0.230973 2.213119 32 38 38
0.080617 -0.229132 2.211221 13 20 25
0.080755 -0.227878 2.214998 55 61 73
0.080912 -0.226673 2.219300 115 122 139
0.080903 -0.225001 2.219073 158 164 186
0.080820 -0.223123 2.216794 186 193 220
0.080549 -0.220734 2.209360 190 196 226
0.080723 -0.219566 2.214128 194 200 232
0.080542 -0.217433 2.209162 197 203 236
0.080540 -0.215785 2.209097 197 206 237
0.080774 -0.214766 2.215511 196 205 235
0.080984 -0.213677 2.221293 194 203 233
0.081092 -0.212307 2.224232 193 203 227
0.080957 -0.210306 2.220540 193 201 220
0.080749 -0.208121 2.214848 192 200 215
0.080699 -0.206347 2.213459 189 195 211
0.080417 -0.203988 2.205731 185 190 206
0.080308 -0.202075 2.202731 182 184 201
0.080153 -0.200052 2.198485 179 179 197
0.080366 -0.198947 2.204332 177 176 192
0.080333 -0.197227 2.203414 175 174 189
0.080351 -0.195635 2.203918 169 171 183
0.080678 -0.194788 2.212883 168 170 182
0.080460 -0.192623 2.206912 166 169 178
0.080461 -0.190986 2.206942 164 167 176
0.080503 -0.189444 2.208080 162 165 174
0.080628 -0.188098 2.211529 160 163 172
0.080659 -0.186526 2.212365 160 160 170
0.080948 -0.185544 2.220286 159 159 167
0.080840 -0.183651 2.217335 155 158 164
0.080848 -0.182020 2.217539 155 158 163
0.080603 -0.179828 2.210840 154 157 162
0.080473 -0.177899 2.207274 154 157 162
0.080307 -0.175894 2.202704 153 156 161
0.080686 -0.175082 2.213119 152 155 160
0.080625 -0.173306 2.211424 152 155 160
0.080588 -0.171584 2.210408 152 155 160
0.080313 -0.169364 2.202890 152 155 160
0.080292 -0.167684 2.202314 153 156 161
0.080736 -0.166966 2.214477 153 156 161
0.080827 -0.165508 2.216982 153 156 161
0.080381 -0.162956 2.204736 153 156 161
0.080818 -0.162196 2.216733 152 155 160
0.080802 -0.160518 2.216300 152 155 160
0.080834 -0.158934 2.217171 152 155 159
0.080784 -0.157191 2.215807 150 154 155
0.080283 -0.154580 2.202057 150 154 155
0.080146 -0.152682 2.198289 151 155 157
0.080134 -0.151028 2.197968 151 155 158
0.080110 -0.149350 2.197310 151 155 158
0.080013 -0.147539 2.194643 152 156 159
0.079854 -0.145619 2.190284 152 156 159
0.078977 -0.142410 2.166222 153 157 158
0.079711 -0.142111 2.186375 150 156 154
0.080285 -0.141499 2.202116 149 155 153
0.080409 -0.140078 2.205502 148 154 152
0.080493 -0.138586 2.207826 147 153 151
0.080282 -0.136587 2.202039 145 151 149
0.080292 -0.134968 2.202314 144 150 148
0.080224 -0.133219 2.200441 143 149 148
0.080199 -0.131543 2.199751 142 148 146
0.080520 -0.130430 2.208563 141 146 142
0.080333 -0.128489 2.203414 139 144 138
0.080328 -0.126845 2.203295 136 141 135
0.080414 -0.125343 2.205656 136 141 135
0.080353 -0.123611 2.203976 136 141 134
0.080243 -0.121807 2.200971 136 141 134
0.080674 -0.120818 2.212791 133 138 131
0.080280 -0.118591 2.201968 131 136 128
0.080372 -0.117090 2.204502 133 139 129
0.080524 -0.115671 2.208668 132 138 127
0.080411 -0.113871 2.205575 130 136 124
0.080633 -0.112542 2.211658 129 135 123
0.080341 -0.110498 2.203659 129 135 121
0.080146 -0.108596 2.198289 126 132 118
0.080353 -0.107240 2.203976 122 128 114
0.080409 -0.105676 2.205502 118 123 109
0.080167 -0.103725 2.198863 114 117 103
0.080137 -0.102054 2.198053 110 112 99
0.080348 -0.100685 2.203827 103 103 91
0.079933 -0.098537 2.192461 93 93 82
0.080292 -0.097344 2.202314 84 84 74
0.080467 -0.095917 2.207107 72 73 63
0.080549 -0.094373 2.209340 51 54 43
0.080204 -0.092335 2.199897 29 35 23
0.079556 -0.089968 2.182110 19 26 14
0.079253 -0.088010 2.173791 7 18 4
0.079119 -0.086250 2.170131 1 9 1
0.078743 -0.084236 2.159805 0 7 0
0.078707 -0.082594 2.158836 3 10 3
0.079020 -0.081313 2.167421 5 9 7
0.078697 -0.079377 2.158554 3 5 5
0.078796 -0.077872 2.161274 0 0 2
0.079289 -0.076743 2.174788 0 0 2
0.079229 -0.075071 2.173136 0 1 3
0.078899 -0.073152 2.164107 0 1 3
0.079523 -0.072109 2.181206 0 1 3
0.080033 -0.070941 2.195189 0 1 3
0.079775 -0.069087 2.188110 0 1 4
0.081047 -0.068538 2.223018 0 1 5
0.081381 -0.067163 2.232179 0 1 5
0.081410 -0.065528 2.232976 0 0 7
0.081820 -0.064191 2.244225 0 0 8
0.079576 -0.059188 2.182653 0 0 7
0.079471 -0.057490 2.179777 0 0 6
0.079573 -0.055943 2.182569 0 1 5
0.078540 -0.053617 2.154245 0 1 3
0.078773 -0.052171 2.160651 0 1 3
0.079435 -0.050991 2.178792 1 5 6
0.081077 -0.050394 2.223835 0 3 2
0.081038 -0.048719 2.222777 3 5 2
0.080683 -0.046861 2.213039 38 40 35
0.080841 -0.045306 2.217359 119 120 114
0.080620 -0.041897 2.211291 222 219 212
0.080333 -0.040111 2.203414 214 209 203
0.080315 -0.038466 2.202923 201 194 188
0.080457 -0.036895 2.206837 199 192 186
0.080565 -0.035303 2.209783 197 190 184
0.080451 -0.033614 2.206665 196 189 183
0.080655 -0.032056 2.212256 196 189 182
0.080985 -0.030537 2.221307 198 191 183
0.080563 -0.028737 2.209738 200 193 183
0.080570 -0.027098 2.209936 200 193 184
0.080613 -0.025470 2.211096 199 192 184
0.080410 -0.023768 2.205544 199 192 184
0.079981 -0.022011 2.193763 199 192 184
0.079488 -0.020256 2.180254 199 192 184
0.079632 -0.018671 2.184201 199 192 184
0.079893 -0.017104 2.191355 199 192 184
0.079709 -0.015441 2.186303 199 192 184
0.079825 -0.013837 2.189486 199 192 184
0.079449 -0.012153 2.179173 199 192 184
0.079738 -0.010573 2.187098 199 192 184
0.079449 -0.008916 2.179173 199 192 184
0.078272 -0.005594 2.146891 199 192 184
0.077065 -0.002368 2.113786 199 192 184
0.077205 -0.000800 2.117637 199 192 184
0.077618 0.000778 2.128963 199 192 184
0.078063 0.002372 2.141159 199 192 184
0.078146 0.003967 2.143448 199 192 184
0.078215 0.005564 2.145334 199 192 183
0.077938 0.007132 2.137734 199 192 182
0.077849 0.008710 2.135295 199 192 182
0.077911 0.010304 2.136991 199 192 184
0.078068 0.011915 2.141302 199 191 184
0.077525 0.013412 2.126397 199 191 186
0.077790 0.015043 2.133672 199 191 188
0.078207 0.016717 2.145116 199 191 189
0.078245 0.018319 2.146166 199 191 188
0.078195 0.019900 2.144778 199 191 188
0.078274 0.021515 2.146950 199 191 188
0.078073 0.023050 2.141428 199 191 187
0.077908 0.024589 2.136920 198 191 185
0.077890 0.026170 2.136420 196 189 181
0.078001 0.027797 2.139470 196 189 181
0.078638 0.034432 2.156925 196 189 181
0.078446 0.035946 2.151664 196 189 181
0.078526 0.037583 2.153866 196 189 181
0.078552 0.039196 2.154586 196 189 181
0.078519 0.040779 2.153682 196 189 181
0.078556 0.042398 2.154686 196 189 181
0.078505 0.043970 2.153275 196 189 181
0.078679 0.045671 2.158061 196 189 181
0.078480 0.050352 2.152595 195 188 181
0.082868 0.064985 2.272954 197 187 185
0.082929 0.066722 2.274630 200 189 187
0.083039 0.068503 2.277649 205 193 191
0.082993 0.070156 2.276392 205 193 192
0.083003 0.071855 2.276657 199 187 186
0.083095 0.073628 2.279196 193 183 182
0.083129 0.075351 2.280109 199 193 190
0.083200 0.077111 2.282065 207 205 200
0.083201 0.078807 2.282102 203 203 197
0.083258 0.080557 2.283666 190 194 187
0.083239 0.082234 2.283130 173 182 173
0.082950 0.083639 2.275212 142 151 145
0.082743 0.085116 2.269540 103 112 108
0.082596 0.088330 2.265489 42 52 55
0.082769 0.090201 2.270236 24 30 37
0.082456 0.093220 2.261666 0 6 18
0.081839 0.095857 2.244736 2 12 24
0.081837 0.099189 2.244672 10 21 30
0.081245 0.100127 2.228448 12 25 34
0.081170 0.101689 2.226395 14 28 38
0.081041 0.103178 2.222848 16 30 41
0.081104 0.104910 2.224565 17 32 42
0.080493 0.107400 2.207826 6 24 34
0.080212 0.108659 2.200101 2 21 29
0.079690 0.109575 2.185778 0 19 27
0.079574 0.111037 2.182604 0 18 27
0.079276 0.112237 2.174446 1 19 30
0.079146 0.113664 2.170860 4 22 35
0.078765 0.114722 2.160407 7 25 39
0.078514 0.115956 2.153535 13 31 45
0.078446 0.117454 2.151664 13 31 47
0.078315 0.118854 2.148088 13 30 49
0.078078 0.120084 2.141566 13 31 51
0.077892 0.121385 2.136468 14 32 52
0.077791 0.122813 2.133715 14 32 51
0.077755 0.124340 2.132718 14 34 50
0.077500 0.125512 2.125728 12 33 50
0.077238 0.126660 2.118533 7 33 46
0.077222 0.128208 2.118106 7 35 47
0.077379 0.130044 2.122389 8 36 48
0.077358 0.131585 2.121826 9 36 48
0.077507 0.133418 2.125914 9 35 48
0.077285 0.134609 2.119813 9 33 47
0.077199 0.136033 2.117469 8 31 45
0.076901 0.137075 2.109298 7 29 43
0.076662 0.138210 2.102727 7 26 41
0.076591 0.139643 2.100793 7 26 41
0.076604 0.141227 2.101143 8 26 40
0.076535 0.142660 2.099266 8 26 40
0.076360 0.143890 2.094463 7 26 40
0.075886 0.144542 2.081455 6 26 40
0.075591 0.145521 2.073370 5 27 40
0.074721 0.145367 2.049485 4 28 40
0.074442 0.146342 2.041852 1 27 40
0.074181 0.147339 2.034678 2 26 40
0.074094 0.148675 2.032287 3 26 40
0.074129 0.150257 2.033265 5 25 40
0.074275 0.153579 2.037263 6 24 42
0.074214 0.154965 2.035596 7 24 40
0.074160 0.157873 2.034105 9 27 40
0.073941 0.158915 2.028109 10 28 40
0.073768 0.160044 2.023349 11 29 39
0.073448 0.160848 2.014585 11 29 39
0.073332 0.162087 2.011396 10 28 40
0.073319 0.163553 2.011055 8 26 38
0.073273 0.164943 2.009789 7 24 36
0.073287 0.166466 2.010151 6 22 35
0.073377 0.168167 2.012639 8 23 36
0.073230 0.169322 2.008614 10 24 37
0.073202 0.170749 2.007843 8 22 35
0.073157 0.172134 2.006607 7 21 34
0.073140 0.173584 2.006139 7 20 33
0.073187 0.175186 2.007424 5 19 32
0.073167 0.176629 2.006877 5 17 31
0.073066 0.177873 2.004097 5 17 31
0.073071 0.179374 2.004238 2 14 28
0.073059 0.180834 2.003911 0 11 25
0.073026 0.182239 2.003000 0 11 25
0.073020 0.183712 2.002836 0 12 25
0.073039 0.185249 2.003369 0 13 26
0.073102 0.186896 2.005079 0 14 27
0.073183 0.188594 2.007303 3 17 30
0.073111 0.189899 2.005333 4 20 32
0.073010 0.191125 2.002575 3 24 35
0.073010 0.192611 2.002561 3 31 40
0.072638 0.193111 1.992374 6 33 43
0.072492 0.194198 1.988347 10 33 45
0.072482 0.195650 1.988096 10 29 42
0.072517 0.197221 1.989050 5 22 34
0.072465 0.198555 1.987609 1 14 27
0.072431 0.199939 1.986690 0 9 21
0.072455 0.201480 1.987341 0 7 18
0.072196 0.202232 1.980247 0 9 18
0.072092 0.203409 1.977386 0 13 22
0.072047 0.204750 1.976154 1 16 23
0.072197 0.206648 1.980280 0 14 21
0.072086 0.207797 1.977214 0 13 20
0.072202 0.209604 1.980410 0 15 22
0.072839 0.212937 1.997880 3 17 26
0.072417 0.216128 1.986297 0 17 27
0.071868 0.215954 1.971244 2 18 31
0.071382 0.215947 1.957904 4 20 33
0.070941 0.216059 1.945811 5 22 34
0.071340 0.218729 1.956768 4 22 34
0.071808 0.221625 1.969590 3 22 34
0.071942 0.223506 1.973284 3 21 33
0.071859 0.224712 1.970999 1 18 29
0.071737 0.225790 1.967637 0 11 21
0.071615 0.226868 1.964316 0 3 15
0.117855 -0.718905 3.168070 207 198 201
0.118323 -0.719394 3.180635 207 198 201
0.126770 -0.768221 3.407702 207 198 201
0.190531 -1.147000 5.121654 207 198 201
0.190609 -1.143666 5.123759 207 198 201
0.190590 -1.139748 5.123256 207 198 201
1.066532 -6.356671 28.669449 207 198 201
1.059024 -6.290780 28.467636 207 198 201
1.083819 -6.416427 29.134153 207 198 201
0.504038 -2.953816 13.549058 207 198 201
0.506273 -2.956803 13.609123 207 198 201
1.036138 -6.010014 27.852421 207 198 201
1.096128 -6.336098 29.465027 207 198 201
1.141900 -6.577877 30.695408 207 198 201
0.084643 -0.485892 2.275282 207 198 201
0.195635 -1.111325 5.258868 206 197 200
0.093895 -0.529633 2.524001 206 197 200
0.094141 -0.529140 2.530611 206 197 200
0.158213 -0.886111 4.252933 206 197 200
0.157925 -0.881344 4.245184 206 197 200
0.485533 -2.651480 13.051603 206 197 198
0.158368 -0.858522 4.257104 206 197 198
0.241547 -1.256386 6.493033 206 197 196
0.162064 -0.797660 4.356443 206 198 196
0.126294 -0.608995 3.394907 206 198 196
0.073000 -0.350550 1.962302 206 198 196
0.084287 -0.403071 2.265723 206 198 196
0.081252 -0.383692 2.184147 206 198 196
0.080928 -0.377313 2.175429 206 198 196
0.085293 -0.372117 2.292756 201 192 198
0.085415 -0.370946 2.296047 199 189 199
0.085844 -0.371093 2.307568 190 180 193
0.087431 -0.365734 2.350229 172 172 181
0.087124 -0.362710 2.341976 159 161 173
0.085017 -0.350546 2.285354 85 88 103
0.084792 -0.347924 2.279294 74 81 94
0.084462 -0.344883 2.270422 93 102 116
0.084406 -0.342970 2.268923 100 112 128
0.084774 -0.342771 2.278805 84 99 114
0.084611 -0.340422 2.274420 83 99 115
0.084296 -0.337472 2.265959 81 99 115
0.084304 -0.335823 2.266183 72 91 107
0.084457 -0.334746 2.270295 64 84 101
0.084515 -0.333285 2.271836 57 78 95
0.084299 -0.330754 2.266055 49 70 89
0.084093 -0.328263 2.260492 44 65 84
0.083881 -0.325762 2.254802 46 66 85
0.084379 -0.326013 2.268202 47 64 83
0.083675 -0.321620 2.249260 41 58 74
0.083650 -0.319856 2.248600 36 53 70
0.083477 -0.317526 2.243940 34 52 73
0.083641 -0.316479 2.248343 37 56 77
0.083568 -0.314534 2.246380 38 58 79
0.083534 -0.312740 2.245481 37 58 77
0.083324 -0.310288 2.239821 37 59 75
0.083520 -0.309354 2.245111 37 58 73
0.083714 -0.308398 2.250309 27 45 60
0.083575 -0.306220 2.246592 19 37 51
0.083728 -0.305109 2.250703 21 36 51
0.083868 -0.303943 2.254452 29 44 59
0.083506 -0.300963 2.244715 26 42 58
0.083173 -0.298104 2.235784 15 31 47
0.083026 -0.295918 2.231815 15 31 46
0.083130 -0.294630 2.234621 23 40 55
0.083139 -0.293000 2.234849 22 38 54
0.082957 -0.290702 2.229960 24 41 57
0.083031 -0.289306 2.231964 25 42 58
0.082785 -0.286797 2.225358 22 39 55
0.082751 -0.285024 2.224422 21 38 54
0.083011 -0.284263 2.231423 21 39 53
0.083411 -0.283968 2.242177 18 36 49
0.083366 -0.282150 2.240968 13 30 42
0.083702 -0.281614 2.249982 12 29 39
0.083436 -0.279056 2.242855 14 29 38
0.083809 -0.278627 2.252859 16 31 39
0.083692 -0.276568 2.249719 17 32 40
0.083692 -0.274897 2.249719 13 28 35
0.083362 -0.272149 2.240853 8 24 31
0.083578 -0.271187 2.246672 10 26 33
0.083570 -0.269492 2.246449 18 35 42
0.083643 -0.268056 2.248399 26 44 53
0.083653 -0.266420 2.248689 34 50 62
0.083394 -0.263929 2.241715 35 44 58
0.083504 -0.262610 2.244672 37 40 53
0.083390 -0.260587 2.241612 65 63 74
0.083199 -0.258329 2.236486 103 101 108
0.083617 -0.257958 2.247722 124 125 129
0.083551 -0.256085 2.245942 134 137 140
0.083213 -0.253387 2.236848 138 142 148
0.083443 -0.252421 2.243033 137 141 152
0.082964 -0.249315 2.230153 130 135 151
0.082941 -0.247589 2.229527 124 131 151
0.082519 -0.244685 2.218206 121 130 149
0.082511 -0.243012 2.217977 104 117 134
0.083456 -0.244130 2.243387 100 114 128
0.082469 -0.239595 2.216847 109 121 131
0.082188 -0.237138 2.209301 107 117 119
0.082838 -0.237360 2.226776 117 124 119
0.082703 -0.235322 2.223144 124 130 124
0.082525 -0.233166 2.218346 92 98 94
0.082291 -0.230864 2.212074 38 44 44
0.082072 -0.228610 2.206181 22 27 33
0.082294 -0.227585 2.212150 64 69 81
0.082580 -0.226726 2.219827 123 129 146
0.082478 -0.224800 2.217090 164 169 193
0.082435 -0.223038 2.215946 188 194 222
0.082151 -0.220629 2.208306 190 195 225
0.082391 -0.219628 2.214758 191 197 231
0.082339 -0.217846 2.213366 192 199 232
0.082280 -0.216046 2.211762 192 201 234
0.082381 -0.214666 2.214477 191 200 233
0.082513 -0.213362 2.218023 191 200 231
0.082740 -0.212299 2.224143 190 199 225
0.082458 -0.209929 2.216561 187 195 213
0.082506 -0.208402 2.217833 186 193 208
0.082309 -0.206263 2.212561 183 188 204
0.082145 -0.204210 2.208136 180 182 199
0.081882 -0.201922 2.201063 175 176 193
0.081937 -0.200421 2.202542 170 171 188
0.081951 -0.198819 2.202919 168 167 183
0.081964 -0.197214 2.203269 166 165 181
0.082092 -0.195884 2.206722 168 167 181
0.082079 -0.194213 2.206353 167 167 179
0.082073 -0.192561 2.206201 163 166 175
0.081996 -0.190744 2.204148 161 164 173
0.082263 -0.189723 2.211325 161 161 171
0.082138 -0.187793 2.207950 159 159 169
0.082209 -0.186315 2.209872 157 157 167
0.082477 -0.185274 2.217055 156 157 166
0.082525 -0.183736 2.218367 154 158 164
0.082477 -0.181981 2.217055 154 158 162
0.082525 -0.180441 2.218367 153 157 162
0.082267 -0.178233 2.211424 153 157 162
0.081549 -0.175050 2.192126 152 156 161
0.081928 -0.174227 2.202314 152 155 160
0.081946 -0.172630 2.202798 152 155 160
0.081816 -0.167454 2.199294 151 154 159
0.082330 -0.166863 2.213119 151 154 159
0.082089 -0.164736 2.206643 151 154 159
0.082051 -0.163021 2.205618 151 154 159
0.082164 -0.161605 2.208651 151 154 159
0.082062 -0.159766 2.205916 151 154 159
0.082091 -0.158182 2.206677 151 155 159
0.082105 -0.156570 2.207058 149 153 156
0.081809 -0.154373 2.199117 149 153 154
0.081513 -0.152186 2.191139 150 154 156
0.081281 -0.150130 2.184913 150 154 157
0.081523 -0.148950 2.191424 151 155 158
0.081252 -0.146832 2.184125 151 155 158
0.081163 -0.145051 2.181739 152 156 159
0.080950 -0.143054 2.176019 153 157 159
0.081047 -0.141607 2.178616 150 156 155
0.081562 -0.140878 2.192461 149 155 153
0.081525 -0.139187 2.191481 148 154 152
0.081713 -0.137876 2.196523 147 153 151
0.081662 -0.136161 2.195169 145 151 149
0.081408 -0.134111 2.188332 144 150 148
0.081385 -0.132447 2.187700 143 149 148
0.081397 -0.130843 2.188042 142 148 146
0.081963 -0.130116 2.203245 141 146 142
0.081204 -0.127290 2.182855 139 144 138
0.081667 -0.126385 2.195303 136 141 135
0.081618 -0.124679 2.193971 136 141 135
0.081273 -0.122529 2.184698 136 141 134
0.081126 -0.120688 2.180753 136 141 134
0.081357 -0.119407 2.186950 133 138 130
0.082229 -0.119046 2.210408 131 137 127
0.081525 -0.116399 2.191481 131 137 127
0.081790 -0.115144 2.198598 129 135 124
0.082171 -0.114040 2.208847 127 133 121
0.081871 -0.111988 2.200764 126 132 119
0.081588 -0.109972 2.193159 125 131 118
0.081481 -0.108201 2.190284 122 128 114
0.081344 -0.106395 2.186608 117 124 109
0.081407 -0.104852 2.188291 114 119 105
0.081246 -0.103022 2.183968 109 112 97
0.081347 -0.101527 2.186700 105 107 93
0.081286 -0.099827 2.185043 96 96 84
0.081195 -0.098094 2.182591 86 86 74
0.081280 -0.096574 2.184893 77 76 65
0.081540 -0.095255 2.191880 64 64 53
0.081592 -0.093687 2.193279 42 43 32
0.081217 -0.091635 2.183203 19 25 13
0.080928 -0.089693 2.175429 6 15 2
0.080869 -0.088013 2.173841 6 18 4
0.080865 -0.086393 2.173722 5 17 5
0.080557 -0.084456 2.165443 0 11 1
0.080105 -0.082383 2.153315 0 6 0
0.080376 -0.081057 2.160598 0 2 0
0.080479 -0.079553 2.163351 0 1 0
0.080860 -0.078316 2.173610 0 1 2
0.080995 -0.076830 2.177239 0 1 2
0.080915 -0.075138 2.175075 0 1 2
0.081033 -0.073629 2.178238 0 1 2
0.081202 -0.072162 2.182802 0 1 2
0.081298 -0.070624 2.185368 0 1 2
0.081828 -0.069451 2.199629 0 1 3
0.082838 -0.068654 2.226776 0 1 4
0.082229 -0.066507 2.210408 0 1 5
0.082427 -0.065022 2.215732 0 0 7
0.082716 -0.063598 2.223500 0 0 8
0.080796 -0.058895 2.171874 0 0 6
0.081047 -0.057460 2.178625 0 0 5
0.080491 -0.055459 2.163690 0 1 5
0.080196 -0.052053 2.155740 0 1 3
0.082619 -0.050326 2.220877 2 6 5
0.082846 -0.048811 2.226985 0 2 0
0.082620 -0.047028 2.220912 4 6 1
0.082128 -0.041828 2.207672 213 213 205
0.081977 -0.040115 2.203634 225 222 215
0.081965 -0.038472 2.203295 205 200 194
0.082111 -0.036902 2.207229 202 195 189
0.082242 -0.035318 2.210740 197 190 184
0.082135 -0.033632 2.207864 196 189 182
0.082299 -0.032056 2.212281 197 190 182
0.082228 -0.030387 2.210365 199 192 184
0.082197 -0.028734 2.209538 200 193 183
0.082133 -0.027072 2.207826 200 193 183
0.082193 -0.025451 2.209428 199 192 184
0.082008 -0.023756 2.204451 199 192 184
0.081774 -0.022055 2.198158 199 192 184
0.081179 -0.020274 2.182178 199 192 184
0.081321 -0.018686 2.185997 199 192 184
0.081097 -0.017015 2.179963 199 192 184
0.081610 -0.015493 2.193763 199 192 184
0.081152 -0.013786 2.181457 199 192 184
0.081205 -0.012174 2.182882 199 192 184
0.080983 -0.010524 2.176906 199 192 184
0.079069 -0.003960 2.125458 199 192 184
0.078742 -0.000799 2.116669 199 192 184
0.078839 0.000774 2.119279 199 192 184
0.079012 0.002353 2.123919 199 192 184
0.078988 0.003930 2.123270 199 192 184
0.079160 0.005519 2.127911 199 192 183
0.078968 0.007082 2.122726 199 192 182
0.078992 0.008661 2.123378 199 192 182
0.079034 0.010244 2.124519 199 192 184
0.079154 0.011840 2.127741 199 191 185
0.078812 0.013362 2.118533 199 191 187
0.079378 0.015043 2.133770 199 191 188
0.079755 0.016707 2.143898 199 191 189
0.079410 0.018221 2.134631 199 191 188
0.079270 0.019771 2.130845 199 191 188
0.079146 0.021320 2.127526 199 191 188
0.079237 0.022927 2.129971 199 191 187
0.078794 0.024372 2.118058 198 190 186
0.078937 0.025992 2.121896 196 189 182
0.078697 0.027485 2.115446 196 189 181
0.078703 0.029058 2.115609 196 189 181
0.078466 0.030537 2.109233 196 189 181
0.079447 0.032505 2.135620 196 189 181
0.079710 0.038979 2.142684 196 189 181
0.079681 0.040556 2.141896 196 189 181
0.079772 0.042195 2.144347 196 189 181
0.079606 0.043697 2.139898 196 189 181
0.079843 0.045421 2.146272 196 189 181
0.079774 0.048567 2.144403 196 189 181
0.086708 0.054520 2.330793 196 188 183
0.086394 0.056048 2.322369 198 188 186
0.084682 0.065081 2.276335 194 184 183
0.084759 0.066833 2.278398 195 183 182
0.084683 0.068464 2.276361 188 176 176
0.084679 0.070152 2.276268 194 182 183
0.084772 0.071921 2.278746 197 187 187
0.084720 0.073569 2.277366 199 193 192
0.084775 0.075308 2.278825 206 205 203
0.084793 0.077018 2.279328 205 206 203
0.084725 0.078648 2.277502 178 184 179
0.084951 0.080554 2.283569 140 149 143
0.084710 0.082016 2.277079 71 83 76
0.084687 0.083685 2.276464 47 60 55
0.084509 0.086884 2.271689 10 17 21
0.084388 0.088444 2.268430 2 11 18
0.084260 0.089993 2.265001 3 14 25
0.083911 0.094646 2.255616 15 25 41
0.083622 0.095990 2.247842 15 27 44
0.083390 0.097388 2.241596 19 32 48
0.083097 0.098705 2.233722 21 35 50
0.082790 0.099994 2.225474 20 35 49
0.082891 0.101771 2.228204 15 30 46
0.082887 0.103421 2.228092 8 24 39
0.082769 0.104926 2.224911 4 20 35
0.082070 0.107317 2.206122 3 21 34
0.081784 0.108576 2.198425 3 21 34
0.081090 0.109274 2.179789 4 21 34
0.080967 0.110725 2.176477 5 23 35
0.080358 0.111497 2.160115 6 24 37
0.080194 0.112871 2.155708 7 25 40
0.079946 0.114117 2.149018 9 27 41
0.079653 0.115290 2.141159 17 36 51
0.079562 0.116746 2.138697 17 36 53
0.079429 0.118136 2.135119 16 34 54
0.079360 0.119619 2.133277 15 34 53
0.079217 0.120985 2.129422 15 33 53
0.079202 0.122544 2.129039 14 33 50
0.079188 0.124103 2.128655 14 33 50
0.078816 0.125094 2.118654 11 33 47
0.078645 0.126393 2.114064 7 32 45
0.078379 0.127529 2.106896 8 33 46
0.078418 0.129160 2.107964 9 34 47
0.078401 0.130696 2.107487 9 34 47
0.078837 0.132998 2.119228 8 34 47
0.078223 0.133523 2.102701 6 32 45
0.078262 0.135152 2.103755 6 29 43
0.077949 0.136169 2.095348 6 28 42
0.077568 0.137052 2.085106 6 26 41
0.078069 0.139496 2.098574 7 26 41
0.077688 0.140366 2.088327 7 26 40
0.078027 0.142537 2.097448 7 26 40
0.077778 0.143635 2.090758 7 26 40
0.077512 0.144691 2.083599 5 26 40
0.076422 0.157915 2.054301 8 24 40
0.074695 0.158820 2.007875 5 23 34
0.074717 0.160359 2.008470 6 24 34
0.075101 0.165683 2.018799 5 21 34
0.075085 0.167146 2.018360 4 20 33
0.074825 0.168062 2.011383 6 21 34
0.074779 0.169450 2.010128 7 21 34
0.074762 0.170906 2.009686 5 19 32
0.074707 0.172271 2.008207 4 18 31
0.074673 0.173683 2.007281 3 16 29
0.074668 0.175163 2.007154 2 14 28
0.074665 0.176647 2.007080 1 13 27
0.074624 0.178038 2.005958 1 12 26
0.074616 0.179510 2.005751 0 11 25
0.074555 0.180851 2.004105 0 10 24
0.074549 0.182325 2.003942 0 10 24
0.074515 0.183731 2.003040 0 10 24
0.074505 0.185192 2.002758 0 12 26
0.074519 0.186715 2.003136 1 15 28
0.074561 0.188309 2.004267 4 18 31
0.074575 0.189835 2.004654 5 20 33
0.074440 0.190976 2.001016 4 24 36
0.074483 0.192573 2.002166 3 28 40
0.074284 0.193543 1.996829 7 33 44
0.073937 0.194116 1.987504 13 36 48
0.073709 0.194989 1.981379 14 35 49
0.073879 0.196914 1.985948 12 30 44
0.073690 0.197882 1.980871 5 22 36
0.073793 0.199631 1.983629 0 14 26
0.073802 0.201130 1.983884 0 10 20
0.073672 0.202244 1.980368 0 8 17
0.073434 0.203057 1.973969 0 10 19
0.073598 0.204982 1.978397 0 13 21
0.073486 0.206136 1.975369 0 14 21
0.073480 0.207588 1.975229 0 13 20
0.073697 0.209673 1.981063 0 13 21
0.073906 0.211742 1.986672 1 14 23
0.074360 0.214528 1.998878 2 16 25
0.074086 0.215215 1.991498 0 17 27
0.073819 0.215914 1.984330 0 17 27
0.073175 0.215492 1.967024 2 18 31
0.072410 0.216131 1.946463 4 22 34
0.072993 0.219329 1.962135 4 22 34
0.073289 0.221680 1.970081 2 22 33
0.073546 0.223926 1.976992 2 20 32
0.073414 0.224991 1.973448 2 18 28
0.073626 0.227110 1.979145 0 10 21
0.119850 -0.716760 3.158616 208 199 202
0.120617 -0.718987 3.178834 208 199 202
0.126550 -0.751876 3.335197 207 198 201
0.194271 -1.146626 5.119984 207 198 201
0.194335 -1.143196 5.121654 207 198 201
0.194296 -1.139166 5.120638 207 198 201
1.087827 -6.356671 28.669449 207 198 201
1.081876 -6.300721 28.512623 207 198 201
1.099926 -6.384311 28.988331 207 198 201
1.056825 -6.010014 27.852421 207 198 201
1.112298 -6.303704 29.314384 207 198 201
0.086254 -0.485449 2.273208 207 198 201
0.198507 -1.105567 5.231617 206 197 200
0.095917 -0.530446 2.527879 206 197 200
0.096063 -0.529371 2.531716 206 197 200
0.162007 -0.889598 4.269669 206 197 200
0.161042 -0.881145 4.244226 206 197 200
0.161497 -0.870989 4.256221 206 197 197
0.161100 -0.856234 4.245758 206 197 197
0.165465 -0.798457 4.360797 206 198 196
0.074364 -0.350112 1.959852 206 198 196
0.082005 -0.381270 2.161223 206 198 196
0.082009 -0.379682 2.161324 206 198 196
0.081755 -0.373706 2.154637 206 198 196
0.081555 -0.371198 2.149379 206 198 196
0.087041 -0.372311 2.293949 200 189 193
0.089461 -0.372153 2.357714 142 137 143
0.088678 -0.363691 2.337100 168 170 179
0.086032 -0.346100 2.267350 82 91 102
0.085737 -0.343236 2.259579 96 108 119
0.085779 -0.341726 2.260693 97 110 125
0.085966 -0.340789 2.265629 72 86 104
0.086022 -0.339326 2.267097 77 93 113
0.085567 -0.335854 2.255090 83 101 122
0.085704 -0.334716 2.258718 76 95 118
0.085972 -0.334078 2.265768 70 90 114
0.085788 -0.331685 2.260929 65 85 109
0.086063 -0.331062 2.268164 51 72 96
0.085730 -0.328105 2.259400 41 61 84
0.085441 -0.325326 2.251787 48 67 90
0.085543 -0.324038 2.254458 53 74 94
0.085312 -0.321494 2.248380 45 67 84
0.085423 -0.320239 2.251294 40 63 79
0.085373 -0.318381 2.249982 38 60 77
0.085259 -0.316288 2.246988 37 60 76
0.085075 -0.313940 2.242138 36 59 75
0.085057 -0.312209 2.241666 36 58 73
0.084849 -0.309782 2.236166 39 61 74
0.085495 -0.310467 2.253193 39 60 72
0.085483 -0.308751 2.252880 22 42 53
0.085924 -0.308662 2.264504 14 34 44
0.084913 -0.303368 2.237860 19 36 47
0.085282 -0.303016 2.247579 27 44 56
0.084778 -0.299567 2.234309 26 44 55
0.084530 -0.297035 2.227765 24 41 53
0.084312 -0.294620 2.222029 25 43 54
0.084458 -0.293476 2.225871 22 42 53
0.084502 -0.291975 2.227033 24 43 59
0.084443 -0.290118 2.225474 26 46 64
0.084449 -0.288485 2.225635 26 46 63
0.084613 -0.287391 2.229968 22 43 58
0.084410 -0.285049 2.224618 16 37 52
0.084535 -0.283815 2.227901 12 34 47
0.084597 -0.282366 2.229527 12 33 44
0.084689 -0.281016 2.231959 13 31 42
0.084813 -0.279766 2.235217 13 29 39
0.084933 -0.278501 2.238392 14 27 38
0.084864 -0.276612 2.236562 16 27 38
0.085129 -0.275809 2.243548 16 27 37
0.084817 -0.273140 2.235343 14 25 34
0.084736 -0.271220 2.233201 11 22 31
0.084741 -0.269578 2.233342 11 23 31
0.084884 -0.268370 2.237100 12 26 35
0.085003 -0.267082 2.240233 20 35 44
0.084871 -0.265005 2.236748 26 40 50
0.085095 -0.264041 2.242666 30 40 51
0.084719 -0.261215 2.232757 40 45 56
0.084867 -0.260011 2.236662 62 64 73
0.085005 -0.258770 2.240299 92 93 99
0.084817 -0.256537 2.235343 116 118 123
0.084836 -0.254933 2.235837 129 133 137
0.084818 -0.253219 2.235370 133 137 143
0.084815 -0.251549 2.235284 131 136 145
0.084357 -0.248538 2.223198 128 135 147
0.084116 -0.246184 2.216873 127 135 150
0.083873 -0.243831 2.210464 122 133 149
0.084222 -0.243197 2.219664 107 121 136
0.084676 -0.242850 2.231625 101 115 129
0.084068 -0.239459 2.215590 106 120 130
0.084144 -0.238029 2.217595 109 119 123
0.084285 -0.236778 2.221315 115 121 121
0.084248 -0.235025 2.220342 120 125 123
0.084204 -0.233255 2.219191 93 98 98
0.083812 -0.230527 2.208847 50 55 58
0.083686 -0.228541 2.205517 39 43 50
0.083766 -0.227121 2.207632 76 81 94
0.084117 -0.226426 2.216886 130 136 154
0.083957 -0.224352 2.212667 168 174 196
0.083970 -0.222743 2.213011 187 193 218
0.083772 -0.220577 2.207791 187 195 222
0.083695 -0.218738 2.205776 188 196 225
0.083812 -0.217402 2.208847 187 197 226
0.083878 -0.215931 2.210593 188 198 227
0.084010 -0.214626 2.214062 188 198 227
0.083873 -0.212634 2.210456 187 197 225
0.084183 -0.211772 2.218619 186 196 220
0.084059 -0.209816 2.215367 181 189 205
0.083886 -0.207740 2.210791 180 187 199
0.083868 -0.206055 2.210331 176 182 195
0.083653 -0.203888 2.204651 174 177 191
0.083660 -0.202268 2.204837 170 172 186
0.083516 -0.200286 2.201051 166 167 182
0.083552 -0.198737 2.202004 163 162 177
0.083673 -0.197385 2.205177 162 161 174
0.083586 -0.195544 2.202890 164 165 177
0.083695 -0.194162 2.205776 162 165 176
0.083619 -0.192347 2.203750 161 164 173
0.083758 -0.191027 2.207419 159 162 171
0.083630 -0.189098 2.204043 157 160 169
0.083532 -0.187242 2.201470 156 159 166
0.083827 -0.186263 2.209248 154 157 164
0.084109 -0.185242 2.216670 153 156 163
0.084067 -0.183505 2.215573 153 158 162
0.084085 -0.181897 2.216032 153 158 162
0.084076 -0.180233 2.215812 152 157 161
0.083866 -0.178140 2.210268 152 157 161
0.083290 -0.175286 2.195080 151 156 160
0.083431 -0.173950 2.198807 151 155 159
0.083468 -0.172394 2.199785 151 155 159
0.083502 -0.170829 2.200680 151 154 159
0.083350 -0.168887 2.196683 150 153 158
0.083376 -0.167306 2.197345 150 153 158
0.083253 -0.165431 2.194119 150 153 158
0.083707 -0.164694 2.206088 150 153 158
0.083654 -0.162952 2.204680 150 153 158
0.083652 -0.161311 2.204643 151 154 159
0.083400 -0.159192 2.197986 151 154 159
0.083506 -0.157760 2.200782 151 154 159
0.083643 -0.156382 2.204401 148 152 155
0.083582 -0.154631 2.202788 148 152 155
0.083416 -0.152690 2.198402 149 153 156
0.083319 -0.150881 2.195842 150 154 157
0.083269 -0.149161 2.194532 150 154 157
0.082878 -0.146839 2.184229 151 155 159
0.082932 -0.145311 2.185650 152 156 160
0.083381 -0.144466 2.197486 153 156 160
0.083439 -0.142933 2.199020 150 155 157
0.083343 -0.141136 2.196476 149 155 154
0.083225 -0.139309 2.193390 148 154 153
0.083427 -0.138014 2.198712 147 153 152
0.083319 -0.136203 2.195846 145 151 150
0.083003 -0.134062 2.187526 144 150 149
0.083264 -0.132853 2.194393 143 149 149
0.083557 -0.131685 2.202116 142 148 146
0.083449 -0.129882 2.199294 141 146 142
0.083554 -0.128409 2.202045 139 144 138
0.083555 -0.126775 2.202067 136 141 135
0.083180 -0.124578 2.192200 136 141 135
0.083353 -0.123205 2.196745 136 141 134
0.083071 -0.121163 2.189327 136 141 134
0.083990 -0.120858 2.213537 133 138 130
0.083788 -0.118928 2.208223 131 137 127
0.083505 -0.116892 2.200764 128 134 124
0.083833 -0.115709 2.209393 126 132 120
0.083734 -0.113933 2.206779 123 129 117
0.083526 -0.112015 2.201307 122 128 115
0.083590 -0.110465 2.202986 121 127 113
0.083411 -0.108596 2.198289 118 124 110
0.083307 -0.106830 2.195549 113 119 104
0.083326 -0.105223 2.196042 111 115 100
0.083399 -0.103683 2.197968 104 106 92
0.083664 -0.102374 2.204947 100 102 88
0.084043 -0.101192 2.214930 90 91 78
0.083606 -0.099030 2.203414 78 79 67
0.083266 -0.096997 2.194453 69 69 58
0.083625 -0.095779 2.203928 55 56 44
0.083488 -0.093987 2.200300 32 34 24
0.083179 -0.092011 2.192174 9 15 5
0.082686 -0.089847 2.179173 4 15 3
0.082459 -0.087986 2.173189 8 20 7
0.082178 -0.086077 2.165777 7 19 8
0.082176 -0.084467 2.165730 1 11 2
0.082087 -0.082769 2.163388 0 5 0
0.081783 -0.080861 2.155368 0 2 1
0.081832 -0.079308 2.156668 1 2 3
0.082422 -0.078265 2.172202 2 2 4
0.082641 -0.076856 2.177976 0 1 1
0.082749 -0.075337 2.180829 0 1 1
0.082881 -0.073835 2.184318 0 1 1
0.082984 -0.072302 2.187025 0 1 1
0.083495 -0.071113 2.200501 0 1 2
0.083388 -0.069389 2.197671 0 1 3
0.083699 -0.068010 2.205878 0 1 4
0.083428 -0.066156 2.198724 0 1 5
0.083427 -0.064522 2.198691 0 0 7
0.083454 -0.062910 2.199421 0 0 7
0.083368 -0.061212 2.197142 0 0 7
0.082371 -0.058868 2.170878 0 0 7
0.082677 -0.057469 2.178948 0 0 5
0.082731 -0.055886 2.180358 0 1 5
0.081630 -0.053544 2.151334 0 1 3
0.081819 -0.052067 2.156332 0 1 3
0.084130 -0.048597 2.217237 0 2 0
0.084026 -0.046892 2.214477 0 1 0
0.083702 -0.045073 2.205949 24 25 20
0.083682 -0.043424 2.205413 95 94 89
0.083438 -0.041664 2.198982 174 171 164
0.083652 -0.040133 2.204633 217 214 207
0.083555 -0.038451 2.202074 210 205 199
0.083667 -0.036865 2.205018 204 199 193
0.083647 -0.035218 2.204487 199 192 186
0.083672 -0.033591 2.205153 196 189 183
0.083688 -0.031959 2.205572 198 191 183
0.083690 -0.030322 2.205642 200 193 184
0.083604 -0.028654 2.203379 199 192 182
0.083759 -0.027067 2.207448 198 191 181
0.083606 -0.025381 2.203414 199 192 184
0.083598 -0.023742 2.203199 199 192 184
0.083283 -0.022023 2.194895 199 192 184
0.083188 -0.020369 2.192397 199 192 184
0.083010 -0.018701 2.187723 199 192 184
0.083007 -0.017075 2.187628 199 192 184
0.082715 -0.015396 2.179929 199 192 184
0.083275 -0.013870 2.194700 199 192 184
0.082686 -0.012153 2.179173 199 192 184
0.082099 -0.010460 2.163690 199 192 184
0.080261 -0.005512 2.115272 199 192 184
0.080182 -0.003937 2.113189 199 192 184
0.080347 -0.002372 2.117527 199 192 184
0.080270 -0.000799 2.115508 199 192 184
0.080040 0.000770 2.109434 199 192 184
0.080070 0.002338 2.110232 199 192 184
0.080195 0.003912 2.113531 199 192 184
0.080205 0.005482 2.113786 199 192 183
0.080216 0.007053 2.114064 199 192 182
0.080164 0.008618 2.112698 199 192 182
0.080184 0.010190 2.113229 199 192 184
0.080370 0.011787 2.118138 199 191 185
0.080290 0.013347 2.116026 199 191 186
0.080707 0.014996 2.127024 199 191 188
0.081434 0.016725 2.146171 199 191 189
0.081186 0.018263 2.139636 199 191 188
0.080368 0.019653 2.118085 199 191 188
0.080300 0.021208 2.116296 199 191 188
0.080090 0.022720 2.110765 199 191 187
0.080084 0.024286 2.110595 198 191 185
0.079994 0.025825 2.108229 196 189 181
0.079770 0.027314 2.102311 196 189 181
0.079913 0.028927 2.106090 196 189 181
0.079951 0.030506 2.107096 196 189 181
0.080072 0.032120 2.110269 196 189 181
0.081073 0.042044 2.136666 196 189 181
0.081179 0.043688 2.139454 196 189 181
0.081195 0.045286 2.139889 196 189 181
0.081096 0.048406 2.137272 196 189 181
0.087995 0.054246 2.319077 196 189 181
0.087690 0.055775 2.311052 200 191 186
0.086495 0.065174 2.279570 196 187 185
0.086381 0.066779 2.276558 197 187 187
0.086400 0.068485 2.277058 195 185 186
0.086374 0.070155 2.276382 203 192 195
0.086396 0.071864 2.276954 210 201 203
0.086549 0.073686 2.280994 208 204 204
0.086349 0.075206 2.275721 191 192 191
0.086245 0.076803 2.272968 151 157 156
0.086184 0.078436 2.271370 93 103 101
0.086327 0.080256 2.275119 45 59 55
0.086478 0.082090 2.279115 11 27 22
0.086383 0.083690 2.276606 5 22 20
0.086444 0.085441 2.278201 4 20 22
0.086375 0.087064 2.276401 9 23 30
0.086120 0.088493 2.269686 13 27 38
0.086126 0.090185 2.269826 17 32 48
0.085499 0.092876 2.253305 26 41 62
0.085107 0.094116 2.242969 30 45 66
0.085160 0.102510 2.244384 6 22 43
0.084760 0.103688 2.233842 4 19 40
0.084400 0.104899 2.224345 2 18 38
0.083709 0.105679 2.206132 5 20 38
0.083244 0.106722 2.193879 8 23 40
0.082961 0.107983 2.186431 11 28 45
0.082310 0.108747 2.169267 15 33 48
0.082245 0.110271 2.167550 18 36 51
0.081224 0.110492 2.140634 19 37 51
0.081150 0.111980 2.138702 19 36 52
0.081123 0.113530 2.137972 18 35 51
0.080898 0.114799 2.132051 18 37 54
0.080633 0.116001 2.125056 17 36 54
0.080520 0.117416 2.122094 16 34 54
0.080429 0.118857 2.119685 15 33 53
0.080662 0.120780 2.125822 12 33 50
0.080739 0.122476 2.127848 10 31 48
0.080592 0.123831 2.123984 9 31 47
0.080140 0.124705 2.112072 9 31 45
0.079628 0.125467 2.098574 9 30 44
0.079417 0.126690 2.093027 8 32 44
0.079359 0.128150 2.091491 9 33 45
0.079316 0.129634 2.090369 10 33 45
0.079756 0.131913 2.101943 8 33 45
0.079576 0.133174 2.097202 6 31 43
0.079469 0.134551 2.094398 6 28 41
0.079339 0.137437 2.090961 6 26 40
0.079346 0.139002 2.091147 7 26 40
0.079530 0.140881 2.095993 7 26 40
0.079525 0.142430 2.095874 7 26 40
0.079309 0.143595 2.090178 5 26 40
0.078926 0.144446 2.080066 4 26 40
0.078640 0.145462 2.072540 4 27 40
0.078052 0.145903 2.057047 2 27 40
0.077510 0.149442 2.042769 4 27 41
0.077548 0.151032 2.043753 6 26 41
0.077663 0.152777 2.046796 7 25 42
0.077633 0.154238 2.046005 7 25 43
0.077460 0.155410 2.041444 8 25 41
0.077327 0.156658 2.037944 9 25 40
0.077298 0.158112 2.037174 7 23 37
0.076953 0.158913 2.028092 6 23 36
0.076659 0.162807 2.020325 5 22 34
0.076624 0.164232 2.019400 4 22 34
0.076620 0.165724 2.019308 4 21 34
0.076461 0.166877 2.015116 5 21 34
0.076307 0.168035 2.011060 4 19 31
0.076171 0.169225 2.007463 3 18 30
0.076232 0.170855 2.009088 2 17 29
0.076189 0.172250 2.007954 1 15 27
0.076149 0.173649 2.006893 1 13 26
0.076123 0.175081 2.006215 0 12 25
0.076153 0.176640 2.006994 0 10 24
0.076194 0.178227 2.008086 0 10 23
0.076168 0.179657 2.007394 0 10 24
0.076143 0.181089 2.006742 0 11 25
0.076110 0.182499 2.005855 0 12 25
0.076114 0.184000 2.005981 0 12 25
0.076097 0.185449 2.005532 0 13 26
0.076068 0.186865 2.004750 1 15 27
0.075968 0.188107 2.002109 2 16 29
0.076096 0.189915 2.005504 3 18 31
0.075935 0.191000 2.001263 2 21 34
0.075873 0.192329 1.999624 2 25 37
0.075573 0.193048 1.991723 7 31 43
0.075514 0.194375 1.990160 14 38 50
0.075208 0.195059 1.982088 18 41 53
0.075095 0.196235 1.979107 17 38 51
0.075010 0.197483 1.976883 12 30 44
0.075160 0.199349 1.980829 4 21 32
0.075129 0.200738 1.980019 0 13 23
0.075111 0.202159 1.979528 0 8 17
0.074967 0.203240 1.975750 0 8 17
0.074875 0.204455 1.973313 0 10 18
0.074578 0.205105 1.965492 0 13 21
0.074650 0.206765 1.967397 0 13 21
0.074738 0.208471 1.969708 0 12 20
0.075521 0.213612 1.990350 0 14 23
0.075150 0.214033 1.980561 0 17 27
0.074650 0.214072 1.967397 0 18 28
0.074307 0.214542 1.958356 2 18 31
0.074555 0.216717 1.964882 4 20 33
0.074392 0.217700 1.960589 4 21 33
0.074247 0.218729 1.956768 3 21 33
0.074660 0.221405 1.967637 1 21 32
0.074825 0.223361 1.972003 1 20 32
0.074624 0.224220 1.966689 2 17 28
0.074752 0.226070 1.970081 0 10 21
0.122143 -0.716452 3.157259 208 199 202
0.123014 -0.719198 3.179765 208 199 202
0.126840 -0.739132 3.278666 207 198 201
0.198074 -1.146626 5.119984 207 198 201
0.198074 -1.142823 5.119984 207 198 201
0.198007 -1.138634 5.118247 207 198 201
1.109121 -6.356671 28.669449 207 198 201
1.103054 -6.300721 28.512623 207 198 201
1.123019 -6.393200 29.028690 207 198 201
1.079436 -6.020737 27.902115 207 198 201
1.134072 -6.303704 29.314384 207 198 201
0.087841 -0.484890 2.270590 207 198 201
0.201578 -1.101114 5.210547 206 197 200
0.097706 -0.529963 2.525574 206 197 200
0.097865 -0.528950 2.529700 206 197 200
0.165333 -0.890428 4.273652 206 197 200
0.164758 -0.884171 4.258804 206 197 200
0.164749 -0.871470 4.258569 206 198 196
0.064744 -0.327559 1.673561 206 198 196
0.143249 -0.683483 3.702819 206 198 196
0.167710 -0.793753 4.335108 206 198 196
0.168377 -0.793674 4.352334 206 198 196
0.075740 -0.352650 1.957776 206 198 196
0.075709 -0.349600 1.956985 206 198 196
0.083044 -0.378686 2.146578 206 198 196
0.083123 -0.377453 2.148636 206 198 196
0.082628 -0.370445 2.135836 206 198 196
0.091285 -0.372451 2.359607 144 139 145
0.091090 -0.362911 2.354567 108 117 126
0.090005 -0.356861 2.326523 85 95 104
0.087525 -0.343667 2.262418 95 108 119
0.087246 -0.340898 2.255214 94 110 124
0.087474 -0.340108 2.261099 73 89 107
0.087588 -0.338871 2.264055 75 93 113
0.087671 -0.337507 2.266188 79 99 122
0.087398 -0.334778 2.259132 76 97 121
0.087297 -0.332716 2.256527 74 96 121
0.087541 -0.331963 2.262819 71 92 118
0.087455 -0.329958 2.260599 58 78 104
0.087588 -0.328781 2.264055 46 65 89
0.087341 -0.326173 2.257649 49 68 92
0.087301 -0.324351 2.256637 53 75 97
0.087241 -0.322451 2.255070 46 72 90
0.087192 -0.320597 2.253812 42 68 85
0.087014 -0.318270 2.249199 39 65 81
0.086967 -0.316429 2.247989 37 62 77
0.086704 -0.313809 2.241203 36 59 74
0.086963 -0.313075 2.247885 34 57 71
0.087471 -0.313225 2.261022 36 58 70
0.087376 -0.311206 2.258552 34 56 67
0.087537 -0.310099 2.262721 20 40 51
0.087520 -0.308359 2.262282 13 33 42
0.086922 -0.304582 2.246816 19 38 47
0.087128 -0.303632 2.252148 27 47 55
0.086658 -0.300331 2.240006 27 47 55
0.086029 -0.296499 2.223746 27 47 55
0.085946 -0.294563 2.221601 28 48 56
0.085933 -0.292869 2.221264 22 42 53
0.085926 -0.291195 2.221082 25 46 64
0.085966 -0.289681 2.222128 26 48 68
0.085924 -0.287890 2.221039 25 50 67
0.086036 -0.286612 2.223925 21 46 60
0.086262 -0.285708 2.229765 13 39 51
0.085848 -0.282690 2.219073 8 35 45
0.085843 -0.281024 2.218934 8 32 41
0.086073 -0.280126 2.224891 12 32 41
0.086168 -0.278780 2.227338 12 27 37
0.086358 -0.277737 2.232253 13 24 36
0.086607 -0.276874 2.238679 15 23 36
0.086306 -0.274255 2.230906 17 22 35
0.086415 -0.272944 2.233735 15 21 34
0.086146 -0.270440 2.226776 14 22 33
0.086205 -0.268968 2.228285 12 22 32
0.086417 -0.267970 2.233768 11 22 32
0.086301 -0.265955 2.230778 17 29 38
0.086714 -0.265562 2.241447 20 31 40
0.086381 -0.262884 2.232844 26 36 44
0.086364 -0.261175 2.232411 40 47 55
0.086416 -0.259673 2.233754 56 62 68
0.086334 -0.257768 2.231625 79 84 89
0.086466 -0.256503 2.235051 106 110 115
0.086282 -0.254300 2.230288 123 127 132
0.086247 -0.252540 2.229374 126 131 136
0.086330 -0.251126 2.231519 126 132 138
0.085825 -0.248010 2.218478 128 136 144
0.085332 -0.244947 2.205731 130 140 149
0.085308 -0.243240 2.205109 124 136 147
0.085408 -0.241884 2.207681 109 124 136
0.085987 -0.241874 2.222661 100 116 129
0.085958 -0.240143 2.221915 105 120 132
0.085529 -0.237302 2.210828 111 122 130
0.085785 -0.236366 2.217446 111 117 122
0.085559 -0.234098 2.211584 113 116 120
0.085435 -0.232118 2.208379 94 97 103
0.085383 -0.230340 2.207058 66 69 77
0.085216 -0.228253 2.202731 61 64 75
0.085309 -0.226864 2.205135 91 95 108
0.085386 -0.225430 2.207130 136 142 158
0.085477 -0.224028 2.209471 168 175 193
0.085258 -0.221818 2.203827 182 190 210
0.085098 -0.219767 2.199678 182 192 213
0.085052 -0.218015 2.198493 183 194 215
0.085130 -0.216580 2.200501 183 195 218
0.085317 -0.215419 2.205342 184 196 218
0.085453 -0.214120 2.208847 183 195 218
0.085360 -0.212249 2.206449 182 194 216
0.085455 -0.210844 2.208900 180 190 208
0.085426 -0.209133 2.208153 171 179 191
0.085317 -0.207228 2.205342 171 178 188
0.085200 -0.205308 2.202314 170 176 186
0.085255 -0.203804 2.203738 169 173 184
0.085113 -0.201831 2.200076 168 170 181
0.085089 -0.200139 2.199438 167 167 179
0.085160 -0.198673 2.201294 166 166 178
0.085130 -0.196967 2.200506 164 164 176
0.085120 -0.195309 2.200245 159 161 173
0.085217 -0.193895 2.202746 157 161 172
0.085221 -0.192269 2.202856 156 160 169
0.085200 -0.190586 2.202314 155 159 168
0.085049 -0.188616 2.198425 153 158 164
0.085123 -0.187145 2.200325 152 157 161
0.085172 -0.185618 2.201602 151 157 159
0.085294 -0.184245 2.204736 150 156 158
0.085273 -0.182563 2.204206 148 157 158
0.085326 -0.181039 2.205583 148 156 158
0.085373 -0.179498 2.206779 149 156 158
0.085224 -0.177549 2.202929 150 156 158
0.085018 -0.175488 2.197608 150 156 158
0.084962 -0.173742 2.196177 150 155 158
0.085051 -0.172291 2.198478 150 155 158
0.085001 -0.170558 2.197185 150 155 158
0.084996 -0.168915 2.197045 150 155 158
0.084892 -0.167078 2.194347 150 155 158
0.085150 -0.165951 2.201019 151 155 158
0.085160 -0.164336 2.201289 150 154 158
0.085065 -0.162520 2.198840 150 154 158
0.085262 -0.161258 2.203913 151 154 158
0.085131 -0.159376 2.200523 151 154 158
0.085207 -0.157883 2.202506 151 154 158
0.085184 -0.156205 2.201911 150 153 160
0.084933 -0.154114 2.195423 150 153 160
0.084893 -0.152410 2.194370 150 153 160
0.084840 -0.150687 2.193006 150 153 160
0.084734 -0.148873 2.190284 150 154 160
0.084453 -0.146756 2.182996 151 154 160
0.084814 -0.145755 2.192337 151 154 160
0.085226 -0.144827 2.202986 151 154 160
0.085034 -0.142869 2.198030 150 154 160
0.085144 -0.141418 2.200863 149 153 158
0.084883 -0.139355 2.194119 148 152 156
0.084810 -0.137607 2.192239 147 151 155
0.084856 -0.136053 2.193437 145 150 152
0.084657 -0.134109 2.188291 144 149 150
0.085116 -0.133202 2.200156 143 148 149
0.084889 -0.131216 2.194279 142 147 146
0.085215 -0.130084 2.202704 141 145 143
0.085130 -0.128320 2.200514 139 144 140
0.085044 -0.126557 2.198289 137 142 137
0.084911 -0.124729 2.194851 136 141 136
0.084518 -0.122529 2.184698 134 139 135
0.085343 -0.122086 2.206002 133 138 132
0.085509 -0.120681 2.210292 131 136 129
0.085456 -0.118966 2.208932 129 135 127
0.085294 -0.117103 2.204736 127 132 124
0.085392 -0.115598 2.207274 121 127 116
0.085072 -0.113532 2.199020 118 124 113
0.085101 -0.111936 2.199751 120 126 114
0.085138 -0.110350 2.200702 119 125 112
0.084772 -0.108248 2.191241 113 119 106
0.084947 -0.106841 2.195767 107 113 100
0.084889 -0.105138 2.194279 108 112 98
0.084697 -0.103275 2.189327 104 106 92
0.085294 -0.102364 2.204736 94 96 82
0.085704 -0.101211 2.215336 82 84 71
0.085032 -0.098785 2.197968 72 75 63
0.084734 -0.096813 2.190284 60 64 53
