ply
format ascii 1.0
element vertex 1337
property float x
property float y
property float z
property uchar red
property uchar green
property uchar blue
end_header
0.150675 0.124267 1.912212 0 6 16
0.150294 0.128204 1.907384 0 7 17
0.149982 0.129351 1.903416 0 7 17
0.150123 0.130888 1.905210 0 7 17
0.150531 0.132663 1.910392 0 7 17
0.150294 0.133871 1.907384 0 7 15
0.150113 0.135124 1.905083 0 9 15
0.149372 0.135866 1.895683 1 11 14
0.149393 0.137293 1.895949 1 12 15
0.149227 0.138547 1.893837 1 12 16
0.149426 0.140140 1.896366 2 13 17
0.149548 0.141665 1.897918 2 13 17
0.149255 0.142794 1.894193 2 13 17
0.149520 0.144457 1.897558 1 12 18
0.149730 0.146070 1.900216 1 12 18
0.149897 0.147647 1.902338 1 12 18
0.149390 0.148556 1.895911 1 11 18
0.150064 0.150641 1.904465 1 11 20
0.150038 0.152029 1.904135 1 11 20
0.149948 0.153352 1.902995 1 11 20
0.150617 0.155455 1.911478 1 11 20
0.151186 0.157467 1.918696 1 11 20
0.150648 0.158327 1.911867 1 11 20
0.150718 0.159822 1.912766 1 11 20
0.150500 0.161009 1.909992 1 12 20
0.149729 0.165830 1.900209 1 12 18
0.147976 0.165284 1.877966 1 12 16
0.148984 0.167814 1.890758 1 12 16
0.148984 0.169218 1.890758 0 9 14
0.150073 0.171869 1.904575 0 9 13
0.150057 0.173266 1.904373 0 9 11
0.150501 0.175197 1.910007 0 8 11
0.150439 0.176542 1.909214 0 6 10
0.150249 0.177737 1.906814 0 6 10
0.149607 0.178387 1.898658 1 6 9
0.149724 0.179938 1.900145 0 5 8
0.149553 0.181142 1.897975 0 2 3
0.149544 0.182540 1.897856 0 1 3
0.149271 0.183615 1.894397 0 1 4
0.151043 0.191490 1.916889 0 2 4
0.151222 0.193142 1.919156 1 2 3
0.150729 0.193933 1.912899 1 3 1
0.150343 0.194854 1.908003 1 3 1
0.150191 0.196073 1.906071 1 3 0
0.150482 0.197872 1.909770 0 2 0
0.150805 0.201140 1.913870 5 7 4
0.148285 0.199176 1.881883 21 23 19
0.141321 0.192485 1.793497 71 74 63
0.140462 0.192640 1.782600 100 102 85
0.140115 0.193484 1.778192 112 115 94
0.140130 0.194826 1.778383 118 121 101
0.139884 0.195803 1.775263 117 120 100
0.139661 0.196807 1.772431 113 116 95
0.139259 0.197553 1.767328 112 116 95
0.154534 0.223593 1.961186 100 105 81
0.153017 0.222840 1.941931 78 85 58
0.153216 0.224575 1.944463 50 59 30
0.196787 -0.563266 2.474100 191 184 182
0.282335 -0.800222 3.549651 192 184 182
0.282572 -0.798254 3.552631 192 184 182
0.283866 -0.799258 3.568893 192 184 182
0.284404 -0.798117 3.575658 192 184 182
0.283325 -0.792445 3.562099 192 184 182
0.390711 -1.089148 4.912206 192 184 182
0.179013 -0.497346 2.250638 192 184 182
0.147718 -0.407642 1.857186 192 184 182
0.334895 -0.921046 4.210462 192 184 182
1.044919 -2.844515 13.137216 192 184 182
1.032236 -2.800350 12.977762 192 184 182
0.265361 -0.709986 3.336249 192 184 182
0.265816 -0.703756 3.341970 192 184 182
0.222316 -0.563674 2.795058 191 183 181
0.222162 -0.561208 2.793120 191 183 181
0.221604 -0.557730 2.786108 191 183 181
0.222301 -0.557408 2.794868 191 183 181
0.222731 -0.556408 2.800286 191 183 181
0.222864 -0.554659 2.801957 191 183 181
0.142514 -0.352024 1.791758 191 183 181
0.223566 -0.550141 2.810772 191 183 181
0.224337 -0.547848 2.820465 190 182 180
0.227107 -0.552494 2.855300 190 182 180
0.151640 -0.356157 1.906490 190 182 180
0.151801 -0.355117 1.908514 190 182 180
0.152123 -0.350189 1.912567 190 182 180
0.249139 -0.552580 3.132296 190 182 180
0.250993 -0.547317 3.155603 189 181 178
0.253047 -0.547069 3.181424 189 181 178
0.253064 -0.544744 3.181644 188 180 177
0.253278 -0.542839 3.184332 187 179 176
0.253551 -0.541056 3.187767 187 179 176
0.253375 -0.538314 3.185548 188 180 177
0.253423 -0.536050 3.186155 189 181 178
0.254339 -0.535612 3.197671 189 181 178
0.254525 -0.533626 3.200007 189 181 178
0.255461 -0.533203 3.211774 189 181 178
0.254660 -0.529154 3.201710 189 181 178
0.253167 -0.523686 3.182930 189 181 178
0.252498 -0.519946 3.174530 189 181 178
0.251468 -0.515476 3.161574 189 181 178
0.201985 -0.395179 2.539445 191 183 181
0.201663 -0.392667 2.535401 191 183 181
0.201741 -0.390936 2.536389 191 183 181
0.254166 -0.478283 3.195494 192 184 181
0.183018 -0.337563 2.300991 191 183 180
0.183438 -0.336624 2.306267 191 183 180
0.183607 -0.335220 2.308396 191 183 180
0.183466 -0.333249 2.306626 194 185 184
0.183057 -0.330796 2.301477 190 180 180
0.182911 -0.320284 2.299648 145 151 158
0.181503 -0.312733 2.281940 17 28 39
0.181268 -0.310635 2.278984 25 38 52
0.181383 -0.309138 2.280427 40 56 73
0.182696 -0.307964 2.296935 48 70 91
0.181589 -0.304404 2.283028 62 88 111
0.181139 -0.295191 2.277366 9 30 57
0.173455 -0.263230 2.180753 1 12 18
0.169645 -0.252697 2.132861 0 6 18
0.169752 -0.251270 2.134198 0 8 22
0.170835 -0.251279 2.147822 9 24 38
0.171220 -0.250245 2.152654 30 50 64
0.172931 -0.251131 2.174165 39 63 78
0.174269 -0.251447 2.190988 31 57 73
0.175004 -0.250873 2.200230 30 57 74
0.174518 -0.248547 2.194119 28 55 72
0.174771 -0.247275 2.197300 25 52 67
0.174771 -0.245644 2.197310 28 54 69
0.173738 -0.242569 2.184318 22 46 60
0.172953 -0.239858 2.174446 7 22 36
0.173279 -0.238692 2.178550 0 8 22
0.174342 -0.238528 2.191916 4 15 29
0.173132 -0.235255 2.176694 10 24 36
0.173810 -0.234553 2.185219 11 25 35
0.173140 -0.232032 2.176795 12 26 35
0.171422 -0.228130 2.155205 8 21 30
0.170936 -0.225887 2.149092 2 13 21
0.171097 -0.224502 2.151114 0 6 15
0.171958 -0.224026 2.161940 0 7 16
0.172624 -0.223282 2.170316 0 9 18
0.173155 -0.222350 2.176981 2 10 19
0.172080 -0.219363 2.163465 0 5 15
0.172745 -0.218598 2.171829 0 5 15
0.173277 -0.217653 2.178517 0 4 15
0.173404 -0.216193 2.180111 0 3 12
0.173240 -0.214371 2.178055 0 3 10
0.172703 -0.212094 2.171306 0 2 7
0.172741 -0.207301 2.171784 0 1 6
0.169928 -0.202339 2.136420 0 1 6
0.172168 -0.203398 2.164579 0 1 6
0.172637 -0.202339 2.170469 0 1 6
0.172962 -0.201105 2.174557 0 1 6
0.172294 -0.198720 2.166162 0 1 6
0.171890 -0.196648 2.161081 0 1 6
0.171295 -0.194369 2.153607 0 1 6
0.171056 -0.192499 2.150595 0 1 6
0.170970 -0.190806 2.149513 0 1 6
0.169953 -0.188084 2.136729 0 1 6
0.170813 -0.187441 2.147540 0 1 6
0.171080 -0.186136 2.150895 0 1 6
0.171092 -0.184551 2.151048 0 1 6
0.171224 -0.183095 2.152704 0 1 6
0.171059 -0.181321 2.150634 0 1 6
0.170949 -0.179608 2.149256 0 1 6
0.170022 -0.177047 2.137602 0 1 6
0.169655 -0.175080 2.132981 0 0 8
0.170487 -0.174347 2.143448 0 0 8
0.170218 -0.172482 2.140058 0 0 8
0.171509 -0.172188 2.156293 0 0 8
0.171580 -0.170658 2.157188 0 1 6
0.171884 -0.169355 2.161008 0 1 6
0.169920 -0.161072 2.136311 0 1 3
0.169980 -0.159542 2.137072 0 1 3
0.172990 -0.160751 2.174908 0 1 3
0.173319 -0.159439 2.179054 0 1 3
0.174001 -0.158442 2.187628 0 1 4
0.173455 -0.156324 2.180753 0 0 2
0.173488 -0.154734 2.181172 0 0 2
0.173036 -0.152715 2.175495 0 0 3
0.172665 -0.150775 2.170830 0 0 4
0.172181 -0.148744 2.164741 0 0 4
0.168959 -0.142805 2.124231 0 0 4
0.172925 -0.141312 2.174089 0 0 4
0.172477 -0.139336 2.168463 1 0 5
0.173109 -0.138230 2.176413 1 0 5
0.172969 -0.133273 2.174653 1 0 5
0.171404 -0.130466 2.154968 1 0 5
0.171046 -0.125402 2.150474 0 2 11
0.167620 -0.121325 2.107398 6 13 22
0.166721 -0.119117 2.096090 13 25 32
0.171465 -0.116102 2.155740 3 26 33
0.171423 -0.114472 2.155215 3 24 32
0.173686 -0.114361 2.183657 3 21 30
0.173721 -0.112762 2.184097 1 18 26
0.173078 -0.110729 2.176019 0 15 21
0.171320 -0.108004 2.153916 0 12 17
0.171728 -0.106658 2.159045 0 9 15
0.170357 -0.104215 2.141813 0 7 13
0.170912 -0.102959 2.148791 0 6 12
0.170586 -0.101169 2.144688 0 8 13
0.171524 -0.100124 2.156480 0 9 15
0.171346 -0.098420 2.154245 0 11 18
0.170853 -0.096541 2.148041 0 14 21
0.169499 -0.094193 2.131021 1 18 26
0.169836 -0.092794 2.135253 3 21 31
0.172379 -0.092574 2.167229 5 25 35
0.169932 -0.089673 2.136468 7 29 41
0.169442 -0.087832 2.130308 8 30 43
0.168684 -0.085864 2.120774 9 31 45
0.169581 -0.084737 2.132051 10 32 46
0.170786 -0.083744 2.147197 11 33 47
0.170416 -0.081971 2.142550 10 32 46
0.170819 -0.080570 2.147623 8 30 44
0.173088 -0.080024 2.176147 7 29 43
0.174126 -0.078878 2.189196 10 32 46
0.174722 -0.077516 2.196683 8 27 40
0.173728 -0.075453 2.184191 2 17 30
0.173197 -0.073605 2.177518 0 10 22
0.172953 -0.071886 2.174446 0 4 16
0.173104 -0.070332 2.176345 0 2 13
0.171711 -0.068163 2.158836 0 2 11
0.170698 -0.066166 2.146096 0 2 9
0.170900 -0.064649 2.148636 0 3 10
0.170157 -0.062779 2.139290 0 3 10
0.173580 -0.060800 2.182336 0 0 10
0.175252 -0.053202 2.203351 2 13 19
0.175776 -0.051720 2.209936 1 12 18
0.172251 -0.049074 2.165617 0 9 16
0.171155 -0.047164 2.151847 0 7 14
0.170246 -0.045324 2.140419 0 5 13
0.171445 -0.044042 2.155487 0 4 13
0.170761 -0.042271 2.146891 0 3 15
0.171097 -0.040757 2.151114 1 4 16
0.170094 -0.038929 2.138505 0 4 15
0.169070 -0.035537 2.125623 0 4 15
0.168792 -0.033903 2.122134 0 3 12
0.167600 -0.032098 2.107152 0 3 10
0.166049 -0.030250 2.087647 0 3 8
0.175362 -0.020484 2.204736 0 1 6
0.173671 -0.018664 2.183468 0 1 6
0.171540 -0.016833 2.156686 0 1 6
0.166323 -0.010109 2.091086 0 4 11
0.165795 -0.008528 2.084455 0 4 11
0.162489 -0.006841 2.042885 0 5 11
0.162872 -0.005336 2.047702 0 6 12
0.162977 -0.003818 2.049020 0 6 12
0.166075 -0.002339 2.087977 0 7 13
0.166669 -0.000791 2.095440 1 5 12
0.162196 0.006803 2.039206 0 6 12
0.165945 0.017808 2.086344 0 9 14
0.166140 0.019381 2.088793 0 9 14
0.166128 0.020931 2.088636 0 9 14
0.167194 0.022626 2.102048 0 9 14
0.166228 0.024048 2.089893 0 9 16
0.165423 0.025476 2.079772 1 9 18
0.163727 0.026744 2.058451 0 8 17
0.163693 0.028267 2.058022 0 8 17
0.164101 0.029870 2.063155 0 7 15
0.165684 0.031705 2.083059 0 6 14
0.165547 0.033225 2.081339 0 6 15
0.164291 0.034507 2.065541 0 5 15
0.163624 0.035895 2.057162 0 3 14
0.165242 0.037793 2.077507 0 2 13
0.161290 0.039902 2.027818 0 2 9
0.164305 0.042182 2.065723 0 2 7
0.160154 0.051586 2.013538 1 0 3
0.158382 0.053973 1.991250 0 1 3
0.158797 0.055597 1.996469 0 0 3
0.159038 0.057167 1.999503 1 0 2
0.157753 0.058178 1.983349 1 1 3
0.157747 0.059649 1.983266 2 1 2
0.157642 0.061081 1.981953 2 2 2
0.156715 0.062186 1.970299 1 1 1
0.155161 0.063018 1.950762 0 1 0
0.154969 0.064387 1.948342 0 1 0
0.154719 0.065728 1.945202 0 3 0
0.155113 0.067344 1.950160 0 3 0
0.154665 0.068594 1.944525 0 2 0
0.155121 0.070245 1.950254 0 2 0
0.155414 0.073280 1.953939 0 0 0
0.154978 0.074522 1.948459 0 0 0
0.152027 0.077362 1.911359 0 0 0
0.154411 0.081459 1.941325 1 1 3
0.151580 0.082796 1.905735 1 0 5
0.150863 0.083813 1.896720 1 0 5
0.152001 0.088704 1.911034 0 1 3
0.152742 0.090563 1.920339 0 3 4
0.152312 0.091730 1.914935 0 4 4
0.152638 0.093352 1.919037 0 3 5
0.152997 0.095000 1.923552 0 3 7
0.152211 0.095933 1.913665 0 3 8
0.152145 0.097313 1.912841 0 2 10
0.152466 0.100366 1.916871 0 2 11
0.152865 0.102056 1.921886 0 4 13
0.153896 0.104182 1.934857 0 5 13
0.154169 0.108685 1.938287 0 5 13
0.153640 0.109747 1.931630 0 5 13
0.152805 0.110577 1.921133 0 5 15
0.152292 0.111628 1.914684 0 6 15
0.151929 0.114200 1.910123 0 9 18
0.152165 0.115799 1.913096 0 9 18
0.151971 0.117070 1.910654 0 9 18
0.151932 0.118459 1.910158 0 8 18
0.152211 0.120097 1.913665 0 8 18
0.152235 0.121538 1.913966 0 8 18
0.152223 0.122950 1.913821 0 8 17
0.152062 0.124240 1.911793 1 9 18
0.152912 0.126363 1.922487 1 10 19
0.152009 0.128456 1.911133 1 10 19
0.151640 0.129560 1.906490 1 10 19
0.151568 0.130914 1.905584 0 10 19
0.151853 0.132578 1.909173 0 9 18
0.151839 0.133984 1.908992 0 10 17
0.150852 0.134521 1.896578 0 11 16
0.150515 0.135627 1.892351 0 12 15
0.150426 0.136951 1.891227 0 12 15
0.150341 0.138278 1.890163 1 13 17
0.150802 0.140110 1.895956 1 13 17
0.150738 0.141458 1.895145 1 13 16
0.150483 0.142624 1.891947 1 12 17
0.150788 0.144321 1.895772 1 12 18
0.151407 0.146328 1.903564 0 11 17
0.150792 0.147142 1.895832 1 12 18
0.150724 0.148482 1.894969 1 11 18
0.151178 0.150341 1.900676 1 11 20
0.151075 0.151650 1.899383 1 11 20
0.151371 0.153361 1.903110 1 11 20
0.151404 0.154808 1.903527 1 11 20
0.152025 0.156863 1.911335 1 11 20
0.152827 0.159117 1.921409 1 11 20
0.152738 0.160451 1.920299 1 11 19
0.151488 0.160552 1.904575 1 12 18
0.152032 0.162548 1.911413 1 12 18
0.152084 0.164024 1.912069 1 12 18
0.151406 0.164707 1.903542 1 12 18
0.150043 0.164626 1.886413 1 12 17
0.150046 0.166030 1.886445 1 12 16
0.150159 0.167558 1.887870 1 11 15
0.150214 0.169022 1.888560 0 8 13
0.150577 0.170836 1.893121 0 8 13
0.151453 0.173244 1.904135 0 8 11
0.150712 0.175211 1.894819 1 6 10
0.150334 0.176176 1.890072 1 6 9
0.150422 0.177684 1.891182 1 6 9
0.150237 0.180271 1.888849 0 2 3
0.150192 0.181620 1.888284 0 1 3
0.150067 0.182870 1.886714 0 1 5
0.151488 0.191675 1.904575 1 2 3
0.150955 0.192411 1.897881 0 1 0
0.150652 0.193431 1.894065 0 1 0
0.150644 0.194827 1.893964 0 2 0
0.142295 0.192003 1.789006 17 19 10
0.141684 0.192501 1.781315 40 43 28
0.141313 0.193317 1.776657 73 76 59
0.141350 0.194687 1.777115 106 109 92
0.141256 0.195877 1.775938 126 129 112
0.141291 0.197245 1.776378 131 134 116
0.140853 0.197949 1.770872 127 131 111
0.140098 0.198197 1.761382 124 129 109
0.140590 0.200206 1.767569 121 126 104
0.154856 0.221967 1.946923 115 120 98
0.198932 -0.564136 2.477922 191 185 182
0.285238 -0.800968 3.552962 192 184 182
0.285211 -0.798254 3.552631 192 184 182
0.286526 -0.799284 3.569010 192 184 182
0.287050 -0.798090 3.575538 192 184 182
0.286004 -0.792535 3.562505 192 184 182
0.393734 -1.087419 4.904406 192 184 182
0.337523 -0.919684 4.204236 192 184 182
1.042679 -2.802510 12.987771 192 184 182
0.264799 -0.694576 3.298376 192 184 182
0.262970 -0.684913 3.275594 192 184 182
0.263541 -0.683963 3.282713 192 184 182
0.223497 -0.559360 2.783918 190 182 180
0.223336 -0.556890 2.781911 190 182 180
0.223427 -0.555048 2.783037 190 182 180
0.223505 -0.553176 2.784017 190 182 180
0.223649 -0.551462 2.785806 190 182 180
0.143841 -0.352013 1.791701 190 182 180
0.223941 -0.545965 2.789439 190 182 180
0.225221 -0.544919 2.805387 190 182 180
0.222024 -0.522805 2.765567 190 182 180
0.153252 -0.349522 1.908925 190 182 180
0.255720 -0.547734 3.185290 190 182 179
0.255490 -0.544876 3.182420 190 182 179
0.255248 -0.542000 3.179411 190 182 179
0.255657 -0.540503 3.184504 190 182 179
0.255347 -0.537483 3.180635 190 182 179
0.255703 -0.535867 3.185071 190 182 179
0.255892 -0.533896 3.187428 190 182 179
0.255897 -0.531540 3.187495 190 182 179
0.256244 -0.529889 3.191812 190 182 179
0.255956 -0.526925 3.188222 190 182 179
0.254915 -0.522424 3.175258 190 182 179
0.254660 -0.519545 3.172080 190 182 179
0.253823 -0.515489 3.161655 190 182 179
0.252443 -0.510351 3.144467 190 182 179
0.253171 -0.509480 3.153534 190 182 179
0.253493 -0.507784 3.157552 190 182 179
0.251215 -0.493923 3.129174 190 182 179
0.203947 -0.395326 2.540389 190 182 180
0.203498 -0.392574 2.534801 190 182 180
0.203505 -0.390704 2.534883 190 182 180
0.203875 -0.389528 2.539495 190 182 180
0.185357 -0.336999 2.308839 189 181 178
0.185392 -0.335347 2.309271 188 180 178
0.185213 -0.333309 2.307042 190 181 181
0.174595 -0.262510 2.174788 4 16 22
0.174343 -0.260518 2.171642 0 8 17
0.171240 -0.251128 2.132996 0 6 20
0.173564 -0.251325 2.161940 29 47 62
0.174668 -0.251307 2.175688 42 64 79
0.176212 -0.251898 2.194925 29 54 70
0.176886 -0.251226 2.203322 22 48 64
0.175801 -0.246431 2.189805 24 49 65
0.176171 -0.245320 2.194417 20 42 57
0.175027 -0.242107 2.180160 19 38 52
0.174739 -0.240092 2.176575 9 25 39
0.174972 -0.238794 2.179483 0 9 21
0.175499 -0.237890 2.186046 0 8 19
0.175339 -0.236049 2.184043 1 14 22
0.174735 -0.233621 2.176532 0 12 19
0.174694 -0.231950 2.176019 0 12 19
0.173278 -0.228466 2.158380 0 12 19
0.172872 -0.226331 2.153315 0 12 18
0.173626 -0.225713 2.162718 0 11 17
0.175141 -0.224441 2.181582 1 10 19
0.175329 -0.223059 2.183921 1 9 19
0.175040 -0.221073 2.180329 1 7 19
0.174976 -0.219373 2.179530 1 6 18
0.174740 -0.217460 2.176592 1 5 16
0.175194 -0.216404 2.182247 0 4 14
0.174943 -0.214475 2.179115 0 2 11
0.175147 -0.213106 2.181662 0 2 8
0.174333 -0.208889 2.171517 0 1 5
0.174568 -0.207555 2.174446 0 0 6
0.174770 -0.206179 2.176965 0 0 6
0.174104 -0.203782 2.168669 0 0 6
0.173528 -0.201502 2.161485 0 0 6
0.174253 -0.200732 2.170522 0 0 6
0.173840 -0.198648 2.165381 0 0 6
0.173352 -0.196486 2.159299 0 1 6
0.173269 -0.194789 2.158262 0 1 6
0.173017 -0.192905 2.155127 0 1 6
0.172717 -0.190973 2.151394 0 1 6
0.172501 -0.189138 2.148699 0 1 6
0.172387 -0.187417 2.147274 0 1 6
0.172607 -0.186060 2.150016 0 1 6
0.172670 -0.184531 2.150807 0 1 6
0.172720 -0.182986 2.151432 0 1 6
0.172705 -0.181372 2.151242 0 1 6
0.172556 -0.179619 2.149379 0 1 6
0.171947 -0.177394 2.141793 0 0 6
0.171654 -0.175504 2.138147 0 0 8
0.171563 -0.173823 2.137012 0 0 8
0.172264 -0.172940 2.145742 0 0 8
0.172819 -0.171898 2.152654 0 0 7
0.173130 -0.170606 2.156534 0 1 6
0.175991 -0.171797 2.192174 0 1 5
0.175908 -0.170088 2.191139 0 1 5
0.174617 -0.167224 2.175051 0 1 3
0.173731 -0.158339 2.164014 0 1 3
0.174288 -0.157234 2.170958 0 1 3
0.173877 -0.155254 2.165833 0 0 2
0.174388 -0.154097 2.172202 0 0 2
0.174453 -0.152541 2.173018 0 0 2
0.174249 -0.150750 2.170469 0 0 2
0.173174 -0.148218 2.157076 0 0 2
0.174343 -0.141153 2.171642 0 0 3
0.173393 -0.138780 2.159805 1 0 4
0.171540 -0.129362 2.136729 0 0 5
0.171295 -0.127592 2.133672 0 0 8
0.171305 -0.124429 2.133796 0 2 10
0.169845 -0.121797 2.115609 3 9 17
0.171763 -0.115227 2.139504 3 26 31
0.172592 -0.114187 2.149833 3 24 30
0.175201 -0.112671 2.182336 1 17 24
0.175265 -0.111090 2.183128 0 14 19
0.174428 -0.108946 2.172700 0 11 15
0.173404 -0.106702 2.159943 0 8 12
0.171690 -0.104059 2.138598 0 6 11
0.171579 -0.102404 2.137216 0 5 11
0.171445 -0.100738 2.135545 0 6 12
0.173435 -0.100302 2.160327 0 8 15
0.172137 -0.097959 2.144165 0 11 19
0.171125 -0.095800 2.131558 0 13 22
0.170101 -0.093653 2.118807 0 17 27
0.171363 -0.092762 2.134518 2 21 32
0.171164 -0.091071 2.132051 3 23 35
0.170992 -0.089398 2.129908 6 28 41
0.170341 -0.087481 2.121794 8 30 43
0.171270 -0.083204 2.133360 10 32 46
0.170409 -0.081210 2.122645 9 31 45
0.172541 -0.080629 2.149193 8 30 44
0.173663 -0.079547 2.163175 6 28 42
0.175382 -0.078712 2.184584 11 30 44
0.175931 -0.077330 2.191424 7 25 37
0.175736 -0.075619 2.188991 1 15 27
0.174482 -0.071851 2.173381 0 4 14
0.174505 -0.070245 2.173660 0 2 11
0.171807 -0.067570 2.140058 0 2 9
0.172280 -0.066162 2.145951 0 2 9
0.172583 -0.064681 2.149717 0 3 10
0.171316 -0.062622 2.133942 0 3 10
0.174253 -0.060471 2.170522 0 1 10
0.173582 -0.058632 2.162162 0 2 11
0.174096 -0.053973 2.168566 2 16 19
0.175456 -0.052772 2.185508 1 12 18
0.176541 -0.051465 2.199020 0 11 17
0.173450 -0.048959 2.160522 0 8 15
0.172448 -0.047080 2.148041 0 5 13
0.172695 -0.045550 2.151114 0 3 12
0.172832 -0.043987 2.152826 0 3 12
0.171954 -0.042173 2.141887 0 3 12
0.172583 -0.040730 2.149717 1 3 14
0.172279 -0.039065 2.145929 0 3 15
0.170434 -0.037069 2.122947 0 4 15
0.168953 -0.035184 2.104505 0 3 14
0.169975 -0.033824 2.117237 0 3 12
0.168603 -0.031991 2.100144 0 3 10
0.173870 -0.028165 2.165746 1 2 6
0.174609 -0.021823 2.174953 0 1 6
0.174581 -0.020204 2.174613 0 1 6
0.173518 -0.018475 2.161369 0 1 6
0.172651 -0.016786 2.150565 0 1 6
0.165960 -0.011529 2.067219 0 3 10
0.166658 -0.010035 2.075919 1 4 11
0.166979 -0.008510 2.079912 0 3 10
0.165952 -0.006922 2.067127 0 5 11
0.169989 -0.003945 2.117414 1 6 12
0.167738 -0.000789 2.089365 2 5 12
0.172835 0.002385 2.152864 1 5 12
0.171283 0.003949 2.133531 1 6 12
0.168658 0.014811 2.100829 0 9 14
0.168603 0.016366 2.100144 0 9 14
0.168660 0.017932 2.100849 0 9 14
0.168771 0.019506 2.102242 0 9 14
0.167309 0.020885 2.084031 0 9 14
0.168400 0.022579 2.097619 0 9 14
0.168071 0.024090 2.093517 0 8 15
0.167406 0.025543 2.085235 0 7 15
0.165984 0.026862 2.067522 0 7 15
0.165462 0.028308 2.061019 0 6 14
0.167323 0.030175 2.084207 1 6 14
0.167440 0.031745 2.085653 1 5 14
0.166394 0.033086 2.072633 0 4 13
0.164660 0.034265 2.051034 0 4 13
0.169344 0.038373 2.109369 0 2 11
0.166782 0.040879 2.077467 0 1 10
0.165750 0.042159 2.064612 0 1 9
0.168060 0.045857 2.093384 0 2 6
0.167936 0.047377 2.091836 1 2 4
0.159349 0.052326 1.984876 0 1 3
0.160497 0.054187 1.999171 0 1 1
0.160310 0.055608 1.996848 0 1 1
0.159729 0.056884 1.989605 1 1 1
0.158977 0.058087 1.980247 1 0 1
0.158425 0.059351 1.973362 2 1 0
0.158286 0.060763 1.971632 2 1 0
0.157833 0.062050 1.965994 1 1 0
0.156324 0.062903 1.947189 0 0 0
0.156321 0.064348 1.947161 0 1 0
0.156438 0.065843 1.948613 0 3 0
0.156151 0.067168 1.945046 0 2 0
0.156232 0.068648 1.946054 0 2 0
0.156750 0.070325 1.952500 0 2 0
0.157885 0.072295 1.966635 0 0 0
0.157203 0.073438 1.958145 0 0 0
0.156129 0.074380 1.944763 0 0 0
0.156061 0.075792 1.943925 0 1 0
0.155905 0.077158 1.941972 0 0 1
0.154426 0.080713 1.923552 1 2 4
0.154058 0.081946 1.918970 1 2 6
0.153336 0.082980 1.909972 0 2 6
0.153699 0.086021 1.914498 0 1 6
0.154035 0.087634 1.918688 0 1 5
0.153684 0.088857 1.914316 0 2 6
0.153664 0.090266 1.914057 0 6 8
0.153936 0.091851 1.917453 0 7 8
0.153833 0.093213 1.916171 0 7 9
0.153547 0.094460 1.912604 0 6 11
0.153696 0.095973 1.914456 0 6 13
0.153628 0.098774 1.913618 0 6 15
0.153684 0.100231 1.914306 0 6 15
0.153588 0.101590 1.913115 0 8 17
0.154563 0.103665 1.925257 0 8 16
0.156052 0.107551 1.943811 0 9 15
0.156052 0.108995 1.943811 0 9 15
0.154759 0.109524 1.927699 0 9 15
0.154124 0.110500 1.919789 0 8 17
0.154305 0.112057 1.922042 0 8 17
0.153637 0.112994 1.913729 1 11 20
0.153577 0.114371 1.912980 1 12 21
0.153583 0.115796 1.913055 1 13 21
0.153305 0.117005 1.909586 1 13 21
0.153409 0.118504 1.910888 1 12 21
0.153812 0.120238 1.915908 0 12 20
0.153767 0.121626 1.915345 0 12 20
0.154110 0.123323 1.919622 1 12 20
0.153742 0.124451 1.915040 0 12 20
0.154321 0.126347 1.922245 0 12 20
0.154351 0.127800 1.922619 1 12 20
0.153579 0.128582 1.913009 1 12 21
0.153645 0.130058 1.913821 1 12 20
0.153536 0.132807 1.912469 0 11 20
0.152585 0.133396 1.900616 0 12 19
0.152633 0.134850 1.901217 0 12 17
0.152224 0.135897 1.896122 0 13 16
0.152218 0.137300 1.896049 0 13 16
0.152010 0.138519 1.893457 0 14 17
0.152248 0.140144 1.896421 0 13 16
0.152539 0.141824 1.900049 0 13 16
0.152548 0.143244 1.900166 0 12 16
0.152731 0.144828 1.902437 0 11 17
0.152841 0.146347 1.903808 0 11 17
0.152807 0.147729 1.903393 1 12 18
0.152558 0.148899 1.900288 1 12 19
0.153157 0.150901 1.907750 1 11 20
0.153873 0.153030 1.916667 1 11 20
0.153487 0.154065 1.911854 1 11 20
0.154228 0.156236 1.921086 1 11 20
0.154904 0.158355 1.929512 1 11 20
0.154371 0.159238 1.922872 1 11 20
0.154440 0.160738 1.923725 1 12 17
0.154138 0.161850 1.919969 1 12 18
0.153704 0.162816 1.914560 1 12 17
0.153818 0.164360 1.915980 1 12 16
0.153870 0.165839 1.916625 1 12 16
0.152628 0.165913 1.901157 1 11 16
0.151468 0.166053 1.886714 1 11 16
0.152237 0.168305 1.896293 1 10 15
0.151476 0.168864 1.886803 0 8 11
0.152322 0.171217 1.897350 0 7 11
0.153343 0.173783 1.910058 1 7 10
0.151861 0.177724 1.891607 0 5 8
0.154252 0.190513 1.921391 1 2 6
0.154988 0.192855 1.930554 1 2 4
0.152886 0.191654 1.904373 1 2 3
0.152698 0.192831 1.902027 0 2 0
0.152578 0.194091 1.900535 0 2 0
0.152907 0.195925 1.904638 0 2 0
0.153751 0.199851 1.915141 2 4 0
0.153816 0.201359 1.915960 2 4 0
0.142867 0.192312 1.779567 7 9 0
0.142896 0.193674 1.779936 23 25 13
0.142513 0.194473 1.775159 55 57 44
0.142496 0.195769 1.774955 94 96 82
0.142479 0.197063 1.774738 124 126 112
0.142248 0.198060 1.771867 134 137 121
0.141789 0.198733 1.766145 128 132 115
0.142309 0.200778 1.772618 121 126 107
0.142776 0.205401 1.778445 109 118 92
0.200462 -0.563266 2.474100 191 186 183
0.288035 -0.801410 3.554921 192 184 182
0.287850 -0.798254 3.552631 192 184 182
0.289131 -0.799156 3.568439 192 184 182
0.289715 -0.798117 3.575658 192 184 182
0.288711 -0.792702 3.563257 192 184 182
0.396720 -1.085622 4.896304 192 184 182
0.340813 -0.920136 4.206301 192 184 182
1.053409 -2.805395 13.001141 192 184 182
0.265696 -0.690540 3.279209 192 184 182
0.257709 -0.646157 3.180635 190 182 180
0.155099 -0.387460 1.914227 190 182 180
0.257417 -0.640706 3.177034 190 182 180
0.225345 -0.556747 2.781196 190 182 180
0.225301 -0.554573 2.780654 190 182 180
0.225241 -0.552361 2.779914 190 182 180
0.225562 -0.551081 2.783879 190 182 180
0.145049 -0.351716 1.790190 190 182 180
0.226001 -0.545938 2.789297 190 182 180
0.145054 -0.349070 1.790256 190 182 180
0.227722 -0.545920 2.810541 190 182 180
0.223871 -0.522323 2.763012 190 182 180
0.155776 -0.357735 1.922585 190 182 180
0.155843 -0.356460 1.923410 190 182 180
0.155935 -0.355240 1.924538 190 182 180
0.154982 -0.350227 1.912777 190 182 180
0.294700 -0.660560 3.637178 190 182 180
0.260313 -0.557232 3.212769 190 182 179
0.259547 -0.553214 3.203323 190 182 179
0.258392 -0.548383 3.189067 190 182 179
0.258271 -0.545759 3.187572 190 182 179
0.258171 -0.543181 3.186342 190 182 179
0.258349 -0.541187 3.188539 190 182 179
0.258065 -0.538226 3.185029 190 182 179
0.258009 -0.535744 3.184335 190 182 179
0.258059 -0.533482 3.184957 190 182 179
0.258010 -0.531015 3.184349 190 182 179
0.258349 -0.529346 3.188539 190 182 179
0.257936 -0.526135 3.183441 190 182 179
0.257624 -0.523136 3.179584 190 182 179
0.256922 -0.519354 3.170917 190 182 179
0.256165 -0.515476 3.161574 190 182 179
0.254650 -0.510094 3.142882 190 182 179
0.253893 -0.506250 3.133537 190 182 179
0.255413 -0.506939 3.152295 190 182 179
0.254612 -0.503015 3.142413 190 182 179
0.256438 -0.504271 3.164943 190 182 179
0.205518 -0.392835 2.536490 190 182 180
0.205618 -0.391142 2.537726 190 182 180
0.205802 -0.389605 2.539997 190 182 180
0.205891 -0.387886 2.541095 190 182 180
0.135429 -0.252657 1.671455 190 182 180
0.135223 -0.247314 1.668911 190 182 179
0.186642 -0.337936 2.303534 189 181 178
0.186723 -0.336370 2.304530 188 180 177
0.186782 -0.334764 2.305261 188 180 177
0.187009 -0.333457 2.308061 190 181 181
0.186843 -0.331447 2.306003 187 176 179
0.176892 -0.276498 2.183193 61 83 107
0.176473 -0.266137 2.178025 3 20 31
0.176403 -0.264414 2.177160 7 22 30
0.176479 -0.262910 2.178095 5 16 23
0.176005 -0.260590 2.172247 0 9 17
0.176914 -0.260314 2.183468 1 10 19
0.176622 -0.253408 2.179864 26 44 58
0.176804 -0.252049 2.182110 38 60 74
0.177607 -0.251566 2.192025 26 51 66
0.178073 -0.250593 2.197771 18 43 60
0.178260 -0.249221 2.200076 21 45 63
0.177733 -0.246855 2.193573 21 43 61
0.177317 -0.244653 2.188445 20 40 56
0.178013 -0.243981 2.197034 20 38 52
0.176387 -0.240135 2.176965 12 26 38
0.176548 -0.238736 2.178948 1 12 22
0.177438 -0.238312 2.189932 2 11 20
0.177176 -0.236337 2.186700 3 14 21
0.175331 -0.232268 2.163929 0 12 17
0.176000 -0.231541 2.172183 0 12 16
0.174960 -0.228569 2.159353 0 12 16
0.174212 -0.225995 2.150122 0 12 18
0.174492 -0.224759 2.153579 1 12 18
0.176320 -0.225496 2.176132 1 11 18
0.175373 -0.222678 2.164447 2 11 20
0.176831 -0.222908 2.182440 2 9 20
0.176975 -0.221468 2.184223 1 7 19
0.176856 -0.219697 2.182753 1 6 18
0.176365 -0.217471 2.176694 1 5 15
0.176443 -0.215949 2.177654 0 3 12
0.176502 -0.214403 2.178384 0 2 9
0.176408 -0.212671 2.177218 0 2 8
0.176175 -0.210775 2.174343 0 1 6
0.175278 -0.208096 2.163273 0 1 5
0.175272 -0.206482 2.163204 0 0 6
0.176000 -0.205726 2.172188 1 0 6
0.175700 -0.203765 2.168488 1 0 6
0.175106 -0.201470 2.161147 1 0 6
0.175278 -0.200062 2.163273 1 0 6
0.175092 -0.198244 2.160976 0 0 6
0.174956 -0.196486 2.159299 0 1 6
0.174766 -0.194671 2.156955 0 1 6
0.174260 -0.192510 2.150709 0 1 6
0.174483 -0.191156 2.153459 0 1 6
0.174003 -0.189036 2.147537 0 1 6
0.173930 -0.187362 2.146636 0 1 6
0.173801 -0.185629 2.145041 0 1 6
0.173800 -0.184035 2.145030 0 1 6
0.174051 -0.182706 2.148131 0 1 6
0.173937 -0.180992 2.146727 0 1 6
0.174079 -0.179544 2.148483 0 1 6
0.173644 -0.177503 2.143111 0 0 6
0.173602 -0.175868 2.142584 0 0 8
0.173172 -0.173845 2.137282 0 0 8
0.173389 -0.172473 2.139958 0 0 8
0.174635 -0.172112 2.155342 0 0 7
0.177739 -0.171912 2.193647 0 1 5
0.176081 -0.168695 2.173189 0 1 3
0.174705 -0.165775 2.156201 0 1 2
0.176525 -0.161028 2.178659 0 1 1
0.176237 -0.159151 2.175115 0 1 2
0.175746 -0.157096 2.169055 0 1 3
0.175990 -0.155701 2.172062 0 0 2
0.176200 -0.154271 2.174653 0 0 2
0.176110 -0.152578 2.173544 0 0 2
0.176239 -0.151074 2.175134 0 0 2
0.176106 -0.149346 2.173498 0 0 2
0.176525 -0.144846 2.178666 0 0 2
0.176193 -0.141343 2.174562 1 1 3
0.172905 -0.137121 2.133988 1 0 4
0.170822 -0.124508 2.108284 0 0 8
0.170735 -0.121313 2.107205 0 5 12
0.176411 -0.122112 2.177257 15 32 38
0.172486 -0.113070 2.128816 2 24 29
0.175390 -0.111759 2.164663 1 16 22
0.176576 -0.110895 2.179295 0 12 17
0.176377 -0.109154 2.176841 0 9 12
0.175812 -0.107192 2.169870 0 6 9
0.172656 -0.103685 2.130918 0 4 6
0.172748 -0.102157 2.132051 0 4 9
0.174379 -0.099924 2.152176 0 8 15
0.172410 -0.097215 2.127882 0 11 19
0.171517 -0.095139 2.116855 0 14 22
0.172000 -0.093830 2.122815 0 17 27
0.173055 -0.092820 2.135836 0 20 31
0.171638 -0.090486 2.118351 0 21 34
0.172371 -0.089292 2.127393 4 26 40
0.173831 -0.085268 2.145414 9 31 45
0.173857 -0.082094 2.145742 9 31 45
0.173430 -0.080302 2.140463 7 30 44
0.174964 -0.079408 2.159400 7 29 43
0.176894 -0.078662 2.183216 7 26 40
0.176635 -0.076928 2.180017 3 19 32
0.177608 -0.075724 2.192036 0 11 23
0.176627 -0.073686 2.179929 0 5 16
0.175376 -0.071557 2.164486 0 3 14
0.175987 -0.070193 2.172030 0 2 11
0.172646 -0.065695 2.130792 0 2 9
0.174242 -0.064705 2.150486 0 2 9
0.173857 -0.062968 2.145742 0 2 9
0.174449 -0.061583 2.153039 0 1 10
0.174355 -0.059952 2.151884 0 0 10
0.174337 -0.058347 2.151664 0 1 9
0.178390 -0.058068 2.201678 0 5 11
0.174662 -0.053653 2.155678 0 13 17
0.175888 -0.052417 2.170802 0 11 15
0.175379 -0.050657 2.164518 0 9 14
0.176134 -0.049261 2.173841 0 7 13
0.174627 -0.047238 2.155237 0 6 12
0.174026 -0.045480 2.147822 0 4 11
0.174391 -0.043977 2.152324 0 3 11
0.173570 -0.042179 2.142199 0 1 11
0.173851 -0.040654 2.145668 0 1 11
0.172965 -0.038861 2.134734 0 0 12
0.171416 -0.036941 2.115609 0 1 13
0.169659 -0.035007 2.093925 0 2 13
0.170837 -0.033684 2.108468 0 1 12
0.171505 -0.032244 2.116703 0 1 10
0.172837 -0.030910 2.133148 0 1 8
0.173591 -0.029453 2.142452 1 2 7
0.174175 -0.027956 2.149660 1 2 6
0.174354 -0.021591 2.151865 0 1 6
0.174514 -0.020011 2.153848 0 1 6
0.174660 -0.018427 2.155650 0 1 6
0.173382 -0.016702 2.139873 0 1 6
0.166549 -0.011464 2.055540 0 2 9
0.167198 -0.009976 2.063546 0 2 9
0.168100 -0.008488 2.074685 0 2 9
0.170802 -0.005493 2.108031 0 4 10
0.170610 -0.003923 2.105659 0 4 10
0.173730 0.000783 2.144165 1 4 11
0.171834 0.003925 2.120774 1 5 11
0.171683 0.005495 2.118906 1 6 12
0.170985 0.007041 2.110295 1 6 12
0.171059 0.010180 2.111202 0 6 12
0.168624 0.014672 2.081146 0 8 13
0.168582 0.016214 2.080638 0 8 13
0.169040 0.017808 2.086290 0 8 13
0.169150 0.019370 2.087647 0 8 13
0.168760 0.020872 2.082828 0 8 13
0.168274 0.022355 2.076834 0 8 13
0.169164 0.024024 2.087820 0 7 15
0.168815 0.025522 2.083515 0 6 14
0.169375 0.028712 2.090422 0 6 13
0.169015 0.030200 2.085977 0 5 13
0.168406 0.031635 2.078459 1 4 13
0.166504 0.032805 2.054986 0 4 13
0.167242 0.034483 2.064096 0 3 12
0.167661 0.039180 2.069268 0 1 11
0.167105 0.040582 2.062398 1 1 9
0.164585 0.042988 2.031305 1 1 6
0.167914 0.045397 2.072392 1 2 4
0.168474 0.047093 2.079296 1 2 2
0.163842 0.051806 2.022136 0 1 1
0.160840 0.052331 1.985086 0 1 1
0.161928 0.054169 1.998507 0 1 1
0.161315 0.055443 1.990948 0 1 0
0.161659 0.057043 1.995192 1 1 0
0.161907 0.058615 1.998249 1 0 0
0.160779 0.059681 1.984330 2 0 0
0.159751 0.060764 1.971646 2 1 0
0.159782 0.062240 1.972025 2 0 0
0.157725 0.062885 1.946633 0 0 0
0.157721 0.064329 1.946583 0 0 0
0.157701 0.065767 1.946342 1 2 1
0.157484 0.067120 1.943660 0 2 0
0.158052 0.068811 1.950673 0 1 0
0.158551 0.070481 1.956827 1 1 0
0.158427 0.071879 1.955300 1 1 0
0.158590 0.073406 1.957310 0 1 0
0.156606 0.073924 1.932824 0 1 0
0.156675 0.076829 1.933681 0 1 2
0.158685 0.080724 1.958484 0 2 5
0.155003 0.081693 1.913045 1 3 7
0.155793 0.087822 1.922795 0 2 9
0.156143 0.089450 1.927107 0 3 8
0.158742 0.093850 1.959193 1 12 14
0.157150 0.095790 1.939537 1 12 18
0.158616 0.098138 1.957638 1 11 19
0.156477 0.098249 1.931233 0 10 20
0.156494 0.099694 1.931439 0 10 20
0.158671 0.105445 1.958316 0 10 20
0.157835 0.106336 1.947993 0 10 19
0.157841 0.107787 1.948062 0 10 19
0.158885 0.109956 1.960951 0 10 19
0.156348 0.112500 1.929637 0 11 20
0.155972 0.113660 1.925004 0 14 22
0.155628 0.116263 1.920761 1 16 23
0.154761 0.117034 1.910058 1 15 22
0.154656 0.118372 1.908759 1 15 22
0.154741 0.119855 1.909809 0 15 22
0.154656 0.121207 1.908759 0 15 22
0.155090 0.122970 1.914119 1 15 22
0.155135 0.124427 1.914676 0 14 22
0.155485 0.126133 1.918988 0 14 21
0.155050 0.127201 1.913618 0 14 21
0.154520 0.128183 1.907078 0 14 22
0.154331 0.129441 1.904742 0 13 21
0.154341 0.130865 1.904873 0 13 21
0.154051 0.132031 1.901292 0 13 21
0.153824 0.133247 1.898496 0 13 20
0.153835 0.134666 1.898625 0 14 19
0.153363 0.135659 1.892798 0 14 18
0.153216 0.136933 1.890980 0 14 17
0.153017 0.138159 1.888531 0 14 18
0.153096 0.139633 1.889507 0 13 17
0.153148 0.141085 1.890152 0 12 16
0.153401 0.142724 1.893269 0 12 16
0.153229 0.143969 1.891145 0 11 17
0.153223 0.145368 1.891076 0 11 17
0.153345 0.146889 1.892573 0 12 18
0.153568 0.148510 1.895326 0 11 18
0.155352 0.151660 1.917350 1 11 19
0.155251 0.152985 1.916108 1 11 19
0.155164 0.154322 1.915035 1 11 20
0.155321 0.155901 1.916961 1 11 20
0.156143 0.158157 1.927107 1 11 19
0.155212 0.158638 1.915624 0 11 19
0.155378 0.160232 1.917671 0 11 17
0.155099 0.161366 1.914227 1 12 16
0.155396 0.163099 1.917889 1 12 16
0.155216 0.164333 1.915668 1 12 16
0.155045 0.165573 1.913554 1 12 16
0.154518 0.166427 1.907057 1 11 16
0.153325 0.166548 1.892332 2 11 16
0.153449 0.168089 1.893856 1 10 15
0.153424 0.169468 1.893548 0 7 10
0.153650 0.171127 1.896347 0 7 10
0.154562 0.173559 1.907595 1 6 10
0.153591 0.179508 1.895610 0 3 6
0.156143 0.185354 1.927107 1 2 4
0.156519 0.187235 1.931750 0 1 5
0.155025 0.188291 1.913314 0 1 5
0.155746 0.192022 1.922216 0 1 3
0.153113 0.191582 1.889709 0 2 1
0.154542 0.194787 1.907347 0 2 0
0.154832 0.196572 1.910925 0 2 0
0.155148 0.199819 1.914837 3 5 0
0.154875 0.200887 1.911465 3 5 1
0.144959 0.192011 1.789075 3 5 1
0.144821 0.193156 1.787379 3 4 1
0.144638 0.194237 1.785113 0 1 0
0.144683 0.195624 1.785670 7 8 3
0.144122 0.196188 1.778755 28 29 20
0.143952 0.197276 1.776652 62 64 53
0.143572 0.198071 1.771959 99 101 89
0.143466 0.199240 1.770651 125 129 114
0.144273 0.201683 1.780613 136 140 125
0.144211 0.202919 1.779850 136 140 124
0.144029 0.203982 1.777595 126 131 112
0.144143 0.205465 1.779003 112 120 96
0.202508 -0.563846 2.476647 190 186 183
0.290746 -0.801603 3.555781 190 184 182
0.290488 -0.798254 3.552631 190 184 182
0.291864 -0.799382 3.569447 192 184 182
0.292438 -0.798299 3.576473 192 184 182
0.291448 -0.792948 3.564361 192 184 182
0.277107 -0.743863 3.388981 192 184 182
0.343491 -0.918943 4.200848 192 184 182
1.065029 -2.810575 13.025149 192 184 182
0.259491 -0.665930 3.173534 192 184 182
0.256812 -0.642725 3.140772 190 182 180
0.257265 -0.641523 3.146317 190 182 180
0.257157 -0.638917 3.144995 190 182 180
0.258461 -0.637459 3.160933 190 182 180
0.227494 -0.556950 2.782212 190 182 180
0.227254 -0.554299 2.779282 190 182 180
0.227218 -0.552148 2.778844 190 182 180
0.293435 -0.710392 3.588667 190 182 180
0.146257 -0.351423 1.788697 190 182 180
0.146105 -0.348403 1.786837 190 182 180
0.229971 -0.546303 2.812512 190 182 180
0.144877 -0.341529 1.771829 190 182 180
0.226603 -0.523893 2.771319 190 182 180
0.156730 -0.358081 1.916789 190 182 180
0.157240 -0.357817 1.923023 190 182 180
0.157466 -0.356900 1.925785 190 182 180
0.157055 -0.354542 1.920761 190 182 180
0.156492 -0.350429 1.913877 190 182 180
0.263998 -0.576774 3.228657 190 182 180
0.262867 -0.557587 3.214818 190 182 179
0.262230 -0.553855 3.207035 190 182 179
0.260888 -0.548651 3.190626 190 182 179
0.260599 -0.545676 3.187090 190 182 179
0.260583 -0.543276 3.186897 190 182 179
0.260783 -0.541322 3.189332 190 182 179
0.260328 -0.538013 3.183769 190 182 179
0.260137 -0.535256 3.181438 190 182 179
0.260117 -0.532851 3.181187 190 182 179
0.260148 -0.530552 3.181570 190 182 179
0.260244 -0.528383 3.182739 190 182 179
0.259980 -0.525487 3.179519 190 182 179
0.259759 -0.522680 3.176817 190 182 179
0.259848 -0.520498 3.177901 190 182 179
0.258353 -0.515156 3.159614 190 182 179
0.256812 -0.509751 3.140772 190 182 179
0.256245 -0.506299 3.133841 190 182 179
0.256647 -0.504762 3.138760 190 182 179
0.256192 -0.501538 3.133186 190 182 179
0.207387 -0.392807 2.536309 190 182 180
0.207394 -0.390937 2.536396 190 182 180
0.207533 -0.389313 2.538095 190 182 180
0.207492 -0.387352 2.537592 190 182 180
0.136651 -0.250139 1.671221 191 183 180
0.188171 -0.335899 2.301305 188 180 177
0.188132 -0.334121 2.300830 188 179 177
0.188558 -0.333165 2.306040 191 179 180
0.188642 -0.324745 2.307068 144 149 155
0.176206 -0.295332 2.154968 43 57 65
0.188619 -0.309284 2.306784 39 57 77
0.176367 -0.271572 2.156948 65 87 110
0.177523 -0.270126 2.171082 61 82 103
0.176395 -0.266807 2.157287 39 58 75
0.176229 -0.264955 2.155251 11 29 43
0.176542 -0.263822 2.159086 4 19 30
0.176537 -0.262211 2.159023 7 20 29
0.176953 -0.261221 2.164107 4 15 24
0.176720 -0.259272 2.161260 0 9 18
0.176769 -0.257738 2.161854 2 11 20
0.176578 -0.255856 2.159528 0 9 18
0.176559 -0.251017 2.159292 20 38 52
0.177776 -0.251133 2.174180 32 53 67
0.177947 -0.249757 2.176262 25 46 62
0.178146 -0.248419 2.178704 12 33 52
0.178804 -0.247711 2.186744 10 31 50
0.178520 -0.245696 2.183268 11 30 48
0.178527 -0.244084 2.183358 14 31 47
0.178185 -0.241998 2.179173 17 32 45
0.177218 -0.239074 2.167345 9 23 33
0.178093 -0.238638 2.178055 1 11 19
0.178187 -0.237145 2.179200 2 10 16
0.177741 -0.234936 2.173744 2 13 16
0.176455 -0.231634 2.158020 0 12 13
0.176267 -0.229785 2.155715 0 12 13
0.175528 -0.227228 2.146681 0 12 14
0.175157 -0.225156 2.142139 0 12 16
0.177405 -0.226435 2.169638 1 12 18
0.176552 -0.223742 2.159205 1 11 18
0.177723 -0.223611 2.173522 2 10 20
0.179224 -0.223872 2.191880 1 8 20
0.178711 -0.221608 2.185611 1 7 19
0.178561 -0.219800 2.183777 1 6 17
0.177970 -0.217456 2.176544 0 4 15
0.177720 -0.215536 2.173488 0 3 13
0.177199 -0.213295 2.167122 0 2 10
0.177574 -0.212133 2.171703 0 1 8
0.176998 -0.209837 2.164663 0 1 6
0.176740 -0.207925 2.161503 0 0 5
0.177198 -0.206854 2.167101 0 0 6
0.176353 -0.204266 2.156771 1 0 6
0.176124 -0.202402 2.153976 1 0 6
0.176058 -0.200726 2.153163 0 0 6
0.176311 -0.199413 2.156256 0 0 6
0.176157 -0.197638 2.154375 0 0 6
0.176351 -0.196254 2.156741 0 1 6
0.176093 -0.194368 2.153595 0 1 6
0.175926 -0.192585 2.151548 0 1 6
0.175856 -0.190911 2.150693 0 1 6
0.175437 -0.188862 2.145566 0 1 6
0.175489 -0.187324 2.146202 0 1 6
0.175264 -0.185491 2.143448 0 1 6
0.175264 -0.183899 2.143448 0 0 6
0.175854 -0.181323 2.150662 0 0 7
0.176030 -0.179907 2.152826 0 1 6
0.175508 -0.177779 2.146441 0 0 6
0.175381 -0.176057 2.144881 0 0 8
0.175639 -0.174720 2.148041 0 0 8
0.174876 -0.172372 2.138702 0 0 8
0.176748 -0.172613 2.161607 0 0 7
0.179370 -0.173544 2.193670 0 1 5
0.178287 -0.170876 2.180426 0 1 5
0.176555 -0.167613 2.159244 0 1 4
0.174877 -0.164431 2.138717 0 1 2
0.179762 -0.164125 2.198460 0 2 1
0.176488 -0.157929 2.158417 0 1 1
0.175997 -0.155892 2.152419 0 1 1
0.176206 -0.154475 2.154968 0 0 0
0.176849 -0.153433 2.162843 0 0 0
0.177158 -0.152092 2.166613 0 0 0
0.177812 -0.151038 2.174613 0 0 0
0.177565 -0.149215 2.171591 0 0 1
0.178425 -0.145075 2.182110 0 0 2
0.176652 -0.140425 2.160432 1 1 3
0.176984 -0.134257 2.164486 0 1 5
0.176306 -0.132142 2.156201 0 1 5
0.175093 -0.129642 2.141367 0 1 5
0.177618 -0.123445 2.172247 13 26 30
0.177245 -0.121575 2.167678 15 33 37
0.174754 -0.111929 2.137216 1 20 25
0.177442 -0.112039 2.170087 1 16 21
0.177584 -0.110515 2.171829 0 13 16
0.177450 -0.108820 2.170182 0 9 11
0.177663 -0.107337 2.172792 0 6 8
0.175389 -0.104369 2.144977 0 3 6
0.175719 -0.102970 2.149018 0 3 7
0.175854 -0.101451 2.150662 0 5 11
0.175733 -0.099785 2.149193 0 8 15
0.176168 -0.096831 2.154505 0 14 23
0.174986 -0.093003 2.140058 0 20 33
0.177274 -0.092608 2.168033 0 22 36
0.175688 -0.088588 2.148636 7 29 43
0.177897 -0.083238 2.175656 9 31 45
0.174832 -0.080216 2.138173 7 30 44
0.176962 -0.079585 2.164214 7 29 42
0.178162 -0.078507 2.178898 6 25 37
0.178555 -0.077058 2.183702 4 18 29
0.178424 -0.075381 2.182100 0 10 21
0.177057 -0.071586 2.165381 0 2 11
0.176994 -0.069953 2.164608 0 2 10
0.176115 -0.068006 2.153866 0 1 9
0.174680 -0.065865 2.136311 0 1 8
0.175639 -0.064631 2.148041 0 1 8
0.175691 -0.063054 2.148669 0 2 9
0.175851 -0.061514 2.150634 0 1 10
0.174641 -0.059504 2.135836 0 0 10
0.175333 -0.058147 2.144297 0 0 8
0.179572 -0.057922 2.196136 0 5 11
0.178217 -0.055866 2.179568 0 10 14
0.176048 -0.053587 2.153039 1 12 16
0.176595 -0.052149 2.159725 0 9 14
0.176698 -0.050575 2.160990 0 9 14
0.176942 -0.049037 2.163972 0 7 13
0.176255 -0.047246 2.155578 0 6 12
0.175584 -0.045471 2.147368 0 4 11
0.176135 -0.044013 2.154111 0 3 10
0.175437 -0.042245 2.145572 0 1 10
0.174486 -0.040431 2.133942 1 1 11
0.173697 -0.038671 2.124285 0 0 11
0.172415 -0.036819 2.108607 0 0 12
0.170935 -0.034950 2.090512 0 1 13
0.173176 -0.032262 2.117913 0 1 9
0.174332 -0.030894 2.132051 1 1 9
0.173855 -0.029230 2.126226 1 1 7
0.174745 -0.027792 2.137101 1 2 6
0.174332 -0.021392 2.132051 0 1 6
0.174860 -0.019868 2.138517 0 1 6
0.175828 -0.018381 2.150346 0 1 6
0.174023 -0.016612 2.128278 0 1 6
0.170849 -0.014757 2.089461 0 1 6
0.169682 -0.013115 2.075181 0 1 8
0.167869 -0.011450 2.053014 1 1 9
0.167802 -0.009921 2.052193 0 1 9
0.170303 -0.006974 2.082786 0 2 9
0.170955 -0.005448 2.090758 0 2 9
0.171879 -0.003916 2.102048 0 2 9
0.174543 -0.000806 2.134640 0 3 9
0.174870 0.000781 2.138634 0 3 10
0.174904 0.002370 2.139050 0 3 10
0.172149 0.003897 2.105355 1 4 11
0.171594 0.005443 2.098574 1 6 12
0.172627 0.007044 2.111202 1 6 12
0.174680 0.010301 2.136311 2 7 13
0.168076 0.014492 2.055540 0 7 13
0.168402 0.016050 2.059535 0 7 13
0.168494 0.017589 2.060662 0 7 13
0.169039 0.019181 2.067316 0 7 13
0.168914 0.020702 2.065789 0 7 13
0.169412 0.022302 2.071881 0 7 13
0.169756 0.023889 2.076092 0 5 11
0.169096 0.025332 2.068013 0 4 10
0.170024 0.028560 2.079368 0 4 10
0.169977 0.030096 2.078792 0 4 10
0.168314 0.031331 2.058451 0 3 10
0.168121 0.032822 2.056095 0 3 10
0.167861 0.034296 2.052909 0 3 10
0.169042 0.037609 2.067362 0 0 10
0.168076 0.038921 2.055540 0 0 8
0.168333 0.040509 2.058684 0 0 8
0.168322 0.045094 2.058555 1 1 3
0.168499 0.046672 2.060723 1 1 1
0.164760 0.051623 2.014986 0 2 0
0.163145 0.052599 1.995244 0 2 0
0.162436 0.053846 1.986565 0 2 0
0.162895 0.055478 1.992184 0 1 0
0.163542 0.057184 2.000095 1 1 0
0.162681 0.058360 1.989568 4 2 2
0.162777 0.059873 1.990734 4 1 2
0.162253 0.061155 1.984330 4 1 1
0.161282 0.062254 1.972458 3 0 2
0.159368 0.064410 1.949044 1 0 2
0.159121 0.065756 1.946026 0 1 2
0.159477 0.067352 1.950381 0 1 2
0.160326 0.069167 1.960764 0 2 1
0.160483 0.070692 1.962689 0 1 0
0.160496 0.072156 1.962842 0 1 0
0.160200 0.073478 1.959220 0 1 1
0.160361 0.075008 1.961186 0 1 1
0.160311 0.076441 1.960575 0 1 3
0.159527 0.078966 1.950992 0 2 5
0.160069 0.080688 1.957615 0 3 7
0.159977 0.082095 1.956493 0 4 9
0.158335 0.085567 1.936414 0 5 12
0.156820 0.087598 1.917889 0 5 11
0.157242 0.089262 1.923041 0 6 11
0.158044 0.091153 1.932858 2 13 17
0.159339 0.093347 1.948690 2 15 19
0.158654 0.094387 1.940319 2 16 21
0.159455 0.096312 1.950113 2 16 23
0.158847 0.097387 1.942669 2 15 24
0.157919 0.098253 1.931327 1 15 24
0.157954 0.101145 1.931750 1 15 24
0.159408 0.103524 1.949538 0 14 23
0.159228 0.104854 1.947336 0 13 22
0.159103 0.106217 1.945811 0 14 22
0.158117 0.106994 1.933746 0 14 21
0.159003 0.109038 1.944581 0 14 21
0.158993 0.110476 1.944463 0 14 21
0.158929 0.111875 1.943682 0 13 21
0.157682 0.112430 1.928431 0 12 21
0.157505 0.113734 1.926266 0 15 23
0.157140 0.114898 1.921801 0 16 23
0.156131 0.116997 1.909459 0 16 23
0.155396 0.117858 1.900466 0 16 23
0.155262 0.119167 1.898831 0 16 23
0.156167 0.121280 1.909896 0 16 23
0.156139 0.122676 1.909557 0 16 23
0.156212 0.124152 1.910444 0 15 22
0.156213 0.125573 1.910465 0 15 22
0.155368 0.126305 1.900125 0 15 22
0.155649 0.127947 1.903564 0 15 22
0.155192 0.128981 1.897975 1 15 22
0.154988 0.130219 1.895475 0 14 22
0.154735 0.131412 1.892380 0 15 22
0.154424 0.132551 1.888584 0 15 22
0.154415 0.133946 1.888471 0 15 21
0.154132 0.135100 1.885006 1 16 20
0.154395 0.136734 1.888225 0 15 19
0.154602 0.138321 1.890758 0 15 20
0.154831 0.139933 1.893564 0 14 19
0.154885 0.141389 1.894221 0 12 18
0.154664 0.142592 1.891522 0 12 18
0.154509 0.143852 1.889620 0 12 18
0.154179 0.144946 1.885582 0 11 17
0.154325 0.146485 1.887367 0 11 17
0.157143 0.152014 1.921829 0 11 17
0.156521 0.152835 1.914227 0 11 18
0.156173 0.153914 1.909972 0 10 19
0.156425 0.155583 1.913055 0 10 19
0.156651 0.157231 1.915815 0 11 19
0.156446 0.158447 1.913314 0 11 16
0.156074 0.159487 1.908759 0 10 13
0.155921 0.160748 1.906894 0 10 12
0.156198 0.162452 1.910275 0 10 12
0.156035 0.163699 1.908281 0 10 12
0.156026 0.165108 1.908180 0 10 12
0.155239 0.165685 1.898555 0 10 12
0.154810 0.166634 1.893309 1 9 12
0.154618 0.167831 1.890956 1 8 12
0.154166 0.168741 1.885423 0 6 10
0.154946 0.171002 1.894963 0 6 10
0.154980 0.172448 1.895381 0 5 9
0.155827 0.176221 1.905735 0 3 8
0.154549 0.177584 1.890112 1 3 8
0.155848 0.190402 1.905998 0 1 3
0.154226 0.191222 1.886157 1 3 1
0.155212 0.193855 1.898217 0 2 0
0.155525 0.195659 1.902052 0 1 0
0.155804 0.197425 1.905461 0 1 0
0.157238 0.203527 1.923000 0 2 0
0.157740 0.205610 1.929136 0 2 0
0.145947 0.191564 1.784909 0 1 0
0.146179 0.193197 1.787753 0 1 0
0.146073 0.194383 1.786451 2 3 0
0.146127 0.195783 1.787116 2 3 0
0.146019 0.196964 1.785795 1 2 0
0.145422 0.197480 1.778494 10 11 7
0.145016 0.198245 1.773521 41 43 34
0.145536 0.200278 1.779879 78 81 71
0.145553 0.201624 1.780087 105 109 97
0.145556 0.202950 1.780128 120 124 110
0.145546 0.204259 1.780006 125 130 113
0.145418 0.205401 1.778445 120 128 106
0.204138 -0.563266 2.474100 190 186 183
0.294733 -0.810586 3.572089 190 186 183
0.293316 -0.801410 3.554921 190 185 182
0.293127 -0.798254 3.552631 190 184 182
0.294469 -0.799258 3.568893 192 184 182
0.295036 -0.798141 3.575766 192 184 182
0.294060 -0.792854 3.563940 192 184 182
0.186454 -0.499366 2.259777 192 184 182
0.345065 -0.914842 4.182100 192 184 182
1.062313 -2.778170 12.874970 192 184 182
0.294027 -0.755708 3.563538 192 184 182
0.257617 -0.655169 3.122254 192 184 182
0.257105 -0.651552 3.116049 192 184 182
0.257041 -0.637506 3.115268 190 182 180
0.257220 -0.635634 3.117438 190 182 180
0.257354 -0.633650 3.119067 190 182 180
0.257864 -0.632584 3.125250 190 182 180
0.258286 -0.631295 3.130366 190 182 180
0.257093 -0.626063 3.115900 190 182 180
0.229481 -0.556757 2.781248 190 182 180
0.229246 -0.554125 2.778406 190 182 180
0.295489 -0.708924 3.581254 190 182 180
0.147412 -0.352337 1.786596 190 182 180
0.147395 -0.350971 1.786395 190 182 180
0.147078 -0.347568 1.782555 190 182 180
0.230444 -0.542498 2.792921 190 182 180
0.145342 -0.339539 1.761508 190 182 180
0.145584 -0.337483 1.764439 190 182 180
0.157615 -0.362535 1.910253 190 182 180
0.158101 -0.359383 1.916144 190 182 180
0.158070 -0.357891 1.915775 190 182 180
0.158498 -0.357431 1.920952 190 182 180
0.158182 -0.355295 1.917125 190 182 180
0.158413 -0.354389 1.919930 190 182 180
0.158161 -0.352401 1.916871 190 182 180
0.157829 -0.350241 1.912851 190 182 180
0.157860 -0.348888 1.913224 190 182 180
0.296033 -0.651600 3.587844 190 182 180
0.261939 -0.567124 3.174639 190 182 180
0.263018 -0.567093 3.187715 190 182 180
0.148115 -0.318018 1.795120 190 182 180
0.300819 -0.640470 3.645849 190 182 179
0.299858 -0.633026 3.634205 190 182 179
0.263619 -0.554149 3.194997 190 182 179
0.263233 -0.550969 3.190320 190 182 179
0.262564 -0.547205 3.182213 190 182 179
0.262473 -0.544652 3.181111 190 182 179
0.262415 -0.542169 3.180403 190 182 179
0.262606 -0.540200 3.182723 190 182 179
0.262337 -0.537286 3.179466 190 182 179
0.262170 -0.534583 3.177440 190 182 179
0.262293 -0.532473 3.178928 190 182 179
0.262315 -0.530157 3.179200 190 182 179
0.262452 -0.528069 3.180851 190 182 179
0.262090 -0.524983 3.176472 190 182 179
0.262188 -0.522818 3.177653 190 182 179
0.262221 -0.520523 3.178049 190 182 179
