ply
format ascii 1.0
element vertex 1337
property float x
property float y
property float z
property uchar red
property uchar green
property uchar blue
end_header
0.076458 -0.153480 2.233667 0 3 8
0.076242 -0.151393 2.227365 0 4 9
0.076435 -0.150116 2.232976 0 3 11
0.076178 -0.146306 2.225474 0 2 10
0.076065 -0.144439 2.222192 0 0 9
0.076158 -0.142963 2.224903 1 5 13
0.075831 -0.140703 2.215351 18 29 37
0.075737 -0.138885 2.212597 58 77 85
0.073109 -0.127721 2.135836 58 86 107
0.073174 -0.126247 2.137734 66 94 115
0.072962 -0.124297 2.131523 74 102 124
0.072702 -0.122277 2.123942 82 109 129
0.072527 -0.120408 2.118807 83 109 128
0.072809 -0.119297 2.127064 81 106 123
0.072858 -0.117796 2.128493 75 98 114
0.072878 -0.116247 2.129071 61 83 97
0.073004 -0.114864 2.132760 45 67 81
0.072940 -0.113180 2.130886 30 52 65
0.072884 -0.111512 2.129257 24 46 59
0.072926 -0.109994 2.130477 20 39 53
0.072821 -0.108256 2.127423 17 36 49
0.072869 -0.106745 2.128816 17 35 46
0.072638 -0.104830 2.122056 19 36 46
0.072618 -0.103226 2.121486 21 35 44
0.072722 -0.101796 2.124519 21 35 42
0.072946 -0.100527 2.131065 12 29 34
0.072942 -0.098937 2.130930 10 25 29
0.072994 -0.097425 2.132460 8 21 26
0.072985 -0.095829 2.132191 5 16 21
0.072986 -0.094246 2.132225 1 10 16
0.072874 -0.092521 2.128963 0 5 11
0.072911 -0.090986 2.130052 0 2 7
0.072494 -0.088892 2.117851 0 2 5
0.072494 -0.087319 2.117870 0 2 5
0.072715 -0.086007 2.124305 0 4 6
0.072594 -0.084289 2.120774 0 8 12
0.072935 -0.083103 2.130750 7 17 26
0.073200 -0.081816 2.138478 14 30 41
0.073035 -0.080047 2.133672 21 40 54
0.073045 -0.078472 2.133942 23 45 59
0.073070 -0.076913 2.134670 22 45 59
0.073181 -0.075443 2.137931 24 46 60
0.072967 -0.073638 2.131660 25 47 61
0.072823 -0.071913 2.127455 25 47 61
0.072786 -0.070297 2.126397 26 48 62
0.072959 -0.068881 2.131432 26 48 62
0.072478 -0.066854 2.117393 27 49 63
0.072292 -0.065113 2.111941 28 50 64
0.072648 -0.063858 2.122340 28 50 64
0.072352 -0.062028 2.113713 26 47 64
0.072357 -0.060462 2.113852 31 52 69
0.072382 -0.058912 2.114586 38 59 76
0.072549 -0.057474 2.119455 46 67 84
0.072820 -0.056109 2.127393 51 72 89
0.072466 -0.054263 2.117041 51 72 89
0.072407 -0.052648 2.115323 51 72 89
0.072456 -0.051111 2.116736 49 70 89
0.072814 -0.049784 2.127203 47 69 89
0.072556 -0.048033 2.119671 48 70 91
0.072494 -0.046419 2.117870 47 70 86
0.073213 -0.043702 2.138875 33 55 68
0.073003 -0.040408 2.132718 14 31 38
0.072277 -0.036870 2.111520 0 8 11
0.072380 -0.035352 2.114531 5 18 23
0.072277 -0.033733 2.111512 18 30 44
0.072339 -0.032192 2.113322 21 36 56
0.071940 -0.030454 2.101676 14 32 59
0.071442 -0.028692 2.087117 7 28 57
0.071278 -0.027080 2.082333 7 34 59
0.070984 -0.025428 2.073733 13 40 62
0.070996 -0.023892 2.074103 28 52 70
0.070979 -0.022346 2.073597 31 54 70
0.070873 -0.020774 2.070487 34 60 79
0.070648 -0.019176 2.063932 40 70 92
0.070545 -0.017617 2.060929 46 80 106
0.070051 -0.015973 2.046499 50 85 114
0.070173 -0.014478 2.050040 50 85 118
0.070334 -0.012985 2.054760 50 83 118
0.070259 -0.011447 2.052560 50 81 117
0.070170 -0.009910 2.049950 48 75 112
0.070082 -0.008377 2.047400 44 69 104
0.069911 -0.006839 2.042407 40 64 99
0.069600 -0.005299 2.033321 38 64 97
0.069563 -0.003786 2.032239 40 67 98
0.069521 -0.002275 2.030993 43 72 101
0.069462 -0.000766 2.029281 45 74 102
0.069475 0.000741 2.029658 48 78 102
0.069429 0.002247 2.028312 48 76 101
0.069353 0.003750 2.026092 47 73 99
0.069263 0.005248 2.023457 43 66 95
0.069128 0.006738 2.019529 37 56 87
0.069165 0.008242 2.020609 27 43 74
0.069024 0.009723 2.016487 19 32 62
0.068701 0.011168 2.007051 15 26 54
0.068660 0.012652 2.005839 0 7 32
0.068417 0.014091 1.998749 0 6 28
0.068360 0.015563 1.997075 0 3 21
0.068384 0.017052 1.997788 0 4 18
0.068388 0.018538 1.997914 5 15 27
0.068089 0.019934 1.989152 16 25 37
0.068160 0.021434 1.991228 14 24 35
0.068248 0.022942 1.993826 4 15 27
0.067956 0.024319 1.985294 0 10 24
0.068126 0.025858 1.990240 0 10 25
0.067374 0.028496 1.968264 0 9 21
0.068774 0.030581 2.009189 0 7 18
0.067714 0.037456 1.978212 0 1 9
0.067951 0.039062 1.985136 1 1 9
0.067801 0.040447 1.980766 0 1 9
0.067841 0.041943 1.981910 0 2 9
0.068010 0.043523 1.986846 0 2 9
0.067705 0.044797 1.977960 0 2 9
0.067406 0.046062 1.969225 0 2 8
0.065228 0.050236 1.905595 0 2 3
0.065575 0.051926 1.915733 0 2 1
0.065272 0.071515 1.906868 0 1 3
0.065569 0.084645 1.915540 0 0 7
0.065874 0.086469 1.924465 0 1 6
0.065443 0.087323 1.911870 0 1 5
0.065447 0.088749 1.911989 0 1 5
0.064754 0.089214 1.891749 0 1 6
0.064720 0.090572 1.890758 0 2 9
0.065322 0.092831 1.908327 0 2 9
0.065243 0.094135 1.906037 0 2 9
0.065454 0.095859 1.912173 0 2 9
0.065243 0.098383 1.906037 0 2 9
0.065681 0.100467 1.918807 0 3 10
0.065698 0.101918 1.919302 0 3 10
0.065710 0.103364 1.919667 0 2 7
0.065739 0.104836 1.920514 0 2 7
0.065958 0.106617 1.926919 0 2 7
0.065919 0.107984 1.925785 0 2 7
0.065815 0.112098 1.922730 0 2 7
0.065810 0.113517 1.922585 0 2 7
0.065244 0.113957 1.906062 1 4 10
0.064987 0.114919 1.898555 1 4 11
0.064782 0.115960 1.892542 1 4 11
0.063184 0.121327 1.845876 0 3 8
0.064341 0.126342 1.879678 0 2 7
0.064321 0.127698 1.879098 0 2 7
0.064608 0.131072 1.887478 0 2 7
0.065176 0.136467 1.904071 0 1 6
0.065132 0.137787 1.902778 0 1 6
0.065083 0.139097 1.901354 0 0 7
0.064968 0.140261 1.898003 0 0 8
0.065091 0.141937 1.901571 0 0 8
0.064839 0.142796 1.894231 0 0 6
0.064244 0.144274 1.876850 0 1 4
0.064595 0.147865 1.887093 0 1 1
0.064547 0.149155 1.885676 0 2 0
0.064832 0.151220 1.894005 0 2 0
0.064720 0.152365 1.890758 0 2 0
0.065151 0.156205 1.903323 0 2 0
0.064852 0.156896 1.894587 0 2 0
0.064792 0.158158 1.892858 0 0 0
0.064623 0.159148 1.887916 0 0 0
0.064612 0.160521 1.887579 0 0 0
0.064806 0.162411 1.893257 0 0 0
0.064916 0.164095 1.896471 0 0 0
0.065182 0.166180 1.904227 0 0 0
0.065100 0.167384 1.901836 0 0 0
0.065182 0.169009 1.904227 0 0 0
0.064672 0.171899 1.889351 0 2 1
0.064873 0.176657 1.895226 0 2 1
0.063522 0.177113 1.855754 0 1 1
0.064427 0.181033 1.882183 0 1 3
0.063009 0.179783 1.840755 0 1 3
0.062922 0.180901 1.838222 0 1 3
0.062951 0.182349 1.839058 0 1 3
0.063018 0.183913 1.841036 0 1 3
0.062875 0.184858 1.836842 0 1 3
0.062982 0.186540 1.839978 0 1 3
0.062940 0.187780 1.838733 0 1 5
0.062818 0.188780 1.835180 0 1 5
0.062507 0.189203 1.826105 0 1 5
0.062433 0.190333 1.823935 0 1 5
0.062538 0.192010 1.827004 0 1 5
0.063983 0.202000 1.869211 0 1 6
0.064636 0.205463 1.888284 0 0 6
0.064679 0.207003 1.889535 0 0 6
0.064619 0.208214 1.887790 0 0 6
0.064538 0.209353 1.885423 0 0 6
0.064484 0.210578 1.883848 0 0 6
0.064590 0.212325 1.886944 0 0 6
0.064624 0.213839 1.887935 0 1 6
0.064573 0.215071 1.886437 0 1 5
0.063078 0.212830 1.842775 0 1 5
0.057903 -0.376937 1.655667 205 203 208
0.124761 -0.809518 3.567381 205 202 207
0.119168 -0.770695 3.407451 207 202 206
0.058922 -0.378565 1.684803 210 203 207
0.057930 -0.370959 1.656427 210 202 207
0.114881 -0.733209 3.284864 211 201 205
0.062268 -0.396098 1.780489 211 200 204
0.109953 -0.692417 3.143959 208 199 202
0.110023 -0.690524 3.145974 208 199 202
0.126482 -0.785764 3.616594 207 198 201
0.126773 -0.784880 3.624919 207 198 201
0.126715 -0.781829 3.623258 207 198 201
0.126632 -0.778626 3.620878 207 198 201
0.126866 -0.777369 3.627560 207 198 201
0.120745 -0.734737 3.452555 207 198 203
0.118974 -0.721434 3.401920 207 198 203
0.066691 -0.397317 1.906944 207 197 205
0.226450 -1.334669 6.475055 207 197 205
0.226535 -1.330359 6.477490 207 197 205
0.108014 -0.632031 3.088515 207 197 205
0.227597 -1.326928 6.507854 207 197 205
0.127406 -0.740091 3.643010 207 197 205
0.067610 -0.385562 1.933226 207 198 203
0.067422 -0.383056 1.927839 207 198 203
0.057455 -0.315448 1.642853 206 197 200
0.110919 -0.597202 3.171578 206 197 200
0.110958 -0.595058 3.172705 206 197 200
0.111183 -0.593906 3.179152 206 197 200
0.111044 -0.590802 3.175159 206 197 200
0.110731 -0.586787 3.166224 206 197 200
0.110900 -0.585327 3.171052 206 197 200
0.110616 -0.581477 3.162924 206 197 200
0.111712 -0.584869 3.194279 206 197 200
0.111435 -0.581049 3.186342 206 197 200
0.111473 -0.578878 3.187418 206 197 199
0.111125 -0.574713 3.177484 206 197 198
0.111054 -0.571984 3.175437 206 197 197
0.098588 -0.505684 2.818990 206 198 196
0.127878 -0.653206 3.656507 206 198 196
0.057885 -0.294449 1.655145 206 198 196
0.057835 -0.292969 1.653726 206 198 196
0.096889 -0.488738 2.770407 206 198 196
0.096304 -0.481698 2.753687 206 198 195
1.198152 -5.534939 34.259655 206 198 196
1.222728 -5.622499 34.962368 206 198 196
1.228042 -5.620856 35.114334 206 198 196
1.249649 -5.693212 35.732155 206 198 196
0.112035 -0.479482 3.203506 200 192 190
0.081447 -0.329544 2.328869 92 92 93
0.081747 -0.327287 2.337459 123 124 132
0.081597 -0.324952 2.333164 77 82 91
0.081997 -0.324804 2.344600 53 63 72
0.080348 -0.311445 2.297442 52 70 78
0.079577 -0.305078 2.275408 59 79 90
0.079447 -0.302892 2.271689 55 77 90
0.079586 -0.301731 2.275659 52 74 88
0.079404 -0.299356 2.270468 53 72 87
0.079761 -0.299006 2.280660 57 71 89
0.079667 -0.296963 2.277982 58 69 89
0.079288 -0.293865 2.267140 57 70 89
0.078968 -0.291003 2.257998 56 72 90
0.078844 -0.288871 2.254447 56 73 91
0.078995 -0.287746 2.258758 53 72 89
0.078975 -0.285997 2.258199 46 67 83
0.078912 -0.284093 2.256395 41 62 77
0.078584 -0.281243 2.247020 42 64 78
0.078548 -0.279445 2.245981 42 64 78
0.078218 -0.276610 2.236547 41 63 77
0.078172 -0.274785 2.235217 41 63 77
0.078015 -0.272579 2.230750 43 65 79
0.078018 -0.270931 2.230825 47 69 83
0.078082 -0.269495 2.232649 53 75 88
0.078096 -0.267886 2.233068 57 79 92
0.078084 -0.266185 2.232713 53 77 89
0.077918 -0.263966 2.227979 51 74 85
0.077954 -0.262430 2.228986 42 64 75
0.077900 -0.260596 2.227463 18 37 48
0.077932 -0.259048 2.228380 1 14 24
0.078054 -0.257796 2.231864 0 12 22
0.078005 -0.255975 2.230446 4 19 29
0.077973 -0.254214 2.229527 4 18 29
0.077987 -0.252606 2.229954 0 14 26
0.077822 -0.250418 2.225231 0 14 27
0.077654 -0.248226 2.220411 0 13 27
0.077738 -0.246845 2.222821 0 11 27
0.077654 -0.244929 2.220423 0 11 26
0.077466 -0.242692 2.215053 0 11 24
0.077188 -0.240180 2.207089 0 10 23
0.077009 -0.237987 2.201968 0 10 21
0.076903 -0.236025 2.198932 0 11 21
0.076899 -0.234381 2.198825 0 13 23
0.077065 -0.233249 2.203566 0 14 24
0.076824 -0.230889 2.196683 0 14 26
0.077127 -0.230161 2.205342 0 14 26
0.076972 -0.228064 2.200908 0 14 26
0.076600 -0.225336 2.190284 0 15 27
0.076539 -0.223530 2.188534 0 15 27
0.076755 -0.222532 2.194724 0 16 27
0.076633 -0.220550 2.191222 1 17 27
0.076880 -0.219628 2.198289 0 16 24
0.076842 -0.217888 2.197208 0 16 23
0.076880 -0.216362 2.198289 0 15 22
0.076838 -0.214613 2.197091 1 15 22
0.076968 -0.213340 2.200803 0 15 22
0.076900 -0.211519 2.198863 0 14 21
0.077446 -0.211376 2.214477 0 13 21
0.077613 -0.210182 2.219234 0 11 17
0.077113 -0.207192 2.204959 0 10 16
0.077201 -0.205788 2.207463 0 10 16
0.077296 -0.204399 2.210169 0 9 15
0.076946 -0.201839 2.200162 0 8 13
0.076952 -0.200221 2.200336 0 7 12
0.076897 -0.198446 2.198784 0 7 12
0.076934 -0.196907 2.199836 0 7 12
0.077028 -0.195512 2.202526 0 4 10
0.077062 -0.193960 2.203485 0 4 10
0.077021 -0.192221 2.202314 0 3 7
0.077130 -0.190855 2.205429 0 3 7
0.076868 -0.188575 2.197940 0 2 7
0.076902 -0.187025 2.198917 0 2 7
0.076962 -0.185537 2.200640 0 2 6
0.077162 -0.184380 2.206353 0 2 6
0.077133 -0.182673 2.205528 0 2 6
0.077064 -0.180871 2.203538 1 2 7
0.076990 -0.179063 2.201429 1 2 7
0.077057 -0.177582 2.203344 1 2 7
0.077110 -0.176066 2.204855 1 2 7
0.077081 -0.174364 2.204043 1 2 7
0.077162 -0.172908 2.206353 1 2 7
0.077093 -0.171115 2.204370 1 2 7
0.077070 -0.169428 2.203722 1 2 7
0.077382 -0.168471 2.212644 1 2 7
0.077239 -0.166518 2.208543 1 2 7
0.077269 -0.161660 2.209412 1 2 7
0.077544 -0.160589 2.217276 1 2 7
0.078117 -0.160117 2.233667 1 2 6
0.078346 -0.158921 2.240193 0 3 5
0.078457 -0.157481 2.243387 0 4 5
0.078328 -0.155557 2.239683 0 3 6
0.078362 -0.153961 2.240655 0 3 9
0.077710 -0.151030 2.222029 0 3 11
0.078166 -0.150255 2.235051 0 3 11
0.078384 -0.149010 2.241298 0 2 11
0.077599 -0.144222 2.218854 0 0 10
0.077281 -0.141990 2.209767 2 5 16
0.077650 -0.141019 2.220317 17 29 38
0.077268 -0.138684 2.209393 53 72 81
0.076524 -0.132472 2.188110 58 88 106
0.074647 -0.126053 2.134449 75 105 126
0.074331 -0.123940 2.125403 82 112 133
0.074112 -0.122001 2.119139 88 117 136
0.074319 -0.120763 2.125056 86 112 131
0.074549 -0.119553 2.131631 77 102 118
0.074373 -0.117691 2.126592 63 86 102
0.074608 -0.116478 2.133311 47 69 83
0.074564 -0.114826 2.132051 34 56 70
0.074373 -0.112952 2.126592 25 47 60
0.074520 -0.111593 2.130792 20 42 55
0.074487 -0.109961 2.129853 17 37 51
0.074467 -0.108350 2.129283 16 34 47
0.074280 -0.106501 2.123933 17 35 46
0.074256 -0.104890 2.123270 20 35 46
0.074084 -0.103073 2.118338 22 36 45
0.074099 -0.101521 2.118782 21 34 42
0.074505 -0.100495 2.130389 12 26 32
0.074583 -0.099016 2.132618 8 23 25
0.074515 -0.097343 2.130677 6 19 22
0.074515 -0.095761 2.130677 3 14 17
0.074348 -0.093966 2.125885 0 7 13
0.074304 -0.092332 2.124627 0 4 9
0.074454 -0.090938 2.128928 0 2 6
0.074104 -0.088936 2.118906 0 2 5
0.074169 -0.087439 2.120774 0 3 5
0.074054 -0.085731 2.117480 0 6 8
0.074345 -0.084489 2.125814 3 11 17
0.074507 -0.083090 2.130432 9 21 31
0.074779 -0.081806 2.138223 16 32 47
0.074643 -0.080071 2.134320 22 40 56
0.074618 -0.078460 2.133608 22 44 58
0.074546 -0.076800 2.131535 21 44 58
0.074634 -0.075306 2.134053 24 46 60
0.074643 -0.073730 2.134320 24 46 60
0.074155 -0.071673 2.120373 25 47 61
0.074472 -0.070398 2.129438 25 47 61
0.074527 -0.068867 2.131021 26 48 62
0.074151 -0.066945 2.120264 27 49 63
0.073741 -0.065009 2.108542 27 49 63
0.073863 -0.063547 2.112018 28 50 64
0.074169 -0.062235 2.120774 27 48 64
0.073811 -0.060367 2.110541 30 51 68
0.073819 -0.058806 2.110765 38 59 76
0.074351 -0.057650 2.125963 45 66 83
0.074432 -0.054551 2.128278 51 72 89
0.073931 -0.052614 2.113968 51 72 89
0.075101 -0.051852 2.147422 50 71 89
0.074149 -0.049620 2.120199 45 67 88
0.073991 -0.047943 2.115687 47 69 90
0.073876 -0.046299 2.112394 46 69 87
0.074634 -0.045189 2.134053 41 63 77
0.074101 -0.036997 2.118824 0 9 12
0.074169 -0.035456 2.120774 0 12 18
0.073941 -0.033777 2.114250 8 20 32
0.073663 -0.032085 2.106291 12 25 44
0.073154 -0.030310 2.091754 10 26 52
0.073507 -0.028895 2.101845 8 28 56
0.072811 -0.027075 2.081952 8 33 57
0.072503 -0.025420 2.073122 11 36 58
0.072464 -0.023868 2.072011 26 51 69
0.072302 -0.022279 2.067392 33 58 75
0.072198 -0.020713 2.064407 41 68 87
0.072011 -0.019130 2.059059 47 78 99
0.071948 -0.017586 2.057266 51 83 108
0.071810 -0.016027 2.053324 51 84 112
0.071798 -0.014499 2.052980 51 83 113
0.071981 -0.013007 2.058206 51 81 114
0.071753 -0.011442 2.051677 51 79 113
0.071667 -0.009906 2.049214 51 75 109
0.071548 -0.008370 2.045815 48 69 103
0.071584 -0.006854 2.046856 44 66 98
0.071416 -0.005321 2.042060 42 65 95
0.071106 -0.003788 2.033180 42 65 95
0.071132 -0.002279 2.033923 42 67 96
0.071086 -0.000767 2.032615 43 68 95
0.070966 0.000741 2.029186 48 73 97
0.070948 0.002248 2.028663 40 63 86
0.070825 0.003748 2.025159 30 52 77
0.070795 0.005250 2.024288 25 44 70
0.070670 0.006742 2.020709 20 37 64
0.070601 0.008235 2.018743 11 26 54
0.070349 0.009699 2.011541 3 15 41
0.070081 0.011151 2.003892 0 8 32
0.069975 0.012620 2.000834 0 5 26
0.070027 0.014117 2.002329 0 2 22
0.070004 0.015599 2.001666 0 3 20
0.069856 0.017050 1.997441 2 9 22
0.069597 0.018464 1.990032 13 21 33
0.069697 0.019971 1.992907 19 27 38
0.069666 0.021442 1.991998 12 22 31
0.069701 0.022933 1.993010 2 11 21
0.069916 0.024489 1.999171 0 9 21
0.070043 0.026021 2.002802 0 9 21
0.069998 0.027491 2.001500 0 9 19
0.070174 0.029050 2.006527 0 7 18
0.070799 0.030813 2.024405 0 6 16
0.070751 0.032294 2.023025 0 5 13
0.069967 0.036395 2.000619 0 2 8
0.069422 0.037586 1.985049 0 1 8
0.069326 0.039006 1.982294 0 1 8
0.069362 0.040499 1.983308 0 1 8
0.069298 0.041934 1.981502 0 2 8
0.069351 0.043439 1.983004 0 2 8
0.069351 0.044912 1.983012 0 2 9
0.069430 0.046438 1.985266 0 2 8
0.066709 0.051702 1.907462 0 2 1
0.066528 0.055800 1.902291 0 1 1
0.069466 0.081870 1.986297 0 1 5
0.067450 0.080927 1.928652 0 1 6
0.066770 0.082946 1.909192 0 0 8
0.066974 0.084622 1.915027 0 0 7
0.066832 0.085863 1.910972 0 1 6
0.066607 0.086989 1.904550 0 1 6
0.066543 0.088318 1.902721 0 1 6
0.066090 0.089121 1.889767 0 1 6
0.065913 0.090282 1.884698 0 2 9
0.066236 0.092130 1.893927 0 2 9
0.066277 0.093596 1.895111 0 2 9
0.066570 0.095423 1.903491 0 2 9
0.066603 0.096885 1.904424 0 2 9
0.066763 0.099954 1.909005 0 2 9
0.066787 0.101408 1.909687 0 2 8
0.067028 0.103198 1.916580 0 2 7
0.066878 0.104387 1.912300 0 2 7
0.067283 0.106448 1.923871 0 2 7
0.067127 0.107627 1.919420 0 2 7
0.067387 0.110907 1.926857 0 2 7
0.066649 0.112522 1.905735 0 2 7
0.066354 0.113433 1.897296 1 4 11
0.065969 0.114177 1.886310 2 5 12
0.065619 0.114964 1.876279 1 5 12
0.065247 0.117084 1.865644 1 5 11
0.065299 0.118565 1.867145 1 5 11
0.065223 0.119812 1.864967 1 5 11
0.065058 0.120891 1.860264 1 5 11
0.064602 0.121415 1.847204 0 5 10
0.065347 0.125592 1.868520 1 4 9
0.065016 0.126337 1.859063 0 3 8
0.065221 0.128120 1.864924 0 3 8
0.065431 0.129921 1.870907 0 3 8
0.066719 0.133896 1.907750 0 2 7
0.065883 0.135017 1.883848 0 1 6
0.065924 0.136501 1.885006 0 1 6
0.065860 0.137767 1.883177 0 0 7
0.065965 0.139388 1.886190 0 0 8
0.065845 0.140534 1.882767 0 0 8
0.065604 0.141412 1.875859 0 0 7
0.065451 0.142473 1.871502 0 0 6
0.065030 0.142936 1.859442 0 1 4
0.065368 0.146457 1.869123 0 1 1
0.065385 0.147883 1.869599 0 2 0
0.065496 0.149525 1.872768 0 2 0
0.065518 0.150968 1.873416 0 2 0
0.066610 0.156313 1.904638 0 2 0
0.065515 0.157918 1.873328 0 0 0
0.065531 0.159347 1.873765 0 0 0
0.065945 0.161755 1.885610 0 0 0
0.066117 0.163581 1.890529 0 0 0
0.066214 0.165228 1.893309 0 0 0
0.066629 0.167677 1.905166 0 0 0
0.065918 0.175688 1.884832 0 1 0
0.065063 0.176173 1.860390 0 1 0
0.064327 0.175546 1.839336 0 1 1
0.064296 0.179560 1.838478 0 0 2
0.064223 0.180720 1.836386 0 0 2
0.064273 0.182224 1.837797 0 1 3
0.064281 0.183613 1.838031 0 1 3
0.064311 0.185065 1.838899 0 1 3
0.064404 0.186700 1.841548 0 1 3
0.064269 0.187675 1.837706 0 1 5
0.064002 0.188252 1.830047 0 1 5
0.063847 0.189153 1.825617 0 1 5
0.063704 0.190083 1.821535 0 1 5
0.063975 0.192251 1.829296 0 1 5
0.065056 0.201027 1.860207 0 1 5
0.065189 0.202821 1.863997 0 1 5
0.065127 0.204010 1.862218 0 1 6
0.065045 0.205136 1.859885 0 1 6
0.065046 0.206519 1.859898 0 1 6
0.065060 0.207945 1.860298 0 1 6
0.065126 0.209540 1.862187 0 1 6
0.065162 0.211041 1.863227 0 1 6
0.065361 0.213073 1.868917 0 1 5
0.064221 0.210722 1.836327 0 1 5
0.064364 0.212558 1.840421 0 1 5
0.059133 -0.376937 1.655667 205 203 208
0.122454 -0.775482 3.428614 207 202 206
0.120994 -0.763716 3.387717 207 202 206
0.060184 -0.378633 1.685108 211 203 207
0.117436 -0.733931 3.288097 211 201 205
0.063503 -0.395551 1.778033 211 200 204
0.063755 -0.395791 1.785069 209 200 203
0.110649 -0.682309 3.098061 208 199 202
0.111824 -0.687229 3.130962 208 199 202
0.128570 -0.782123 3.599836 207 198 201
0.128940 -0.781695 3.610209 207 198 201
0.128729 -0.777740 3.604308 207 198 201
0.128683 -0.774781 3.602999 207 198 201
0.129380 -0.776288 3.622517 207 198 201
0.123964 -0.730902 3.470878 207 197 204
0.067569 -0.394177 1.891873 207 197 205
0.067500 -0.392372 1.889947 207 197 205
0.230742 -1.331682 6.460565 207 197 205
0.231196 -1.329495 6.473284 207 197 205
0.108690 -0.622762 3.043220 207 197 205
0.068780 -0.384078 1.925785 207 198 203
0.068618 -0.381743 1.921231 207 198 203
0.128437 -0.682487 3.596130 206 197 200
0.113418 -0.597959 3.175597 206 197 200
0.113396 -0.593130 3.174996 206 197 200
0.113149 -0.589482 3.168070 206 197 200
0.113503 -0.586606 3.177981 206 197 200
0.113788 -0.583345 3.185955 206 197 200
0.113168 -0.577816 3.168614 206 197 200
0.113418 -0.576731 3.175597 206 197 199
0.113230 -0.573422 3.170347 206 197 198
0.113312 -0.571478 3.172627 206 197 196
0.130203 -0.651250 3.645558 206 198 196
0.222566 -1.066946 6.231632 206 197 196
1.166821 -5.253838 32.669918 206 198 196
1.166669 -5.228891 32.665676 206 198 196
1.195444 -5.332995 33.471340 206 198 196
0.083115 -0.329300 2.327144 96 97 98
0.083313 -0.326621 2.332701 121 123 131
0.083060 -0.323900 2.325608 68 76 84
0.083507 -0.323908 2.338133 47 60 68
0.081602 -0.309729 2.284782 59 76 84
0.081271 -0.306783 2.275520 60 79 86
0.080798 -0.303318 2.262282 59 79 89
0.081100 -0.302763 2.270722 56 78 90
0.081316 -0.301878 2.276769 54 76 89
0.081430 -0.300607 2.279956 55 74 89
0.081639 -0.299680 2.285805 60 73 92
0.081111 -0.296056 2.271030 59 72 91
0.080619 -0.292585 2.257264 58 72 91
0.080614 -0.290892 2.257132 58 74 92
0.080620 -0.289233 2.257274 57 75 92
0.080486 -0.287080 2.253529 53 72 89
0.080493 -0.285430 2.253722 46 68 82
0.080375 -0.283342 2.250433 41 63 77
0.080175 -0.280970 2.244840 43 65 79
0.080250 -0.279561 2.246914 42 64 78
0.080155 -0.277566 2.244278 38 60 74
0.079943 -0.275168 2.238326 34 56 70
0.079674 -0.272587 2.230813 33 55 68
0.079617 -0.270734 2.229203 35 57 70
0.079629 -0.269118 2.229527 39 61 74
0.079760 -0.267902 2.233198 43 65 78
0.079668 -0.265937 2.230628 42 65 77
0.079769 -0.264615 2.233455 43 66 77
0.079637 -0.262522 2.229771 40 60 71
0.079565 -0.260630 2.227749 20 39 48
0.079685 -0.259366 2.231112 3 17 26
0.079963 -0.258607 2.238887 0 12 20
0.079769 -0.256320 2.233455 1 16 24
0.079703 -0.254451 2.231607 2 15 25
0.079727 -0.252869 2.232275 0 13 24
0.079591 -0.250785 2.228489 0 14 26
0.079505 -0.248858 2.226062 0 13 27
0.079237 -0.246372 2.218561 0 11 27
0.079162 -0.244493 2.216470 0 11 26
0.079043 -0.242482 2.213138 0 10 24
0.078966 -0.240604 2.210988 0 10 22
0.078832 -0.238554 2.207221 0 10 20
0.078133 -0.234815 2.187660 0 11 20
0.078313 -0.233726 2.192679 0 13 21
0.078490 -0.232623 2.197646 0 13 22
0.078631 -0.231406 2.201602 0 14 23
0.078688 -0.229937 2.203199 0 14 24
0.078411 -0.227495 2.195423 0 14 24
0.078295 -0.225531 2.192184 1 15 25
0.078111 -0.223376 2.187025 1 15 25
0.078135 -0.221820 2.187700 1 15 25
0.078164 -0.220277 2.188513 1 15 25
0.078391 -0.219286 2.194868 1 15 23
0.078246 -0.217255 2.190828 0 15 22
0.078097 -0.215217 2.186648 0 14 22
0.078118 -0.213648 2.187220 0 13 21
0.078513 -0.213097 2.198289 0 13 21
0.078617 -0.211745 2.201215 0 12 21
0.079117 -0.211445 2.215197 0 12 20
0.078642 -0.208540 2.201897 0 11 17
0.078604 -0.206805 2.200840 0 10 16
0.078564 -0.205067 2.199725 0 10 16
0.078756 -0.203931 2.205109 0 9 15
0.078419 -0.201425 2.195649 0 8 13
0.078183 -0.199193 2.189041 0 7 12
0.078366 -0.198030 2.194179 0 6 12
0.078119 -0.195781 2.187259 0 5 11
0.078355 -0.194744 2.193879 0 4 8
0.078311 -0.193005 2.192632 0 3 7
0.078580 -0.192035 2.200181 0 2 7
0.078535 -0.190292 2.198921 0 2 7
0.078341 -0.188192 2.193479 0 2 7
0.078113 -0.186020 2.187098 0 2 6
0.078373 -0.185009 2.194377 0 2 6
0.078558 -0.183812 2.199553 0 3 6
0.078587 -0.182245 2.200365 0 2 6
0.078378 -0.180131 2.194515 1 2 7
0.078438 -0.178638 2.196200 1 2 7
0.078516 -0.177182 2.198374 1 2 7
0.078566 -0.175661 2.199785 1 2 7
0.078657 -0.174227 2.202314 1 2 7
0.078671 -0.172622 2.202704 1 2 7
0.078718 -0.171090 2.204043 1 2 7
0.078585 -0.169165 2.200300 1 2 7
0.078842 -0.168080 2.207510 1 2 7
0.080050 -0.168990 2.241333 1 2 7
0.080296 -0.167839 2.248206 1 2 7
0.080585 -0.166768 2.256313 1 2 7
0.080282 -0.164471 2.247830 1 2 7
0.079915 -0.160395 2.237545 1 2 6
0.080052 -0.159006 2.241388 0 2 4
0.080203 -0.157637 2.245615 0 2 4
0.080143 -0.155853 2.243933 0 2 5
0.079741 -0.153413 2.232680 0 1 8
0.080031 -0.152306 2.240795 0 2 10
0.080273 -0.151098 2.247579 0 1 12
0.080171 -0.149239 2.244727 0 1 12
0.080074 -0.147391 2.241994 0 0 13
0.078801 -0.143410 2.206353 0 0 13
0.078718 -0.141622 2.204043 4 8 20
0.078747 -0.138398 2.204837 50 71 81
0.078513 -0.134721 2.198289 65 96 110
0.076682 -0.128391 2.147035 78 109 129
0.075989 -0.125650 2.127624 87 118 139
0.075706 -0.123608 2.119706 89 119 140
0.075978 -0.122471 2.127307 88 116 136
0.076134 -0.121140 2.131696 80 106 125
0.076066 -0.119450 2.129786 66 91 108
0.076120 -0.117951 2.131295 50 73 89
0.076208 -0.116503 2.133760 36 58 72
0.076102 -0.114758 2.130792 28 50 64
0.076175 -0.113284 2.132842 25 45 59
0.076031 -0.111488 2.128789 21 41 55
0.076142 -0.110068 2.131917 18 37 51
0.076052 -0.108355 2.129375 16 34 47
0.076032 -0.106745 2.128816 16 33 45
0.075869 -0.104939 2.124261 18 33 44
0.075771 -0.103227 2.121510 19 32 41
0.075696 -0.101552 2.119428 16 29 38
0.076122 -0.100539 2.131334 11 26 30
0.076153 -0.098997 2.132206 9 23 24
0.076177 -0.097443 2.132873 6 18 20
0.076159 -0.095837 2.132375 3 12 15
0.076092 -0.094171 2.130520 0 6 12
0.076005 -0.092482 2.128075 0 3 8
0.075983 -0.090875 2.127455 0 2 6
0.075912 -0.089211 2.125458 0 2 6
0.075542 -0.087206 2.115109 0 3 4
0.075704 -0.085818 2.119633 0 8 9
0.075772 -0.084319 2.121548 7 16 23
0.076128 -0.083133 2.131528 14 26 38
0.076309 -0.081744 2.136595 20 35 52
0.076137 -0.079975 2.131760 22 41 58
0.076244 -0.078503 2.134775 21 43 58
0.076215 -0.076887 2.133942 20 43 57
0.076000 -0.075090 2.127936 23 45 59
0.076056 -0.073563 2.129494 24 46 60
0.076192 -0.072111 2.133311 24 46 60
0.076043 -0.070388 2.129139 25 47 61
0.075994 -0.068762 2.127770 25 47 61
0.075865 -0.067067 2.124144 26 48 62
0.075538 -0.065208 2.115000 27 49 63
0.075521 -0.063623 2.114531 27 49 63
0.075649 -0.062157 2.118106 27 48 64
0.076282 -0.061091 2.135836 30 51 68
0.075845 -0.057586 2.123582 43 64 81
0.076249 -0.056307 2.134889 48 69 86
0.076636 -0.054999 2.145742 50 71 88
0.076840 -0.053547 2.151449 50 71 88
0.076496 -0.051717 2.141813 49 71 89
0.075594 -0.049535 2.116576 42 67 87
0.076639 -0.047032 2.145822 45 69 87
0.076874 -0.045577 2.152397 40 63 79
0.076613 -0.043829 2.145087 35 58 72
0.076828 -0.042354 2.151114 29 51 62
0.076782 -0.040732 2.149833 19 38 45
0.075678 -0.036999 2.118906 0 12 15
0.075825 -0.035494 2.123019 0 9 15
0.075327 -0.033694 2.109087 0 11 23
0.075231 -0.032087 2.106398 4 17 36
0.075033 -0.030442 2.100849 8 24 49
0.074691 -0.028750 2.091277 12 30 56
0.074303 -0.027055 2.080426 13 36 59
0.074096 -0.025439 2.074622 12 37 57
0.074019 -0.023873 2.072478 27 54 72
0.073699 -0.022237 2.063505 36 64 82
0.073673 -0.020697 2.062786 47 75 95
0.073598 -0.019145 2.060684 53 82 104
0.073462 -0.017582 2.056879 51 82 106
0.073415 -0.016044 2.055540 49 79 106
0.073332 -0.014501 2.053226 49 77 106
0.073346 -0.012978 2.053626 49 76 106
0.073389 -0.011460 2.054822 48 72 103
0.073156 -0.009902 2.048310 48 69 100
0.073138 -0.008378 2.047804 47 65 95
0.073045 -0.006849 2.045207 42 61 90
0.073005 -0.005327 2.044072 38 57 84
0.072832 -0.003799 2.039243 35 54 81
0.072719 -0.002281 2.036056 32 52 79
0.072648 -0.000768 2.034088 31 52 77
0.072610 0.000743 2.033028 30 49 73
0.072380 0.002245 2.026582 20 37 60
0.072368 0.003750 2.026242 8 25 47
0.072278 0.005249 2.023709 5 19 42
0.072088 0.006734 2.018405 3 16 40
0.071801 0.008200 2.010362 1 12 36
0.071570 0.009663 2.003906 0 7 29
0.071601 0.011156 2.004775 0 4 25
0.071939 0.012705 2.014235 0 4 23
0.071587 0.014131 2.004368 0 6 24
0.071361 0.015571 1.998041 4 12 28
0.071022 0.016974 1.988548 9 18 33
0.071250 0.018510 1.994926 18 26 39
0.071024 0.019928 1.988595 18 26 37
0.071052 0.021414 1.989402 8 17 26
0.071257 0.022958 1.995145 0 6 15
0.071416 0.024494 1.999575 0 7 18
0.071773 0.026109 2.009576 0 7 18
0.071620 0.027543 2.005281 0 8 17
0.072161 0.029252 2.020438 0 7 16
0.072236 0.030784 2.022536 0 6 14
0.071604 0.032004 2.004836 0 4 13
0.071733 0.035046 2.008470 0 3 10
0.070964 0.037621 1.986918 0 2 7
0.070856 0.039038 1.983916 0 2 7
0.070713 0.040430 1.979908 0 2 7
0.070713 0.041900 1.979905 0 2 7
0.070797 0.043422 1.982240 0 2 7
0.070804 0.044899 1.982457 0 2 7
0.070919 0.046447 1.985671 0 2 7
0.067281 0.055258 1.883795 0 1 1
0.073006 0.062997 2.044108 0 1 3
0.071023 0.074579 1.988590 0 1 3
0.070445 0.081297 1.972400 0 1 5
0.068084 0.084236 1.906284 0 0 7
0.067831 0.086745 1.899216 0 0 6
0.067849 0.088179 1.899716 0 1 6
0.067522 0.089159 1.890568 0 1 6
0.067339 0.090316 1.885423 0 1 9
0.067561 0.092020 1.891650 0 1 9
0.067754 0.093692 1.897053 0 1 9
0.068172 0.097105 1.908759 0 1 9
0.068600 0.103422 1.920748 0 2 7
0.068367 0.104493 1.914227 0 2 7
0.068253 0.107157 1.911034 0 2 7
0.067593 0.111743 1.892542 0 2 7
0.067287 0.112636 1.883964 1 4 11
0.066168 0.117644 1.852636 1 6 12
0.066068 0.118841 1.849849 1 6 12
0.065954 0.120006 1.846646 1 6 12
0.065944 0.121360 1.846368 1 6 10
0.066212 0.123229 1.853863 1 6 10
0.066148 0.124487 1.852080 1 5 10
0.066136 0.125840 1.851754 1 4 9
0.066212 0.127361 1.853870 0 3 8
0.066616 0.135066 1.865189 0 1 6
0.066543 0.136301 1.863145 0 0 7
0.066694 0.137997 1.867360 0 0 8
0.066627 0.139244 1.865490 0 0 8
0.066399 0.140148 1.859100 0 0 8
0.066213 0.141134 1.853915 0 0 6
0.065959 0.141964 1.846789 0 1 5
0.066054 0.143542 1.849446 0 1 3
0.066135 0.145093 1.851721 0 1 1
0.066177 0.146562 1.852895 0 2 0
0.066326 0.148270 1.857056 0 2 0
0.066416 0.149853 1.859579 0 2 0
0.066464 0.158255 1.860922 0 0 0
0.066469 0.159649 1.861068 0 0 0
0.067433 0.163368 1.888066 0 0 0
0.067466 0.164850 1.888976 0 0 0
0.067905 0.167336 1.901283 0 0 0
0.066080 0.165587 1.850188 0 1 0
0.068195 0.175141 1.909394 0 1 0
0.068086 0.176277 1.906340 0 2 0
0.066177 0.174087 1.852895 0 1 0
0.065611 0.175327 1.837048 0 1 1
0.065734 0.177023 1.840492 0 0 1
0.065817 0.178614 1.842802 0 0 2
0.065671 0.179585 1.838733 0 0 2
0.065600 0.180754 1.836728 0 0 2
0.065563 0.182018 1.835715 0 0 2
0.065671 0.183683 1.838733 0 0 2
0.065737 0.185235 1.840586 0 0 2
0.065731 0.186585 1.840421 0 0 2
0.065468 0.187200 1.833053 0 1 3
0.065348 0.188216 1.829697 0 1 3
0.065183 0.189094 1.825057 0 1 3
0.065198 0.190494 1.825479 0 1 3
0.065255 0.192017 1.827069 0 1 3
0.065671 0.194609 1.838733 0 1 3
0.065961 0.196838 1.846834 0 1 3
0.065842 0.197853 1.843512 0 1 5
0.066248 0.200453 1.854895 0 1 5
0.066395 0.202277 1.858998 0 1 5
0.066399 0.203669 1.859100 0 1 5
0.066339 0.204865 1.857425 0 1 5
0.066223 0.205884 1.854182 0 1 5
0.066259 0.207375 1.855194 0 1 5
0.066328 0.208971 1.857133 0 1 5
0.066343 0.210398 1.857553 0 1 5
0.066433 0.212063 1.860058 0 0 4
0.065639 0.212260 1.837837 0 0 4
0.060363 -0.376937 1.655667 206 202 208
0.124876 -0.774703 3.425169 207 202 206
0.119855 -0.733791 3.287471 211 201 205
0.064783 -0.395299 1.776900 211 200 204
0.065048 -0.395595 1.784187 209 200 203
0.065057 -0.394323 1.784427 209 200 203
0.114471 -0.689166 3.139788 208 199 202
0.130447 -0.774719 3.577992 207 198 201
0.130754 -0.773879 3.586415 207 198 201
0.125474 -0.722178 3.441590 207 197 203
0.125583 -0.720248 3.444583 207 197 203
0.068347 -0.390592 1.874664 207 197 203
0.068261 -0.388708 1.872297 207 197 203
0.131527 -0.714142 3.607610 207 198 201
0.073222 -0.394587 2.008394 207 198 201
0.073198 -0.392961 2.007710 207 198 201
0.131967 -0.700398 3.619670 206 197 200
0.130494 -0.679287 3.579270 206 197 200
0.116343 -0.586663 3.191131 206 197 199
0.117777 -0.586695 3.230463 206 197 199
0.116998 -0.580429 3.209086 206 197 198
0.132151 -0.647527 3.624714 206 198 196
0.214327 -1.010885 5.878699 206 198 195
0.117487 -0.472751 3.222498 181 176 179
0.084940 -0.329674 2.329788 102 102 101
0.085087 -0.326778 2.333825 119 120 129
0.084585 -0.323128 2.320061 61 67 77
0.085000 -0.322980 2.331438 44 55 65
0.085742 -0.324053 2.351788 69 83 92
0.082560 -0.306980 2.264504 63 80 89
0.082733 -0.302567 2.269251 55 79 90
0.082982 -0.301788 2.276092 55 78 92
0.082973 -0.300065 2.275846 57 76 91
0.083186 -0.299140 2.281686 60 74 92
0.082281 -0.294209 2.256856 61 73 92
0.082415 -0.293010 2.260542 59 73 92
0.082704 -0.292350 2.268446 58 74 92
0.082261 -0.289109 2.256302 57 75 91
0.082254 -0.287410 2.256121 53 72 88
0.082015 -0.284903 2.249557 46 68 82
0.082033 -0.283294 2.250048 41 63 77
0.081866 -0.281051 2.245481 35 57 71
0.081933 -0.279611 2.247317 30 52 66
0.081718 -0.277210 2.241402 22 44 58
0.081614 -0.275195 2.238554 15 37 50
0.081444 -0.272964 2.233903 10 32 45
0.081272 -0.270730 2.229168 9 31 44
0.081259 -0.269032 2.228821 13 35 48
0.081252 -0.267354 2.228627 16 38 51
0.081302 -0.265862 2.230002 19 42 53
0.081275 -0.264117 2.229252 25 47 58
0.081299 -0.262541 2.229928 28 49 58
0.081288 -0.260850 2.229633 19 39 47
0.081272 -0.259141 2.229178 7 23 31
0.081381 -0.257831 2.232172 0 14 21
0.081590 -0.256832 2.237909 0 12 20
0.081408 -0.254600 2.232918 0 12 22
0.081314 -0.252650 2.230341 0 13 24
0.081284 -0.250900 2.229517 0 13 26
0.081229 -0.249075 2.228002 0 13 27
0.080838 -0.246229 2.217276 0 12 28
0.080865 -0.244663 2.218011 0 11 26
0.080901 -0.243124 2.218998 0 11 24
0.080736 -0.240984 2.214477 0 10 23
0.080521 -0.238701 2.208579 0 10 20
0.080255 -0.236279 2.201294 0 11 19
0.079483 -0.232386 2.180111 0 12 19
0.079904 -0.231988 2.191652 0 13 19
0.079826 -0.230135 2.189512 0 13 20
0.079884 -0.228676 2.191109 0 13 22
0.079740 -0.226640 2.187167 0 14 22
0.079458 -0.224217 2.179414 1 14 23
0.079428 -0.222517 2.178616 1 15 23
0.079340 -0.220653 2.176195 1 14 23
0.079464 -0.219378 2.179585 0 13 22
0.079617 -0.218178 2.183777 0 13 21
0.079680 -0.216728 2.185508 0 13 21
0.079542 -0.214732 2.181727 0 12 20
0.079520 -0.213052 2.181118 0 11 20
0.080538 -0.214140 2.209055 0 11 19
0.080706 -0.211299 2.213662 0 11 19
0.080292 -0.208580 2.202314 0 11 17
0.080084 -0.206407 2.196599 0 10 16
0.080188 -0.205040 2.199438 0 10 16
0.080181 -0.203389 2.199249 0 9 16
0.080016 -0.201340 2.194724 0 8 13
0.079787 -0.199138 2.188445 0 7 13
0.079498 -0.196798 2.180520 0 6 12
0.079657 -0.195568 2.184879 0 5 11
0.079620 -0.193855 2.183860 0 4 8
0.079869 -0.192834 2.190689 0 3 8
0.080039 -0.191615 2.195371 0 2 7
0.080219 -0.190411 2.200300 0 2 6
0.079872 -0.187961 2.190793 0 2 6
0.079810 -0.186189 2.189088 0 2 6
0.079854 -0.184664 2.190284 0 2 6
0.080018 -0.183413 2.194780 0 2 6
0.079968 -0.181670 2.193426 1 1 6
0.079907 -0.179902 2.191735 1 1 7
0.080024 -0.178536 2.194946 1 1 7
0.080042 -0.176946 2.195450 1 2 7
0.080088 -0.175416 2.196706 1 2 7
0.080228 -0.174087 2.200536 1 2 7
0.080251 -0.172502 2.201173 1 2 7
0.080171 -0.170697 2.198982 1 2 7
0.079983 -0.168668 2.193835 1 2 7
0.080440 -0.167992 2.206353 1 2 7
0.080942 -0.167392 2.220136 1 2 7
0.081240 -0.166352 2.228295 1 2 7
0.081717 -0.165664 2.241375 1 2 7
0.081557 -0.163679 2.237007 1 2 7
0.081450 -0.161805 2.234074 1 2 7
0.081117 -0.159490 2.224922 1 2 6
0.081038 -0.157684 2.222760 0 1 3
0.081422 -0.156772 2.233292 0 1 3
0.081462 -0.155189 2.234381 0 0 4
0.081044 -0.152743 2.222930 0 0 7
0.081131 -0.151253 2.225309 0 1 9
0.081486 -0.150255 2.235051 0 1 12
0.081194 -0.148063 2.227050 0 0 13
0.081056 -0.146159 2.223248 1 0 13
0.079854 -0.142365 2.190284 1 0 14
0.080609 -0.142069 2.210988 6 8 23
0.080939 -0.141002 2.220051 21 33 46
0.080980 -0.139423 2.221169 52 73 85
0.080084 -0.134618 2.196599 68 100 115
0.078519 -0.130388 2.153682 70 101 118
0.077703 -0.127450 2.131295 89 120 140
0.077230 -0.125100 2.118314 95 126 147
0.077520 -0.123991 2.126282 88 118 139
0.077679 -0.122662 2.130635 80 108 127
0.077320 -0.120519 2.120774 69 96 114
0.077679 -0.119497 2.130635 55 80 96
0.077731 -0.117993 2.132051 39 63 79
0.077678 -0.116331 2.130609 29 51 65
0.077880 -0.115046 2.136140 25 47 61
0.077644 -0.113115 2.129658 26 45 59
0.077643 -0.111532 2.129637 23 42 56
0.077722 -0.110063 2.131819 19 37 51
0.077680 -0.108420 2.130654 16 34 47
0.077605 -0.106735 2.128606 15 32 43
0.077471 -0.104972 2.124923 15 29 40
0.077252 -0.103101 2.118906 13 26 36
0.077471 -0.101816 2.124937 10 23 31
0.077701 -0.100534 2.131222 10 25 28
0.077705 -0.098957 2.131351 8 22 23
0.077772 -0.097458 2.133185 5 17 18
0.077797 -0.095904 2.133866 2 10 13
0.077841 -0.094372 2.135078 0 6 10
0.077761 -0.092692 2.132891 0 2 8
0.077756 -0.091101 2.132738 0 2 6
0.077537 -0.089264 2.126729 0 2 5
0.077467 -0.087606 2.124820 0 4 3
0.077292 -0.085834 2.120026 2 10 12
0.077617 -0.084612 2.128920 10 20 28
0.077712 -0.083133 2.131535 18 32 45
0.077977 -0.081828 2.138797 22 39 57
0.077764 -0.080021 2.132971 22 41 60
0.077995 -0.078669 2.139290 20 41 58
0.077869 -0.076955 2.135836 19 42 56
0.077661 -0.075167 2.130127 23 45 59
0.077705 -0.073628 2.131357 23 45 59
0.077757 -0.072093 2.132782 23 45 59
0.077670 -0.070429 2.130379 24 46 60
0.077365 -0.068577 2.122021 25 47 61
0.077428 -0.067055 2.123747 26 48 62
0.077250 -0.065327 2.118852 26 48 62
0.077427 -0.063899 2.123730 26 48 62
0.077890 -0.062694 2.136420 27 48 64
0.077648 -0.060918 2.129786 30 51 68
0.077819 -0.059466 2.134458 36 57 74
0.077731 -0.057815 2.132051 42 63 80
0.077869 -0.056332 2.135836 46 67 84
0.078177 -0.054962 2.144282 49 70 87
0.078278 -0.053438 2.147073 49 70 87
0.078146 -0.051756 2.143448 50 71 89
0.077635 -0.049836 2.129438 44 66 89
0.077800 -0.048356 2.133942 44 69 91
0.077666 -0.046691 2.130262 45 69 90
0.078016 -0.045312 2.139873 42 65 81
0.078146 -0.043796 2.143448 37 60 74
0.077849 -0.042043 2.135295 31 53 65
0.078037 -0.040555 2.140463 21 40 49
0.078350 -0.039121 2.149037 10 27 33
0.077506 -0.037121 2.125885 1 16 21
0.077588 -0.035579 2.128134 0 9 15
0.077451 -0.033939 2.124386 0 6 18
0.077142 -0.032231 2.115908 0 11 31
0.076160 -0.030270 2.088974 7 22 48
0.076165 -0.028720 2.089098 18 34 60
0.075822 -0.027046 2.079685 21 41 65
0.075517 -0.025398 2.071332 18 43 65
0.075394 -0.023821 2.067962 35 63 84
0.075239 -0.022239 2.063692 42 72 93
0.075246 -0.020708 2.063906 52 82 103
0.075141 -0.019148 2.061009 57 85 108
0.075223 -0.017637 2.063270 53 80 105
0.075011 -0.016059 2.057458 47 75 100
0.074952 -0.014519 2.055833 46 70 97
0.075009 -0.013002 2.057409 47 69 97
0.074752 -0.011435 2.050334 38 57 85
0.074865 -0.009927 2.053435 38 55 82
0.074745 -0.008388 2.050143 36 51 77
0.074710 -0.006862 2.049197 30 46 71
0.074530 -0.005327 2.044254 25 39 64
0.074376 -0.003801 2.040046 20 34 59
0.074344 -0.002285 2.039162 16 30 56
0.074141 -0.000768 2.033592 14 27 52
0.074014 0.000741 2.030100 8 19 42
0.073995 0.002249 2.029589 3 14 34
0.073830 0.003748 2.025044 0 9 29
0.073634 0.005238 2.019683 0 8 27
0.073344 0.006712 2.011740 0 8 27
0.073065 0.008175 2.004064 0 7 26
0.073604 0.009735 2.018846 0 7 25
0.073420 0.011206 2.013814 0 9 27
0.073266 0.012675 2.009594 0 9 26
0.072915 0.014100 1.999950 8 20 37
0.072443 0.015485 1.987012 17 29 45
0.072534 0.016982 1.989500 18 28 43
0.072600 0.018476 1.991329 15 25 37
0.072468 0.019919 1.987707 10 19 30
0.072690 0.021461 1.993795 3 11 20
0.072961 0.023027 2.001209 0 5 13
0.072910 0.024497 1.999830 0 6 14
0.073060 0.026036 2.003945 0 6 14
0.073032 0.027514 2.003166 0 6 14
0.073306 0.029110 2.010691 0 6 12
0.073260 0.030585 2.009429 0 5 11
0.073207 0.032054 2.007974 0 4 10
0.072828 0.034855 1.997574 0 3 10
0.072352 0.037576 1.984523 0 2 7
0.072371 0.039060 1.985049 0 2 7
0.072161 0.040417 1.979278 0 2 6
0.072368 0.043482 1.984964 0 2 6
0.072233 0.044872 1.981249 0 2 7
0.072345 0.046416 1.984330 0 2 7
0.072669 0.074753 1.993208 0 1 3
0.072264 0.078753 1.982101 1 2 4
0.071609 0.080957 1.964142 0 1 5
0.070990 0.081703 1.947161 0 1 6
0.070666 0.085650 1.938287 0 0 8
0.071583 0.088219 1.963424 0 0 8
0.069199 0.089511 1.898030 0 1 6
0.070173 0.093630 1.924760 1 1 9
0.069873 0.094654 1.916531 1 1 9
0.070140 0.096445 1.923859 1 1 9
0.070313 0.098114 1.928585 1 1 9
0.070304 0.099533 1.928331 1 1 9
0.070307 0.100971 1.928431 1 1 9
0.070217 0.102272 1.925950 1 1 8
0.070220 0.103707 1.926039 1 2 7
0.070181 0.105079 1.924972 1 2 7
0.070272 0.112374 1.927478 0 2 7
0.067477 0.113404 1.850812 1 6 12
0.067609 0.116380 1.854427 1 6 12
0.067325 0.117263 1.846637 1 6 12
0.067331 0.118644 1.846789 1 6 12
0.067532 0.121751 1.852324 1 6 10
0.067536 0.123133 1.852412 1 6 10
0.067740 0.124886 1.858017 1 5 10
0.067238 0.125330 1.844249 1 5 9
0.067337 0.126886 1.846954 0 4 9
0.068105 0.129722 1.868040 0 3 8
0.067632 0.134331 1.855050 0 1 6
0.067576 0.135598 1.853530 0 0 6
0.067645 0.137115 1.855423 0 0 6
0.067528 0.138253 1.852206 0 0 7
0.067361 0.139282 1.847610 0 0 8
0.067362 0.140657 1.847652 0 0 6
0.067329 0.141960 1.846745 0 1 5
0.067154 0.142960 1.841951 0 1 3
0.067215 0.144458 1.843611 0 1 2
0.067252 0.145908 1.844629 0 1 0
0.067607 0.148055 1.854356 0 2 0
0.067480 0.149153 1.850892 0 2 0
0.069708 0.159759 1.912010 0 0 0
0.069336 0.160318 1.901795 0 0 0
0.067745 0.158018 1.858143 0 0 0
0.067647 0.159170 1.855477 0 0 0
0.068694 0.163032 1.884190 0 0 0
0.069042 0.165265 1.893734 0 0 0
0.068510 0.165386 1.879127 0 0 0
0.066872 0.164157 1.834204 0 1 0
0.069801 0.174193 1.914560 0 2 0
0.069601 0.175111 1.909073 0 2 0
0.066843 0.174981 1.833423 0 1 0
0.067044 0.176872 1.838921 0 0 0
0.066988 0.178089 1.837381 0 0 2
0.067048 0.179614 1.839031 0 0 2
0.066872 0.180505 1.834204 0 0 2
0.066935 0.182039 1.835927 0 0 2
0.067064 0.183756 1.839467 0 0 2
0.066942 0.184787 1.836131 0 0 2
0.066905 0.186049 1.835127 0 0 2
0.066731 0.186923 1.830340 0 1 3
0.066686 0.188157 1.829118 0 1 3
0.066731 0.189642 1.830340 0 1 3
0.066551 0.190486 1.825402 0 1 3
0.066624 0.192054 1.827420 0 1 3
0.066957 0.194378 1.836550 0 1 3
0.067166 0.196351 1.842266 0 1 3
0.067104 0.197537 1.840568 0 1 3
0.067508 0.200102 1.851655 0 1 3
0.067876 0.203959 1.861748 0 1 5
0.067714 0.204852 1.857304 0 1 5
0.067562 0.205769 1.853143 0 1 5
0.067541 0.207080 1.852559 0 1 5
0.067588 0.208601 1.853847 0 1 5
0.067736 0.210438 1.857903 0 1 5
0.061592 -0.376937 1.655667 207 201 208
0.127292 -0.773925 3.421730 207 201 206
0.126698 -0.767786 3.405773 209 201 206
0.122049 -0.732300 3.280792 210 201 204
0.065920 -0.394205 1.771984 210 200 204
0.066059 -0.393720 1.775730 209 200 203
0.066378 -0.394299 1.784319 209 200 203
0.114782 -0.679532 3.085452 209 200 203
0.116300 -0.686199 3.126267 209 200 203
0.132973 -0.776607 3.574448 207 198 201
0.132374 -0.767820 3.558336 207 198 201
0.133061 -0.769150 3.576810 207 198 201
0.122902 -0.698157 3.303729 207 198 202
0.069070 -0.386840 1.856658 207 198 203
0.133308 -0.709359 3.583452 207 198 201
0.073935 -0.390471 1.987449 207 198 201
0.073866 -0.388631 1.985590 207 198 201
0.133082 -0.692212 3.577367 206 197 200
0.132539 -0.686744 3.562787 206 197 200
0.133042 -0.686695 3.576313 206 197 200
0.134102 -0.689487 3.604799 206 197 200
0.133213 -0.679596 3.580898 206 197 200
0.119874 -0.594794 3.222340 206 197 198
0.118614 -0.586170 3.188452 206 197 198
0.120047 -0.586064 3.226989 206 197 197
0.119269 -0.579883 3.206067 206 197 196
0.133759 -0.642324 3.595588 206 198 195
0.067294 -0.321806 1.808922 206 198 195
0.212487 -0.982195 5.711856 206 198 195
0.073249 -0.335662 1.969018 206 197 197
0.072942 -0.332798 1.960764 206 197 197
0.073767 -0.335088 1.982929 206 197 197
0.073249 -0.331274 1.969018 206 197 196
0.087061 -0.327682 2.340283 113 119 126
0.086305 -0.317944 2.319961 60 77 85
0.084976 -0.311351 2.284235 65 81 91
0.083526 -0.304372 2.245265 66 84 93
0.083748 -0.303509 2.251237 62 80 90
0.084242 -0.303616 2.264504 55 77 88
0.084592 -0.301499 2.273910 55 79 92
0.084381 -0.299062 2.268241 57 78 92
0.084821 -0.298928 2.280064 59 75 93
0.084929 -0.297615 2.282985 59 73 93
0.084530 -0.292842 2.272264 58 74 92
0.084121 -0.289744 2.261261 56 74 90
0.083926 -0.287396 2.256010 52 73 87
0.083892 -0.285603 2.255090 45 67 81
0.083786 -0.283573 2.252264 40 62 76
0.083657 -0.281466 2.248796 33 55 69
0.083700 -0.279938 2.249941 26 48 62
0.083552 -0.277775 2.245965 16 38 52
0.083455 -0.275785 2.243351 6 28 41
0.083249 -0.273442 2.237807 0 21 34
0.083023 -0.271042 2.231733 0 19 33
0.082802 -0.268669 2.225810 0 21 34
0.082820 -0.267073 2.226288 2 23 37
0.082815 -0.265402 2.226140 4 25 37
0.082882 -0.263964 2.227962 9 30 40
0.082978 -0.262612 2.230536 16 37 46
0.082919 -0.260769 2.228942 19 38 46
0.082825 -0.258821 2.226429 11 29 37
0.083180 -0.258268 2.235954 3 16 24
0.083155 -0.256532 2.235295 0 9 17
0.083058 -0.254575 2.232696 0 11 21
0.083124 -0.253115 2.234447 0 13 25
0.083010 -0.251112 2.231396 0 13 26
0.082918 -0.249177 2.228918 1 13 27
0.082679 -0.246808 2.222493 0 12 28
0.082563 -0.244814 2.219380 0 12 27
0.082493 -0.242960 2.217501 0 11 25
0.082394 -0.241022 2.214827 0 11 24
0.082178 -0.238749 2.209023 0 11 22
0.082255 -0.237331 2.211096 0 11 19
0.082403 -0.236113 2.215074 0 12 18
0.081256 -0.231203 2.184234 0 12 18
0.081148 -0.229277 2.181347 0 12 19
0.081312 -0.228115 2.185735 0 13 21
0.081069 -0.225817 2.179230 1 14 22
0.080857 -0.223611 2.173522 1 14 22
0.080789 -0.221810 2.171688 2 15 23
0.080528 -0.219484 2.164663 1 14 22
0.080906 -0.218901 2.174839 0 12 20
0.081522 -0.217312 2.191397 0 11 18
0.081220 -0.214884 2.183268 0 11 17
0.081294 -0.213457 2.185257 0 9 18
0.082216 -0.214236 2.210039 0 9 18
0.082519 -0.213378 2.218189 0 8 18
0.082523 -0.211740 2.218289 0 9 18
0.081481 -0.207440 2.190284 0 11 19
0.081765 -0.206531 2.197924 0 10 17
0.081774 -0.204922 2.198174 1 10 17
0.081872 -0.203532 2.200803 1 9 16
0.081646 -0.201340 2.194724 1 8 14
0.081232 -0.198698 2.183604 1 7 13
0.080833 -0.196108 2.172875 1 6 12
0.081174 -0.195315 2.182048 1 6 11
0.081619 -0.194755 2.194003 1 4 9
0.081388 -0.192578 2.187786 1 4 9
0.081713 -0.191715 2.196517 0 3 8
0.081757 -0.190188 2.197723 0 2 7
0.081635 -0.188274 2.194439 1 2 6
0.081536 -0.186416 2.191757 1 2 6
0.081446 -0.184586 2.189363 1 2 6
0.081464 -0.182999 2.189823 1 1 6
0.081838 -0.182206 2.199897 1 1 7
0.081863 -0.180626 2.200548 1 1 7
0.081991 -0.179273 2.204006 1 2 7
0.082042 -0.177745 2.205371 1 2 7
0.082079 -0.176186 2.206353 1 2 7
0.082055 -0.174497 2.205725 1 2 7
0.082027 -0.172800 2.204978 1 2 7
0.081893 -0.170881 2.201355 1 2 7
0.081576 -0.168591 2.192832 1 2 7
0.081985 -0.167801 2.203848 1 2 7
0.082052 -0.166300 2.205646 1 2 7
0.082190 -0.164938 2.209355 1 2 7
0.082619 -0.164150 2.220893 1 2 7
0.082630 -0.162521 2.221169 1 2 7
0.082602 -0.160817 2.220423 1 1 7
0.082340 -0.158663 2.213391 1 1 6
0.082043 -0.156453 2.205402 0 1 3
0.082691 -0.156036 2.222808 0 1 3
0.083146 -0.155236 2.235051 0 0 4
0.082356 -0.152116 2.213816 0 0 6
0.082109 -0.150020 2.207163 0 0 11
0.082381 -0.148872 2.214477 0 0 12
0.082031 -0.146602 2.205067 0 0 15
0.081756 -0.144478 2.197671 1 0 15
0.081789 -0.142903 2.198566 1 0 15
0.081853 -0.141382 2.200300 5 7 24
0.081985 -0.139972 2.203827 20 33 47
0.081704 -0.137861 2.196282 53 74 87
0.081981 -0.136692 2.203738 77 106 118
0.081185 -0.133744 2.182336 74 107 121
0.079845 -0.129942 2.146317 76 108 125
0.078819 -0.126699 2.118736 95 128 147
0.079034 -0.125466 2.124519 94 125 146
0.079738 -0.124992 2.143448 82 111 133
0.079157 -0.122500 2.127808 69 96 117
0.078867 -0.120476 2.120014 60 86 105
0.079265 -0.119502 2.130718 50 74 91
0.079062 -0.117618 2.125270 35 58 74
0.079586 -0.116809 2.139364 25 47 61
0.079353 -0.114881 2.133082 22 44 58
0.079253 -0.113154 2.130389 24 43 57
0.079285 -0.111617 2.131260 21 40 54
0.079470 -0.110291 2.136236 18 36 50
0.079243 -0.108393 2.130127 16 33 46
0.079110 -0.106633 2.126568 15 31 42
0.079023 -0.104938 2.124231 13 27 38
0.078964 -0.103283 2.122645 10 23 33
0.078913 -0.101639 2.121251 7 19 27
0.079320 -0.100580 2.132202 8 23 26
0.079379 -0.099071 2.133796 5 20 21
0.079268 -0.097348 2.130792 2 15 15
0.079678 -0.096261 2.141813 0 8 10
0.079647 -0.094634 2.140996 0 4 8
0.079217 -0.092541 2.129438 0 2 7
0.079738 -0.091558 2.143448 0 2 6
0.079753 -0.089983 2.143851 0 2 3
0.078993 -0.087548 2.123416 0 4 3
0.079200 -0.086196 2.128963 5 13 14
0.079027 -0.084430 2.124322 15 25 33
0.079345 -0.083186 2.132881 23 36 51
0.079787 -0.082056 2.144758 24 41 60
0.079445 -0.080118 2.135575 21 41 61
0.079512 -0.078597 2.137354 19 41 58
0.079430 -0.076930 2.135147 19 41 56
0.079774 -0.075671 2.144403 22 44 58
0.079607 -0.073924 2.139928 23 45 59
0.079155 -0.071923 2.127777 23 45 59
0.079301 -0.070472 2.131685 23 45 59
0.078999 -0.068627 2.123582 24 46 60
0.078701 -0.066797 2.115569 25 47 61
0.078691 -0.065217 2.115304 26 48 62
0.079496 -0.062709 2.136920 27 48 65
0.079858 -0.058212 2.146661 40 61 78
0.080040 -0.056746 2.151567 45 66 83
0.079854 -0.055020 2.146560 48 69 86
0.079984 -0.053513 2.150061 49 70 87
0.080084 -0.051980 2.152736 50 72 90
0.079946 -0.050295 2.149037 44 69 91
0.079244 -0.045106 2.130163 41 66 84
0.079829 -0.043845 2.145882 36 61 76
0.079919 -0.039108 2.148307 10 27 34
0.078595 -0.036890 2.112703 4 19 24
0.079155 -0.035573 2.127777 0 11 17
