ply
format ascii 1.0
element vertex 1280
property float x
property float y
property float z
property uchar red
property uchar green
property uchar blue
end_header
0.029903 -0.149668 2.356504 206 198 196
0.029877 -0.147791 2.354480 206 198 196
0.029821 -0.145765 2.350008 206 198 196
0.029854 -0.144179 2.352604 206 198 196
0.029849 -0.142411 2.352275 206 198 196
0.029768 -0.140282 2.345891 206 198 195
0.029896 -0.133886 2.355982 206 199 189
0.029849 -0.131927 2.352265 206 199 189
0.027276 -0.109376 2.149443 204 196 193
0.027252 -0.107688 2.147623 204 196 193
0.027269 -0.106157 2.148905 204 196 193
0.027297 -0.104668 2.151114 204 196 193
0.027380 -0.103385 2.157682 204 196 194
0.028018 -0.100875 2.207973 201 193 190
0.028009 -0.099201 2.207229 202 194 191
0.028025 -0.097618 2.208503 203 195 192
0.028001 -0.095894 2.206585 204 196 193
0.028037 -0.094377 2.209428 205 197 194
0.028188 -0.093237 2.221378 206 198 195
0.028263 -0.091831 2.227291 206 198 195
0.028303 -0.090301 2.230372 205 197 194
0.028379 -0.088883 2.236363 206 198 195
0.028289 -0.086945 2.229282 207 199 196
0.028284 -0.085276 2.228935 207 199 196
0.028289 -0.083634 2.229284 205 197 194
0.028354 -0.082166 2.234392 203 195 192
0.028364 -0.080535 2.235202 201 193 190
0.028273 -0.078622 2.228027 201 193 190
0.028254 -0.076915 2.226533 202 194 191
0.028259 -0.075276 2.226969 202 194 191
0.028281 -0.073679 2.228693 202 194 191
0.028238 -0.071914 2.225293 202 194 191
0.028259 -0.070313 2.226936 201 193 190
0.028291 -0.068738 2.229493 201 193 190
0.028301 -0.067106 2.230288 201 193 190
0.028438 -0.065765 2.241052 201 193 190
0.028339 -0.063878 2.233272 201 193 190
0.028293 -0.062116 2.229590 201 193 190
0.028214 -0.060293 2.223408 201 193 190
0.028186 -0.058584 2.221225 201 193 190
0.028042 -0.056642 2.209828 201 193 190
0.027842 -0.054608 2.194068 201 193 190
0.027794 -0.052887 2.190284 201 193 190
0.027828 -0.051322 2.192945 201 193 190
0.027701 -0.049467 2.182945 201 193 190
0.027643 -0.047746 2.178384 201 193 190
0.027675 -0.046182 2.180946 201 193 190
0.027847 -0.044839 2.194490 201 193 190
0.027901 -0.043291 2.198691 201 193 190
0.027972 -0.041765 2.204332 201 193 190
0.028160 -0.040397 2.219146 201 193 190
0.028201 -0.038805 2.222357 201 193 190
0.028147 -0.037084 2.218119 201 193 190
0.028042 -0.035304 2.209828 201 193 190
0.028057 -0.033680 2.210988 201 193 190
0.028016 -0.031992 2.207826 201 193 190
0.027998 -0.030332 2.206353 201 193 190
0.028027 -0.028723 2.208688 201 193 190
0.028020 -0.027076 2.208114 201 192 190
0.028032 -0.025446 2.209055 202 191 188
0.027733 -0.021928 2.185508 201 191 189
0.027906 -0.018798 2.199093 200 191 190
0.027504 -0.015307 2.167421 201 191 189
0.027444 -0.013668 2.162718 201 191 189
0.027229 -0.011967 2.145742 202 192 189
0.026869 -0.010236 2.117393 203 194 190
0.027493 -0.007255 2.166613 197 196 193
0.027484 -0.005644 2.165881 190 195 194
0.027346 -0.004015 2.154968 171 181 183
0.026912 -0.002376 2.120774 133 148 152
0.026704 -0.000795 2.104371 91 109 118
0.026601 0.000766 2.096264 67 86 104
0.026634 0.002326 2.098912 56 76 102
0.026624 0.003883 2.098126 51 73 103
0.026621 0.005441 2.097888 56 82 113
0.026505 0.006969 2.088700 72 102 136
0.026424 0.008494 2.082347 87 119 155
0.026412 0.010036 2.081359 89 122 159
0.026452 0.011600 2.084563 82 114 153
0.026493 0.013168 2.087759 80 113 152
0.026536 0.014743 2.091186 80 111 150
0.026469 0.016255 2.085910 75 104 142
0.026404 0.017761 2.080736 70 97 135
0.026239 0.019185 2.067738 67 94 132
0.026225 0.020711 2.066664 66 92 130
0.026168 0.022197 2.062147 63 90 128
0.026288 0.023838 2.071632 61 89 123
0.026262 0.025351 2.069560 54 81 110
0.026032 0.026653 2.051409 46 73 99
0.026094 0.028244 2.056336 37 64 87
0.025897 0.029546 2.040770 26 53 74
0.025864 0.031022 2.038167 16 42 62
0.025698 0.032327 2.025087 10 34 53
0.025602 0.033706 2.017553 7 30 48
0.025666 0.035293 2.022629 7 29 47
0.025746 0.036910 2.028940 7 28 47
0.025836 0.038550 2.035990 10 29 49
0.025668 0.039803 2.022793 7 25 46
0.025460 0.040970 2.006348 1 19 41
0.025397 0.042355 2.001389 13 31 53
0.025222 0.045016 1.987609 40 60 82
0.025546 0.053070 2.013112 0 5 10
0.025427 0.058776 2.003732 1 2 4
0.025416 0.061726 2.002884 0 1 3
0.025695 0.063909 2.024892 0 1 4
0.025888 0.065904 2.040109 0 1 5
0.025779 0.067135 2.031506 0 1 5
0.025222 0.071590 1.987609 1 1 6
0.025214 0.073042 1.986953 1 2 7
0.025188 0.074442 1.984932 1 2 7
0.025635 0.089267 2.020140 0 2 10
0.025598 0.090638 2.017254 0 2 11
0.025542 0.091933 2.012791 0 3 14
0.025486 0.093224 2.008415 0 5 17
0.025449 0.094578 2.005475 0 6 20
0.025369 0.095765 1.999171 0 7 22
0.025419 0.097442 2.003114 1 13 29
0.025270 0.098350 1.991370 6 22 38
0.024852 0.099635 1.958484 9 30 44
0.024851 0.101084 1.958381 8 31 45
0.024770 0.102206 1.952018 7 30 44
0.024909 0.104237 1.962958 4 28 40
0.024921 0.105745 1.963900 3 25 37
0.025254 0.108636 1.990124 2 22 33
0.025243 0.110066 1.989253 0 18 28
0.025410 0.112281 2.002401 0 15 25
0.025385 0.113659 2.000484 0 13 23
0.025447 0.115426 2.005370 0 12 21
0.025186 0.115716 1.984798 1 10 21
0.025168 0.117105 1.983349 0 8 20
0.025198 0.118721 1.985734 1 8 17
0.025156 0.119996 1.982444 1 8 15
0.025157 0.121470 1.982462 0 6 12
0.025144 0.122882 1.981484 0 5 11
0.024928 0.123283 1.964424 0 4 9
0.024760 0.123901 1.951186 0 4 8
0.024930 0.126215 1.964635 0 3 8
0.025011 0.129551 1.970993 0 2 7
0.025335 0.132710 1.996491 0 1 6
0.025296 0.133988 1.993437 0 1 6
0.025131 0.134587 1.980469 0 1 6
0.025084 0.135801 1.976722 0 1 6
0.025193 0.137865 1.985299 0 1 6
0.025200 0.139383 1.985916 0 1 6
0.025206 0.140889 1.986359 0 1 6
0.025214 0.142408 1.986969 0 1 5
0.025186 0.143724 1.984757 0 1 5
0.025363 0.146222 1.998756 0 1 5
0.025007 0.147096 1.970677 0 1 5
0.025056 0.148852 1.974558 0 1 5
0.025021 0.150107 1.971784 0 1 4
0.025099 0.152042 1.977898 0 1 3
0.024958 0.152650 1.966810 0 0 2
0.024756 0.152865 1.950909 0 0 2
0.024849 0.154892 1.958207 0 0 2
0.024952 0.159917 1.966342 0 0 0
0.024719 0.159872 1.947993 0 0 0
0.024732 0.161399 1.948964 0 0 0
0.024396 0.160634 1.922487 0 0 1
0.024791 0.164689 1.953643 0 1 1
0.025142 0.169961 1.981277 0 1 1
0.025085 0.171046 1.976805 0 1 1
0.024981 0.171798 1.968593 0 1 3
0.025026 0.173571 1.972131 0 1 3
0.025234 0.176493 1.988548 0 1 3
0.024931 0.177290 1.964648 1 2 6
0.025043 0.179558 1.973535 1 2 6
0.025081 0.181297 1.976505 1 2 6
0.024972 0.181972 1.967928 1 2 6
0.024680 0.182730 1.944881 1 2 7
0.024633 0.183828 1.941229 0 1 7
0.024669 0.185535 1.944005 0 1 7
0.024092 0.184021 1.898592 1 2 7
0.024071 0.185268 1.896920 1 2 7
0.024881 0.194417 1.960764 1 2 7
0.025131 0.197836 1.980410 1 2 7
0.025355 0.204052 1.998064 1 1 8
0.025404 0.205933 2.001931 1 1 9
0.025342 0.206913 1.997038 1 1 9
0.025263 0.207748 1.990819 1 1 9
0.025154 0.208326 1.982249 1 1 9
0.025133 0.209623 1.980596 1 1 9
0.024659 0.207113 1.943240 1 1 9
0.024283 0.205373 1.913582 1 1 9
0.024239 0.206422 1.910137 1 1 7
0.024127 0.206878 1.901283 1 2 7
0.024055 0.207671 1.895633 1 2 7
0.024010 0.208686 1.892070 1 2 7
0.024046 0.210414 1.894973 1 2 7
0.024183 0.214440 1.905735 1 2 7
0.024307 0.216961 1.915499 1 2 7
0.185319 -3.140964 13.796432 209 204 208
0.021204 -0.358214 1.578578 209 204 208
0.042645 -0.715722 3.174823 209 204 208
0.042734 -0.714852 3.181449 209 204 207
0.042697 -0.711872 3.178695 209 205 206
0.042755 -0.710473 3.183002 209 205 205
0.042713 -0.707407 3.179847 209 205 205
0.042743 -0.705549 3.182120 209 205 205
0.042748 -0.703255 3.182438 209 205 205
0.042713 -0.697969 3.179893 209 205 205
0.025496 -0.415208 1.898081 209 204 205
0.025680 -0.416788 1.911793 211 203 207
0.043171 -0.695901 3.213975 211 201 209
0.044091 -0.708283 3.282420 210 200 208
0.044534 -0.712941 3.315422 209 199 207
0.044187 -0.704950 3.289621 209 199 206
0.043464 -0.691007 3.235773 208 199 204
0.043278 -0.685656 3.221921 208 199 203
0.044912 -0.701608 3.343562 210 201 204
0.026436 -0.410059 1.968097 210 201 204
0.026215 -0.405172 1.951599 210 201 204
0.028035 -0.422451 2.087095 210 202 200
0.028033 -0.420883 2.087008 210 202 200
0.028045 -0.419502 2.087852 210 201 200
0.119928 -1.740872 8.928319 210 201 204
0.120780 -1.713164 8.991737 208 199 201
0.028029 -0.391371 2.086694 208 199 199
0.121405 -1.668317 9.038238 208 200 198
0.121011 -1.649520 9.008904 208 200 198
0.030966 -0.387857 2.305332 205 196 196
0.032849 -0.393276 2.445508 207 199 196
0.032761 -0.390415 2.438984 207 199 195
0.034074 -0.381564 2.536711 206 198 196
0.034146 -0.380482 2.542071 206 198 196
0.034206 -0.371697 2.546565 205 197 195
0.034419 -0.370201 2.562393 205 197 195
0.034361 -0.367674 2.558054 205 197 195
0.031440 -0.322508 2.340580 207 199 199
0.031497 -0.321359 2.344877 207 198 199
0.028689 -0.283192 2.135836 207 198 203
0.028654 -0.281261 2.133224 207 198 202
0.028686 -0.279990 2.135620 205 198 198
0.034491 -0.321390 2.567776 187 187 182
0.031694 -0.276046 2.359524 114 118 127
0.031338 -0.269480 2.333020 108 116 126
0.031605 -0.264786 2.352902 103 113 122
0.031589 -0.262906 2.351722 93 103 112
0.031469 -0.260165 2.342766 83 93 101
0.031394 -0.257809 2.337189 79 89 97
0.031408 -0.256184 2.338199 78 89 94
0.031195 -0.252728 2.322397 78 90 95
0.031121 -0.250402 2.316844 80 94 98
0.030799 -0.246113 2.292910 83 97 104
0.030931 -0.245454 2.302706 80 94 104
0.030928 -0.243723 2.302516 77 91 105
0.030836 -0.241288 2.295620 73 86 101
0.030659 -0.238213 2.282492 67 80 96
0.030634 -0.236322 2.280605 60 74 92
0.030813 -0.236001 2.293949 57 71 90
0.030926 -0.235153 2.302331 57 72 91
0.030914 -0.233353 2.301445 58 73 93
0.031057 -0.230996 2.312072 60 77 94
0.031227 -0.228812 2.324782 52 71 86
0.030795 -0.218835 2.292620 46 65 80
0.030433 -0.214580 2.265667 44 62 75
0.030691 -0.214700 2.284853 44 60 73
0.030792 -0.213705 2.292390 46 60 73
0.030849 -0.212394 2.296622 42 56 69
0.030908 -0.211093 2.301032 34 48 60
0.030906 -0.209370 2.300890 25 39 50
0.031195 -0.209600 2.322369 20 34 44
0.031246 -0.208217 2.326194 18 32 42
0.031180 -0.206049 2.321234 14 30 37
0.031068 -0.203590 2.312884 13 29 35
0.031170 -0.202539 2.320524 17 32 36
0.031037 -0.199958 2.310613 22 36 39
0.031181 -0.199160 2.321315 24 37 39
0.031143 -0.197195 2.318484 20 31 32
0.031031 -0.194772 2.310169 16 26 26
0.031097 -0.193464 2.315060 16 26 25
0.031105 -0.191796 2.315680 24 32 33
0.031018 -0.189546 2.309219 32 40 42
0.030964 -0.187503 2.305189 41 49 50
0.030973 -0.185841 2.305817 57 65 65
0.031047 -0.184571 2.311364 77 86 85
0.031100 -0.183167 2.315315 99 107 107
0.031168 -0.181841 2.320341 124 129 128
0.031084 -0.179632 2.314077 145 148 147
0.031121 -0.178125 2.316844 165 165 164
0.031598 -0.177364 2.352394 190 185 184
0.031675 -0.176042 2.358089 198 193 190
0.031738 -0.174636 2.362766 202 196 193
0.031766 -0.173038 2.364907 203 195 192
0.031745 -0.171167 2.363332 204 196 193
0.031689 -0.169113 2.359159 205 197 194
0.031683 -0.167329 2.358723 206 198 195
0.031616 -0.165224 2.353696 206 198 196
0.028868 -0.147670 2.149109 206 198 196
0.031736 -0.160590 2.362676 206 198 196
0.031958 -0.159944 2.379165 206 198 196
0.031917 -0.157973 2.376098 206 198 196
0.031681 -0.155055 2.358563 206 198 196
0.031747 -0.153622 2.363477 206 198 196
0.031770 -0.151978 2.365203 206 198 196
0.031644 -0.149625 2.355825 206 198 196
0.031608 -0.147705 2.353102 206 198 196
0.031543 -0.145656 2.348250 206 198 196
0.031573 -0.144051 2.350527 206 198 196
0.031609 -0.142468 2.353213 206 198 196
0.031581 -0.140594 2.351102 206 198 195
0.031495 -0.133245 2.344715 206 199 188
0.031430 -0.131231 2.339857 206 199 188
0.028969 -0.116149 2.156624 206 199 191
0.028938 -0.114427 2.154359 205 198 191
0.028899 -0.112673 2.151428 204 197 191
0.028712 -0.108768 2.137486 204 196 193
0.028792 -0.107479 2.143448 204 196 193
0.028849 -0.106099 2.147735 204 196 193
0.028849 -0.104504 2.147735 204 196 193
0.028875 -0.103001 2.149660 204 196 194
0.028989 -0.101803 2.158132 202 194 192
0.029314 -0.101324 2.182336 201 193 190
0.029552 -0.100515 2.200094 202 194 191
0.029557 -0.098895 2.200421 203 195 192
0.029574 -0.097317 2.201703 204 196 193
0.029551 -0.095607 2.199978 206 198 195
0.029640 -0.094255 2.206592 207 199 196
0.029778 -0.093047 2.216858 208 200 197
0.029815 -0.091515 2.219623 209 201 198
0.029897 -0.090113 2.225716 211 203 200
0.029882 -0.088416 2.224627 211 203 200
0.029892 -0.086792 2.225343 211 203 200
0.029863 -0.085058 2.223224 212 204 201
0.029901 -0.083513 2.226073 211 203 200
0.029945 -0.081978 2.229284 210 202 199
0.029962 -0.080368 2.230561 210 202 199
0.029928 -0.078622 2.228038 208 200 197
0.029907 -0.076914 2.226495 205 197 194
0.029922 -0.075298 2.227600 204 196 193
0.029950 -0.073712 2.229697 204 196 193
0.029953 -0.072064 2.229924 202 194 191
0.030032 -0.070593 2.235806 201 193 190
0.030034 -0.068936 2.235925 200 192 189
0.030146 -0.067527 2.244297 200 192 189
0.030170 -0.065912 2.246053 200 192 189
0.030114 -0.064125 2.241919 201 193 190
0.030201 -0.062639 2.248343 201 193 190
0.030169 -0.060906 2.246014 201 193 190
0.030180 -0.059259 2.246830 201 193 190
0.029840 -0.056941 2.221488 201 193 190
0.029573 -0.054796 2.201602 201 193 190
0.029485 -0.053003 2.195080 201 193 190
0.029487 -0.051376 2.195221 201 193 190
0.029306 -0.049440 2.181771 201 193 190
0.029308 -0.046202 2.181896 201 193 190
0.029521 -0.044905 2.197754 201 193 190
0.029563 -0.043334 2.200849 201 193 190
0.029628 -0.041791 2.205721 201 193 190
0.029804 -0.040391 2.218802 201 193 190
0.029888 -0.038853 2.225085 201 193 190
0.029837 -0.037136 2.221256 201 193 190
0.029751 -0.035384 2.214860 201 193 190
0.029746 -0.033733 2.214477 201 193 190
0.029676 -0.030372 2.209285 201 193 190
0.029668 -0.028723 2.208668 201 193 190
0.029719 -0.027130 2.212522 201 192 190
0.029780 -0.025538 2.217028 202 191 188
0.029691 -0.023820 2.210408 202 191 188
0.029394 -0.021956 2.188291 202 191 189
0.029357 -0.018682 2.185508 201 191 191
0.029245 -0.016994 2.177201 200 191 191
0.029242 -0.015375 2.176992 201 191 190
0.029474 -0.008978 2.194279 205 199 194
0.029140 -0.007264 2.169371 186 185 182
0.028969 -0.005620 2.156624 154 161 161
0.028679 -0.003978 2.135038 120 134 139
0.028332 -0.002363 2.109245 86 107 115
0.028198 -0.000793 2.099268 56 81 96
0.028137 0.000765 2.094718 47 74 100
0.028272 0.002332 2.104800 54 81 115
0.028094 0.003871 2.091482 64 94 130
0.028142 0.005434 2.095111 75 109 145
0.027978 0.006949 2.082851 83 119 156
0.027886 0.008468 2.076028 85 121 159
0.028025 0.010060 2.086394 82 118 156
0.028025 0.011610 2.086375 77 111 151
0.028046 0.013169 2.087921 76 108 150
0.028057 0.014726 2.088751 75 105 148
0.028009 0.016250 2.085196 73 101 143
0.027923 0.017744 2.078792 72 97 139
0.027774 0.019185 2.067688 71 95 137
0.027736 0.020692 2.064829 69 94 136
0.027692 0.022191 2.061579 65 92 132
0.027750 0.023772 2.065938 62 90 126
0.027796 0.025348 2.069331 52 79 110
0.027744 0.026835 2.065481 44 71 97
0.027556 0.028177 2.051495 38 64 87
0.027389 0.029521 2.039035 28 55 76
0.027212 0.030835 2.025867 20 45 66
0.027144 0.032259 2.020813 14 37 56
0.027210 0.033842 2.025739 9 32 50
0.027090 0.035190 2.016768 7 29 46
0.027199 0.036836 2.024892 5 26 44
0.027342 0.038541 2.035505 4 25 44
0.027196 0.039840 2.024655 3 24 44
0.026906 0.040902 2.003055 0 20 41
0.026688 0.042047 1.986859 8 27 48
0.027177 0.047326 2.023270 20 37 55
0.027248 0.048956 2.028502 5 17 29
0.026881 0.052756 2.001194 0 3 7
0.027309 0.064167 2.033091 0 1 4
0.027350 0.065777 2.036154 0 1 5
0.027270 0.067091 2.030155 0 1 5
0.026578 0.071266 1.978618 1 1 6
0.026646 0.072923 1.983717 1 2 7
0.026669 0.074461 1.985422 1 2 7
0.026683 0.075975 1.986468 1 2 7
0.027106 0.089172 2.017990 0 2 10
0.027056 0.090502 2.014235 0 2 12
0.026932 0.091578 2.005027 0 3 15
0.026923 0.093035 2.004332 0 5 18
0.026868 0.094333 2.000279 0 6 22
0.026848 0.095747 1.998788 0 9 25
0.026728 0.096797 1.989855 2 15 30
0.026710 0.098207 1.988474 7 23 38
0.026191 0.099197 1.949867 8 29 43
0.026173 0.100573 1.948479 7 30 44
0.026325 0.102616 1.959852 7 31 43
0.026355 0.104189 1.962054 4 28 40
0.026493 0.106200 1.972338 3 26 37
0.026692 0.108471 1.987104 2 23 34
0.026724 0.110080 1.989513 0 19 30
0.026737 0.111611 1.990454 0 16 26
0.026855 0.113592 1.999299 1 15 25
0.026876 0.115165 2.000834 2 13 23
0.026854 0.116554 1.999171 2 11 23
0.026621 0.117018 1.981878 0 8 20
0.026612 0.118450 1.981211 1 8 17
0.026564 0.119703 1.977588 1 8 15
0.026596 0.121318 1.979975 0 6 12
0.026603 0.122822 1.980519 0 5 11
0.026447 0.125027 1.968903 0 3 8
0.026698 0.127691 1.987609 0 3 8
0.026439 0.127911 1.968286 0 3 8
0.026463 0.129494 1.970123 0 2 7
0.026747 0.132360 1.991228 0 1 6
0.026740 0.133804 1.990705 0 1 6
0.026837 0.135774 1.997926 0 1 6
0.026709 0.136604 1.988411 0 1 6
0.026641 0.137728 1.983335 0 1 6
0.026636 0.139175 1.982959 0 1 6
0.026636 0.140650 1.982992 0 1 6
0.026618 0.142024 1.981606 0 1 5
0.026637 0.143599 1.983039 0 1 5
0.026643 0.145108 1.983526 0 1 5
0.026751 0.147171 1.991498 0 1 5
0.026749 0.148640 1.991370 0 1 5
0.026445 0.148413 1.968741 0 1 5
0.026307 0.149095 1.958484 0 1 4
0.026393 0.151041 1.964882 0 1 3
0.026278 0.151835 1.956305 0 0 2
0.026107 0.153737 1.943604 0 0 2
0.026095 0.155106 1.942669 0 0 2
0.026281 0.159122 1.956573 0 0 0
0.026122 0.159601 1.944701 0 0 0
0.026195 0.161494 1.950113 0 0 0
0.026143 0.164065 1.946241 1 1 1
0.026588 0.169803 1.979432 1 1 1
0.026622 0.171491 1.981945 0 1 1
0.026663 0.173226 1.984958 0 1 3
0.026659 0.176149 1.984669 0 1 3
0.026862 0.178978 1.999810 0 1 3
0.026419 0.178946 1.966810 0 1 5
0.026592 0.181591 1.979709 0 1 6
0.026296 0.181025 1.957687 0 1 6
0.026273 0.182316 1.955936 0 1 6
0.025868 0.180936 1.925785 0 1 6
0.025807 0.181935 1.921231 0 0 8
0.025633 0.183548 1.908327 0 1 7
0.025363 0.183012 1.888173 1 2 7
0.025390 0.184615 1.890233 1 2 7
0.026303 0.194159 1.958165 1 2 7
0.026523 0.197251 1.974558 1 2 7
0.026802 0.200805 1.995302 1 2 7
0.026833 0.202526 1.997656 1 2 7
0.026886 0.204410 2.001574 1 1 8
0.026819 0.205381 1.996564 1 1 9
0.026800 0.206725 1.995218 1 1 9
0.026523 0.206051 1.974558 1 1 9
0.026490 0.207262 1.972131 1 1 9
0.026587 0.209486 1.979300 1 1 9
0.025874 0.205304 1.926266 1 1 9
0.025631 0.204789 1.908137 1 1 9
0.025603 0.205983 1.906071 1 1 7
0.025514 0.206678 1.899451 1 2 7
0.025462 0.207667 1.895593 1 2 7
0.025393 0.208502 1.890401 1 2 7
0.025481 0.210641 1.897019 1 2 7
0.025510 0.212290 1.899171 1 2 7
0.025601 0.214463 1.905944 1 2 7
0.025676 0.216507 1.911489 1 2 7
0.195566 -3.140964 13.796432 209 204 208
0.022377 -0.358214 1.578578 209 204 208
0.045001 -0.715680 3.174639 209 204 208
0.045086 -0.714669 3.180635 209 204 206
0.045062 -0.711930 3.178954 209 205 206
0.045122 -0.710516 3.183197 209 205 205
0.045081 -0.707498 3.180259 209 205 204
0.045099 -0.705427 3.181570 209 205 204
0.045116 -0.703330 3.182774 209 205 204
0.045070 -0.697884 3.179505 209 205 204
0.027616 -0.423273 1.948175 210 201 208
0.045446 -0.694189 3.206067 211 201 209
0.046097 -0.701709 3.251954 210 200 208
0.046356 -0.703228 3.270251 209 199 207
0.045781 -0.689711 3.229703 208 199 205
0.045553 -0.683877 3.213562 208 199 204
0.027810 -0.410225 1.961898 210 201 204
0.027685 -0.406920 1.953033 210 201 204
0.027575 -0.403867 1.945315 210 201 204
0.061877 -0.899778 4.365213 210 201 202
0.029618 -0.422929 2.089461 210 201 200
0.029606 -0.421203 2.088593 210 201 200
0.127815 -1.758126 9.016812 210 201 204
0.025355 -0.344777 1.788681 208 199 202
0.025395 -0.343988 1.791494 208 199 202
0.025402 -0.342763 1.792044 208 199 202
0.127258 -1.710457 8.977528 208 199 202
0.029578 -0.392900 2.086582 208 199 201
0.029572 -0.391270 2.086157 208 199 200
0.128574 -1.674248 9.070366 208 200 198
0.127165 -1.642574 8.970968 208 200 198
0.032630 -0.387280 2.301903 205 196 196
0.046045 -0.536850 3.248274 206 198 196
0.046162 -0.535794 3.256518 206 198 195
0.045948 -0.530910 3.241468 206 198 195
0.034241 -0.388462 2.415570 207 199 196
0.034157 -0.385723 2.409668 207 199 194
0.035948 -0.379576 2.536013 205 197 195
0.036026 -0.372845 2.541491 207 199 197
0.036011 -0.370798 2.540403 207 199 197
0.036093 -0.369756 2.546221 207 199 197
0.033234 -0.324797 2.344554 207 199 196
0.033104 -0.321786 2.335336 207 199 196
0.033145 -0.320454 2.338275 206 198 195
0.033226 -0.319488 2.343931 206 198 194
0.030276 -0.283192 2.135836 203 194 197
0.030229 -0.281171 2.132544 202 193 196
0.030242 -0.279708 2.133469 199 192 194
0.033787 -0.285937 2.383533 145 151 147
0.034037 -0.286268 2.401158 134 139 138
0.033296 -0.276551 2.348925 127 131 140
0.033187 -0.273907 2.341239 116 120 129
0.033250 -0.265711 2.345645 114 123 132
0.033124 -0.262972 2.336786 94 104 114
0.033138 -0.261345 2.337759 84 94 104
0.033172 -0.259872 2.340132 73 85 94
0.033064 -0.257296 2.332535 72 84 93
0.032963 -0.254786 2.325444 75 87 95
0.032869 -0.252332 2.318758 75 89 97
0.032719 -0.249467 2.308193 74 88 95
0.032553 -0.246498 2.296497 71 85 94
0.032596 -0.245113 2.299513 62 75 90
0.032555 -0.243102 2.296649 60 74 92
0.032466 -0.240737 2.290375 61 75 93
0.032253 -0.237465 2.275326 61 75 93
0.032361 -0.236562 2.282923 58 73 93
0.032399 -0.235145 2.285627 58 73 93
0.032310 -0.232807 2.279358 60 75 95
0.032653 -0.231854 2.303534 60 76 95
0.032587 -0.229679 2.298893 58 75 93
0.032853 -0.229832 2.317656 54 72 88
0.032687 -0.226960 2.305967 47 66 81
0.032384 -0.223158 2.284575 40 59 72
0.031993 -0.218785 2.256972 37 56 69
0.032153 -0.218199 2.268300 40 59 71
0.032116 -0.216263 2.265667 45 63 76
0.032021 -0.213944 2.258957 44 62 75
0.032282 -0.213996 2.277366 44 61 74
0.032358 -0.212802 2.282705 45 60 72
0.032543 -0.212314 2.295755 42 57 68
0.032535 -0.210560 2.295231 36 51 61
0.032648 -0.209578 2.303176 29 44 53
0.032780 -0.208707 2.312480 26 40 49
0.032879 -0.207614 2.319459 25 39 48
0.032865 -0.205805 2.318484 18 33 40
0.032773 -0.203514 2.312020 15 30 35
0.032905 -0.202608 2.321315 19 34 37
0.032897 -0.200834 2.320745 23 37 39
0.032912 -0.199202 2.321813 21 35 36
0.032632 -0.195798 2.302064 16 30 30
0.032911 -0.195746 2.321722 15 27 27
0.032777 -0.193231 2.312263 19 30 31
0.032719 -0.191178 2.308214 27 35 37
0.032737 -0.189567 2.309481 30 38 40
0.032737 -0.187852 2.309481 32 40 42
0.032672 -0.185764 2.304858 40 48 50
0.032733 -0.184400 2.309219 54 62 64
0.032764 -0.182856 2.311380 75 81 83
0.032764 -0.181139 2.311380 100 106 106
0.032726 -0.179212 2.308668 124 129 129
0.032783 -0.177809 2.312732 149 151 150
0.033025 -0.177392 2.329808 168 168 167
0.033022 -0.175645 2.329597 181 179 177
0.033306 -0.175411 2.349633 194 189 187
0.033366 -0.173978 2.353857 200 195 191
0.033459 -0.172709 2.360407 202 196 192
0.033478 -0.171054 2.361774 204 196 193
0.033370 -0.168753 2.354142 206 198 195
0.033501 -0.167656 2.363332 207 198 196
0.033482 -0.160544 2.362001 206 198 195
0.033634 -0.159511 2.372726 206 198 195
0.033533 -0.157275 2.365609 206 198 195
0.033329 -0.154571 2.351208 206 198 195
0.033397 -0.153140 2.356052 206 198 195
0.033460 -0.151675 2.360490 206 198 195
0.033405 -0.149674 2.356591 206 198 196
0.033358 -0.147714 2.353244 206 198 196
0.033324 -0.145820 2.350890 206 198 196
0.033351 -0.144187 2.352748 206 198 196
0.033405 -0.142674 2.356620 206 198 196
0.033437 -0.141056 2.358824 206 198 195
0.033075 -0.134331 2.333323 204 200 188
0.033131 -0.132823 2.337284 204 200 188
0.033100 -0.130963 2.335077 204 199 189
0.030538 -0.114426 2.154342 205 198 191
0.030353 -0.108962 2.141302 204 196 192
0.030361 -0.107399 2.141850 204 196 192
0.030456 -0.106138 2.148520 204 196 192
0.030409 -0.104382 2.145247 204 196 192
0.030501 -0.103101 2.151756 204 196 193
0.030550 -0.101665 2.155205 202 195 192
0.031310 -0.100911 2.208767 202 196 192
0.031309 -0.099269 2.208737 203 197 193
0.031304 -0.095972 2.208379 206 200 197
0.031409 -0.094649 2.215800 208 202 199
0.031586 -0.093525 2.228249 208 203 200
0.031652 -0.092062 2.232898 208 203 200
0.031619 -0.090309 2.230561 208 202 199
0.031632 -0.088691 2.231542 207 201 198
0.031587 -0.086910 2.228362 207 201 198
0.031641 -0.085399 2.232129 207 201 198
0.031631 -0.083715 2.231457 208 202 199
0.031700 -0.082237 2.236315 210 203 201
0.031759 -0.080725 2.240463 211 205 202
0.031578 -0.078610 2.227701 211 205 201
0.031599 -0.077008 2.229209 210 203 200
0.031580 -0.075305 2.227821 209 202 199
0.031628 -0.073763 2.231218 208 200 197
0.031683 -0.072231 2.235103 206 198 195
0.031729 -0.070673 2.238349 204 196 193
0.031805 -0.069176 2.243696 202 194 191
0.031840 -0.067585 2.246218 200 193 190
0.031893 -0.066025 2.249919 200 193 190
0.031823 -0.064213 2.244998 200 193 189
0.031813 -0.062526 2.244275 200 193 189
0.031836 -0.060902 2.245879 200 193 189
0.031724 -0.059026 2.237992 201 193 189
0.031603 -0.057146 2.229493 201 193 190
0.031250 -0.054869 2.204556 201 193 190
0.031164 -0.053085 2.198472 201 193 190
0.031071 -0.051299 2.191935 201 193 190
0.030954 -0.049484 2.183692 201 193 190
0.031312 -0.045134 2.208932 201 193 190
0.031273 -0.043439 2.206181 201 193 190
0.031267 -0.041792 2.205776 201 193 190
0.031479 -0.040426 2.220730 201 193 190
0.031563 -0.038880 2.226626 201 193 190
0.031528 -0.037185 2.224175 201 193 190
0.031474 -0.035472 2.220364 201 193 190
0.031492 -0.032192 2.221635 201 193 190
0.031345 -0.030399 2.211263 201 193 190
0.031404 -0.028811 2.215437 201 193 190
0.031362 -0.027129 2.212441 201 192 190
0.031279 -0.025418 2.206615 202 192 188
0.031175 -0.023700 2.199294 203 191 188
0.030725 -0.008868 2.167550 189 184 178
0.030613 -0.007232 2.159611 150 151 148
0.030404 -0.005589 2.144852 102 111 113
0.030056 -0.003950 2.120351 71 89 96
0.029845 -0.002359 2.105431 59 86 98
0.029838 -0.000795 2.104926 56 88 109
0.029799 0.000768 2.102213 59 92 125
0.029741 0.002325 2.098102 65 99 141
0.029673 0.003874 2.093334 75 111 153
0.029533 0.005403 2.083419 81 119 160
0.029472 0.006937 2.079134 79 119 159
0.029530 0.008498 2.083235 75 115 154
0.029599 0.010069 2.088107 74 112 152
0.029598 0.011619 2.088050 76 111 152
0.029594 0.013168 2.087753 73 104 148
0.029590 0.014717 2.087485 71 99 144
0.029436 0.016183 2.076617 72 97 143
0.029450 0.017734 2.077585 72 96 143
0.029266 0.019156 2.064575 72 96 142
0.029291 0.020708 2.066380 68 94 139
0.029226 0.022193 2.061793 62 90 133
0.029183 0.023689 2.058726 57 86 125
0.029322 0.025339 2.068539 47 75 107
0.029288 0.026844 2.066132 42 68 93
0.029198 0.028292 2.059825 36 63 85
0.028910 0.029528 2.039508 29 56 76
0.028532 0.030636 2.012791 24 50 68
0.028703 0.032324 2.024892 18 44 61
0.028685 0.033807 2.023643 15 39 55
0.028724 0.035357 2.026341 13 36 52
0.028486 0.036558 2.009576 11 34 51
0.028672 0.038298 2.022681 8 29 48
0.028601 0.039702 2.017666 7 28 49
0.028438 0.045436 2.006173 20 38 60
0.028596 0.047188 2.017354 8 24 42
0.028748 0.048946 2.028092 0 10 22
0.028670 0.050314 2.022530 0 5 10
0.028389 0.061722 2.002738 0 1 3
0.028706 0.063915 2.025087 0 1 4
0.028773 0.065572 2.029831 0 1 5
0.028716 0.066947 2.025809 0 1 5
0.028391 0.067676 2.002862 0 1 5
0.027950 0.071020 1.971784 1 1 6
0.028086 0.072836 1.981346 1 2 7
0.028103 0.074353 1.982547 1 2 7
0.064260 0.180118 4.533317 1 2 7
0.029264 0.088158 2.064453 0 2 7
0.028614 0.089198 2.018581 0 2 10
0.028514 0.090381 2.011541 0 2 12
0.028460 0.091702 2.007752 0 3 15
0.028374 0.092911 2.001666 0 5 19
0.028347 0.094310 1.999794 0 7 22
0.028200 0.095297 1.989402 0 10 26
0.028026 0.096176 1.977098 3 16 32
0.028128 0.098002 1.984330 8 24 39
0.028194 0.099710 1.988993 8 27 41
0.028128 0.100950 1.984330 6 27 41
0.027798 0.101222 1.961038 6 30 42
0.027834 0.102812 1.963599 6 30 42
0.028005 0.104909 1.975610 4 28 40
0.028026 0.106459 1.977155 3 25 37
0.028125 0.108307 1.984102 2 22 33
0.028169 0.109953 1.987223 0 19 29
0.028187 0.111499 1.988457 1 16 27
0.028120 0.112708 1.983753 2 15 27
0.028294 0.114887 1.996005 3 13 25
0.028216 0.116052 1.990563 2 11 23
0.028178 0.117372 1.987872 0 8 20
0.027935 0.117820 1.970677 1 8 17
0.027958 0.119385 1.972338 0 7 14
0.027957 0.120846 1.972273 0 6 11
0.027928 0.123644 1.970177 0 3 8
0.027875 0.124870 1.966436 0 3 8
0.027955 0.126696 1.972131 1 3 8
0.027748 0.127211 1.957503 1 2 7
0.027865 0.129207 1.965758 0 1 6
0.028062 0.131590 1.979633 0 1 6
0.028053 0.133019 1.979025 0 1 6
0.028184 0.135117 1.988266 0 1 6
0.028155 0.136456 1.986258 0 1 6
0.028087 0.137594 1.981399 0 1 6
0.028064 0.138956 1.979837 0 1 6
0.028009 0.140149 1.975921 0 1 6
0.028010 0.141619 1.975963 0 1 5
0.027980 0.142938 1.973910 0 1 5
0.028003 0.144522 1.975515 0 1 5
0.028038 0.146173 1.977996 0 1 5
0.028074 0.147831 1.980536 0 1 5
0.028114 0.149511 1.983305 0 1 5
0.027789 0.152153 1.960399 0 0 2
0.027570 0.152399 1.944953 0 0 2
0.027385 0.152813 1.931922 0 0 1
0.027347 0.154034 1.929247 0 0 0
0.027354 0.155503 1.929692 0 0 0
0.027997 0.162094 1.975070 0 0 0
0.027929 0.163161 1.970246 0 0 0
0.028171 0.170480 1.987324 1 1 1
0.028160 0.171893 1.986599 0 1 1
0.028343 0.174492 1.999465 0 1 3
0.028354 0.176044 2.000229 0 1 3
0.028349 0.177499 1.999883 0 1 3
0.028308 0.178730 1.997038 0 1 3
0.028332 0.180362 1.998689 0 1 5
0.028294 0.181603 1.996005 0 1 5
0.028061 0.181583 1.979628 0 1 6
0.027076 0.179462 1.910106 0 0 6
0.027038 0.180625 1.907398 0 0 7
0.027018 0.181912 1.906037 0 0 8
0.028198 0.192809 1.989253 1 2 7
0.028032 0.193144 1.977555 1 2 7
0.027546 0.191240 1.943281 1 2 7
0.027963 0.197066 1.972708 1 2 7
0.028125 0.199679 1.984112 1 2 7
0.028311 0.202486 1.997256 1 2 7
0.028268 0.203657 1.994200 1 1 8
0.028294 0.205324 1.996005 1 1 9
0.028295 0.206815 1.996091 0 0 8
0.027870 0.205172 1.966139 0 0 8
0.028111 0.209889 1.983104 1 1 9
0.027258 0.204952 1.922964 1 1 9
0.027037 0.204707 1.907374 1 1 9
0.026961 0.205545 1.902017 1 1 7
0.026921 0.206650 1.899187 1 2 7
0.026876 0.207711 1.895999 1 2 7
0.026818 0.208664 1.891873 1 2 7
0.026908 0.210781 1.898277 1 2 7
0.026921 0.212287 1.899135 1 2 7
0.026966 0.214059 1.902354 1 2 7
0.027086 0.216432 1.910827 1 2 7
0.026958 0.218234 1.901795 1 2 7
0.205814 -3.140964 13.796432 209 204 208
0.023549 -0.358214 1.578578 209 204 208
0.047291 -0.714654 3.170089 209 204 208
0.047336 -0.712973 3.173084 209 204 206
0.047327 -0.710481 3.172482 209 205 206
0.047399 -0.709211 3.177347 209 205 206
0.047366 -0.706358 3.175134 209 205 206
0.047386 -0.704288 3.176435 209 205 205
0.047403 -0.702188 3.177610 209 205 204
0.047316 -0.698543 3.171776 209 205 204
0.047349 -0.696663 3.173942 209 205 204
0.028855 -0.420254 1.934279 211 201 208
0.047610 -0.691031 3.191485 211 201 209
0.047949 -0.693559 3.214183 210 200 208
0.048136 -0.693865 3.226708 209 199 207
0.048358 -0.694662 3.241615 209 199 207
0.048136 -0.689071 3.226708 208 199 205
0.047717 -0.680702 3.198642 208 199 204
0.048278 -0.681495 3.236257 210 201 205
0.028997 -0.404994 1.943790 210 201 204
0.028927 -0.402575 1.939090 210 201 204
0.064693 -0.893875 4.336576 210 201 204
0.039428 -0.542818 2.642970 210 201 202
0.031245 -0.427053 2.094463 210 202 200
0.031178 -0.423036 2.089989 210 201 200
0.031159 -0.421226 2.088708 210 201 202
0.133776 -1.755169 8.967486 210 201 204
0.133831 -1.749229 8.971183 210 201 204
0.026662 -0.343174 1.787252 208 199 202
0.026693 -0.342242 1.789318 208 199 202
0.133301 -1.702470 8.935607 208 199 202
0.031174 -0.393484 2.089688 208 199 201
0.037865 -0.472290 2.538240 208 199 200
0.134036 -1.658477 8.984927 208 200 198
0.042855 -0.517458 2.872730 208 199 199
0.042882 -0.515643 2.874503 208 199 200
0.047888 -0.556768 3.210093 208 199 202
0.047854 -0.553993 3.207836 208 199 202
0.047873 -0.551826 3.209086 207 198 201
0.047810 -0.548716 3.204847 206 197 200
0.034308 -0.386919 2.299758 205 196 196
0.048092 -0.532803 3.223789 206 198 196
0.048151 -0.531054 3.227713 206 198 195
0.048134 -0.528469 3.226565 206 198 195
0.048209 -0.526891 3.231588 206 198 195
0.035578 -0.383530 2.384903 207 199 196
0.035524 -0.381185 2.381319 207 199 195
0.034721 -0.369109 2.327478 207 199 194
0.080719 -0.838000 5.410867 206 198 195
0.037956 -0.371369 2.544312 207 199 197
0.029278 -0.277718 1.962619 207 199 196
0.034842 -0.323555 2.335588 207 199 196
0.034709 -0.320592 2.326674 207 199 196
0.034707 -0.318842 2.326511 206 199 193
0.034740 -0.317418 2.328742 205 198 192
0.034759 -0.315859 2.330001 205 197 193
0.031953 -0.285592 2.141938 203 194 194
0.031902 -0.283542 2.138478 202 193 195
0.031883 -0.281793 2.137259 201 193 196
0.031878 -0.280153 2.136862 199 193 195
0.031893 -0.278701 2.137894 197 192 193
0.038322 -0.323435 2.568869 175 179 170
0.034967 -0.281186 2.343931 141 150 147
0.034867 -0.276914 2.337266 134 140 146
0.034809 -0.274720 2.333371 127 133 141
0.034719 -0.272280 2.327329 118 125 133
0.034881 -0.271815 2.338199 113 120 129
0.034979 -0.270836 2.344763 111 120 129
0.034914 -0.266858 2.340423 107 116 125
0.034799 -0.264245 2.332701 102 112 121
0.034770 -0.262292 2.330746 85 95 105
0.034807 -0.260838 2.333227 76 88 97
0.034805 -0.259091 2.333101 68 80 91
0.034768 -0.257084 2.330610 67 79 90
0.034698 -0.254841 2.325942 70 83 93
0.034534 -0.251915 2.314933 70 84 94
0.034434 -0.249470 2.308214 66 80 91
0.034310 -0.246866 2.299930 60 74 86
0.034471 -0.246304 2.310682 50 64 81
0.034044 -0.241560 2.282080 49 64 85
0.034010 -0.239627 2.279816 52 67 87
0.034058 -0.238268 2.283019 55 70 90
0.033860 -0.235199 2.269763 57 72 93
0.033773 -0.232914 2.263948 58 73 94
0.033809 -0.231476 2.266333 58 73 93
0.034005 -0.231125 2.279474 58 73 92
0.034090 -0.230004 2.285154 58 74 92
0.034075 -0.228205 2.284135 54 71 89
0.034209 -0.227401 2.293133 47 64 81
0.034043 -0.224601 2.281995 41 59 73
0.033698 -0.220652 2.258923 38 56 68
0.033651 -0.218667 2.255746 39 57 67
0.033641 -0.216929 2.255099 41 60 68
0.033666 -0.215411 2.256746 44 63 71
0.033631 -0.213516 2.254437 41 58 70
0.033806 -0.212938 2.266104 38 54 67
0.033926 -0.212009 2.274198 35 52 63
0.034042 -0.211038 2.281965 33 50 59
0.034040 -0.209331 2.281836 31 48 56
0.034687 -0.208127 2.325183 24 41 46
0.034379 -0.204568 2.304552 22 38 42
0.034385 -0.202892 2.304952 22 37 40
0.034635 -0.202644 2.321722 23 36 39
0.034629 -0.200884 2.321315 22 36 38
0.034831 -0.200319 2.334832 22 35 36
0.034629 -0.195711 2.321315 20 34 35
0.034576 -0.193691 2.317768 22 34 35
0.034483 -0.191450 2.311501 23 31 34
0.034449 -0.189546 2.309219 26 31 35
0.034430 -0.187728 2.307953 29 34 39
0.034364 -0.185657 2.303534 32 37 41
0.034443 -0.182655 2.308839 44 49 53
0.034476 -0.181112 2.311038 60 65 69
0.034394 -0.178971 2.305571 78 83 86
0.034453 -0.177559 2.309481 101 105 107
0.034669 -0.176950 2.324006 129 132 132
0.034586 -0.174803 2.318420 155 156 154
0.034853 -0.174416 2.336309 176 175 172
0.034880 -0.172814 2.338115 187 185 180
0.034956 -0.171451 2.343220 194 189 185
0.035062 -0.170225 2.350322 201 195 191
0.035167 -0.168982 2.357340 208 202 197
0.035205 -0.167413 2.359905 209 198 197
0.034817 -0.160366 2.333879 204 193 191
0.035014 -0.159531 2.347098 201 192 189
0.035052 -0.157960 2.349655 202 195 189
0.035026 -0.156100 2.347935 204 197 192
0.034925 -0.153911 2.341160 202 197 191
0.034984 -0.152429 2.345124 203 197 192
0.035043 -0.150939 2.349041 204 198 194
0.035023 -0.149110 2.347718 205 198 195
0.035027 -0.147384 2.347999 206 198 195
0.035066 -0.145801 2.350594 206 198 195
0.035088 -0.144145 2.352056 206 198 195
0.035137 -0.142597 2.355350 206 198 195
0.035146 -0.140886 2.355982 206 198 195
0.035144 -0.139126 2.355825 206 199 194
0.034892 -0.136393 2.338959 205 200 194
0.034586 -0.133473 2.318420 203 200 193
0.034721 -0.132264 2.327440 202 200 193
0.034719 -0.130529 2.327340 201 200 192
0.035159 -0.126932 2.356830 204 197 191
0.035133 -0.123339 2.355077 208 198 193
0.032081 -0.107834 2.150523 204 194 187
0.032034 -0.106081 2.147368 202 194 186
0.032099 -0.104697 2.151716 203 195 188
0.032926 -0.100838 2.207163 200 197 192
0.032909 -0.099147 2.206033 201 199 195
0.032961 -0.097660 2.209462 199 198 195
0.032960 -0.096017 2.209418 196 197 196
0.032966 -0.094394 2.209828 196 198 198
0.033219 -0.093464 2.226776 196 199 199
0.033236 -0.091856 2.227901 194 196 197
0.033252 -0.090247 2.229026 189 191 191
0.033241 -0.088560 2.228231 185 186 186
0.033153 -0.086676 2.222383 182 183 183
0.033169 -0.085067 2.223451 182 183 183
0.033196 -0.083483 2.225269 186 186 186
0.033323 -0.082142 2.233735 191 191 191
0.033375 -0.080608 2.237212 197 197 195
0.033279 -0.078721 2.230821 203 203 200
0.033286 -0.077079 2.231282 207 207 202
0.033364 -0.075598 2.236474 208 207 202
0.033349 -0.073904 2.235485 208 206 201
0.033320 -0.072182 2.233586 207 203 199
0.033375 -0.070637 2.237212 205 201 197
0.033377 -0.068982 2.237410 202 198 194
0.033538 -0.067643 2.248162 200 195 191
0.033590 -0.066076 2.251645 199 194 190
0.033514 -0.064259 2.246592 198 194 188
0.033516 -0.062593 2.246686 198 193 187
0.033503 -0.060901 2.245837 199 193 187
0.033598 -0.059401 2.252208 200 193 187
0.033318 -0.057246 2.233391 201 193 188
0.033088 -0.055203 2.217977 201 193 188
0.032883 -0.053225 2.204267 201 193 188
0.033134 -0.047032 2.221122 200 193 190
0.033094 -0.045327 2.218415 199 193 190
0.032964 -0.043508 2.209692 199 193 190
0.032957 -0.041858 2.209221 199 193 190
0.033102 -0.040394 2.218934 199 193 190
0.033179 -0.038836 2.224105 200 193 190
0.033155 -0.037157 2.222519 201 193 190
0.033169 -0.035521 2.223408 201 193 189
0.033288 -0.033991 2.231392 201 193 188
0.033172 -0.032221 2.223636 201 193 188
0.033094 -0.030498 2.218429 201 193 188
0.033073 -0.028831 2.216967 201 193 188
0.032890 -0.027034 2.204736 201 193 188
0.032625 -0.025192 2.186965 202 192 188
0.032476 -0.021843 2.176992 203 192 189
0.032189 -0.015239 2.157729 202 192 191
0.032266 -0.010456 2.162922 188 183 176
0.032139 -0.008815 2.154417 153 153 149
0.032000 -0.007183 2.145087 103 109 109
0.031683 -0.005534 2.123837 63 76 84
0.031486 -0.003932 2.110595 53 75 89
0.031484 -0.002364 2.110470 60 92 110
0.031401 -0.000795 2.104917 67 104 130
0.031325 0.000767 2.099795 70 108 146
0.031364 0.002329 2.102414 72 109 156
0.031132 0.003862 2.086879 74 112 159
0.030975 0.005385 2.076339 75 115 159
0.031075 0.006950 2.083042 73 115 158
0.031155 0.008519 2.088416 71 112 153
0.031207 0.010087 2.091909 70 109 150
0.031222 0.011646 2.092920 71 107 149
0.031138 0.013165 2.087297 69 100 145
0.031137 0.014715 2.087229 69 97 143
0.031051 0.016221 2.081455 71 97 144
0.030891 0.017675 2.070747 74 97 146
0.030878 0.019205 2.069833 73 97 145
0.030813 0.020699 2.065524 67 94 139
0.030706 0.022156 2.058327 58 87 130
0.030789 0.023749 2.063893 50 80 120
0.030818 0.025306 2.065873 43 70 102
0.030773 0.026801 2.062833 39 63 89
0.030607 0.028180 2.051715 33 59 81
0.030353 0.029458 2.034678 27 54 75
0.030265 0.030879 2.028795 24 50 70
0.030164 0.032278 2.021992 23 49 67
0.030185 0.033804 2.023432 23 49 65
0.030068 0.035169 2.015542 25 49 65
0.029939 0.036509 2.006903 26 49 67
0.029924 0.037981 2.005937 19 42 60
0.029804 0.039312 1.997850 21 42 62
0.029858 0.040870 2.001474 25 46 67
0.029767 0.045192 1.995367 8 25 48
0.029837 0.046783 2.000051 2 14 33
0.030035 0.048590 2.013356 0 6 16
0.030094 0.063668 2.017276 0 1 4
0.030385 0.065798 2.036832 0 1 5
0.029968 0.066387 2.008853 0 0 5
0.029801 0.067501 1.997677 0 0 5
0.029456 0.068187 1.974558 0 0 5
0.029548 0.072812 1.980690 1 2 7
0.030564 0.087491 2.048830 0 3 8
0.029955 0.088730 2.007984 0 2 10
0.029962 0.090243 2.008470 0 2 13
0.029769 0.091144 1.995523 0 4 16
0.029783 0.092669 1.996442 0 5 20
0.029669 0.093793 1.988842 0 7 23
0.029489 0.094690 1.976722 0 10 25
0.029377 0.095793 1.969225 2 16 30
0.029518 0.097724 1.978693 5 22 36
0.029560 0.099336 1.981529 6 24 38
0.029526 0.100691 1.979237 3 24 37
0.029365 0.101603 1.968436 3 26 39
0.029463 0.104876 1.975001 2 26 38
0.029476 0.106389 1.975856 1 24 35
0.029643 0.108469 1.987062 1 21 32
0.029621 0.109863 1.985590 0 19 29
0.029633 0.111382 1.986378 1 17 28
0.029548 0.112536 1.980719 3 16 28
0.029477 0.113733 1.975948 3 14 26
0.029576 0.115586 1.982569 1 10 23
0.029595 0.117135 1.983863 0 7 19
0.029384 0.117763 1.969708 0 7 16
0.029320 0.118966 1.965417 0 7 14
0.029285 0.120282 1.963078 0 5 10
0.029280 0.121718 1.962710 0 4 8
0.029304 0.123278 1.964347 0 3 8
0.029189 0.125703 1.956663 0 2 7
0.029114 0.126826 1.951586 1 2 7
0.029236 0.128814 1.959774 0 1 6
0.029333 0.130703 1.966299 0 1 6
0.029550 0.133141 1.980837 0 1 6
0.029566 0.134687 1.981938 0 1 6
0.029594 0.136285 1.983764 0 1 6
0.029588 0.137732 1.983392 0 1 6
0.029523 0.138898 1.979014 0 1 6
0.029481 0.140170 1.976215 0 1 6
0.029430 0.141392 1.972792 0 1 5
0.029439 0.142900 1.973380 0 1 5
0.029427 0.144310 1.972616 0 1 5
0.029413 0.145706 1.971681 0 1 5
0.029461 0.147409 1.974872 0 1 5
0.029475 0.148948 1.975827 0 1 5
0.029506 0.150570 1.977860 0 1 4
0.029322 0.151091 1.965524 0 1 3
0.029181 0.151822 1.956130 0 0 2
0.029088 0.152784 1.949867 0 0 2
0.028705 0.153628 1.924165 0 0 0
0.028746 0.155283 1.926960 0 0 0
0.029293 0.159696 1.963627 0 0 0
0.029292 0.161149 1.963562 0 0 0
0.029331 0.162823 1.966167 0 0 0
0.029288 0.164043 1.963279 0 0 0
0.029305 0.165597 1.964424 1 1 1
0.029674 0.170636 1.989148 1 1 1
0.029785 0.172759 1.996607 1 1 1
0.029796 0.174306 1.997337 1 1 3
0.029805 0.175844 1.997950 0 1 3
0.029805 0.177325 1.997926 0 1 3
0.029781 0.178665 1.996312 0 1 3
0.029673 0.179496 1.989094 0 1 5
0.029588 0.180453 1.983368 0 1 5
0.029581 0.181886 1.982929 0 1 6
0.028522 0.176792 1.911917 0 0 6
0.029534 0.184536 1.979758 0 0 8
0.029623 0.186568 1.985734 0 0 8
0.029620 0.189501 1.985559 0 0 8
0.029720 0.191616 1.992218 0 1 7
0.029365 0.192251 1.968411 1 2 7
0.028813 0.190074 1.931439 1 2 7
0.029027 0.192934 1.945811 1 2 7
0.029319 0.196335 1.965389 1 2 7
0.029598 0.199671 1.984033 1 2 7
0.029581 0.201033 1.982929 1 2 7
0.029611 0.202708 1.984908 1 1 8
0.029627 0.204297 1.986025 0 0 8
0.029622 0.205733 1.985641 0 0 8
0.029552 0.209661 1.980950 0 0 8
0.029509 0.210828 1.978101 0 0 8
0.028466 0.204791 1.908154 1 1 9
0.028373 0.205540 1.901969 1 1 7
0.028320 0.206563 1.898393 1 2 7
0.029305 0.216666 1.964424 1 2 7
0.028247 0.211654 1.893475 1 2 7
0.028330 0.213687 1.899049 1 2 7
0.028455 0.216045 1.907407 1 2 7
0.028618 0.218715 1.918399 1 2 7
0.028385 0.218340 1.902721 1 2 7
0.216061 -3.140964 13.796432 209 204 209
0.024722 -0.358214 1.578578 209 204 208
0.049751 -0.716163 3.176781 209 204 208
0.049802 -0.714538 3.180048 209 204 207
0.049791 -0.712022 3.179361 209 204 206
0.049821 -0.710086 3.181271 209 204 206
0.049804 -0.707480 3.180176 209 205 206
0.049824 -0.705408 3.181486 209 205 205
0.049833 -0.703170 3.182053 209 205 204
0.049749 -0.699625 3.176688 209 205 204
0.049772 -0.697585 3.178141 209 204 204
0.030009 -0.417754 1.916223 210 203 207
0.030214 -0.419169 1.929289 210 201 208
0.049979 -0.691007 3.191375 211 201 209
0.050056 -0.689692 3.196265 210 200 208
0.050106 -0.688011 3.199489 209 199 207
0.050440 -0.687806 3.220783 208 199 205
0.050030 -0.679848 3.194629 208 199 204
0.050018 -0.672569 3.193870 210 201 205
0.049953 -0.669326 3.189718 210 201 204
0.049919 -0.666499 3.187531 210 201 204
0.067938 -0.894190 4.338103 210 201 204
0.032839 -0.427547 2.096886 210 201 200
0.032721 -0.424465 2.089382 210 201 200
0.032701 -0.422648 2.088071 210 201 200
0.032659 -0.420563 2.085423 210 201 202
0.032669 -0.419135 2.086025 210 201 202
0.048926 -0.623076 3.124131 210 201 202
0.048952 -0.621084 3.125784 210 201 202
0.049054 -0.620056 3.132321 210 201 202
0.049256 -0.620266 3.145181 210 201 204
0.049688 -0.616280 3.172770 210 201 204
0.049801 -0.612958 3.179988 208 199 202
0.137047 -1.667299 8.751005 208 199 202
0.032605 -0.393578 2.081969 208 199 202
0.032718 -0.393393 2.089201 208 199 201
0.032773 -0.392493 2.092676 208 199 200
0.137985 -1.626361 8.810937 208 200 198
0.044759 -0.512696 2.858075 208 199 200
0.044733 -0.503902 2.856361 208 200 198
0.049811 -0.556383 3.180635 208 199 198
0.049867 -0.554649 3.184243 208 199 200
0.049907 -0.552725 3.186784 208 199 201
0.049877 -0.550023 3.184845 208 199 202
0.049888 -0.547780 3.185558 207 198 201
0.049833 -0.544811 3.182037 206 197 200
0.049906 -0.543245 3.186715 206 197 200
0.036025 -0.387022 2.300369 205 196 196
0.036094 -0.384339 2.304775 206 198 196
0.036157 -0.383289 2.308758 206 198 196
0.050018 -0.527858 3.193870 206 198 196
0.050081 -0.526151 3.197914 206 198 196
0.050106 -0.524030 3.199465 206 198 196
0.050400 -0.524721 3.218280 206 198 195
0.036923 -0.379158 2.357714 207 199 196
0.036774 -0.375876 2.348155 207 199 196
0.036547 -0.371829 2.333700 207 199 196
0.036164 -0.366213 2.309219 207 199 194
0.036069 -0.363541 2.303155 207 200 194
0.107420 -1.016460 6.859231 207 199 197
0.105719 -0.995351 6.750622 207 199 197
0.050579 -0.464208 3.229678 207 199 197
0.030755 -0.276435 1.963863 207 199 196
0.036520 -0.323053 2.331962 207 199 196
0.036175 -0.316568 2.309923 206 198 193
0.033498 -0.285202 2.139014 203 194 194
0.033484 -0.283488 2.138070 202 193 195
0.033496 -0.282000 2.138833 201 193 196
0.033454 -0.280060 2.136147 200 193 195
0.033507 -0.278915 2.139543 198 193 193
0.033478 -0.277092 2.137734 193 189 187
0.035781 -0.291061 2.284782 181 182 174
0.035801 -0.289521 2.286022 177 179 171
0.036179 -0.287431 2.310169 158 167 165
0.036479 -0.279436 2.329342 140 149 150
0.036407 -0.275431 2.324746 131 138 145
0.036352 -0.273291 2.321234 126 133 142
0.036513 -0.272772 2.331541 119 126 135
0.036424 -0.270374 2.325803 110 118 127
0.036554 -0.269605 2.334107 101 109 120
0.036677 -0.268775 2.341976 95 103 114
0.036431 -0.265246 2.326290 90 99 109
0.036454 -0.263685 2.327760 86 96 106
0.036365 -0.261312 2.322038 74 84 95
0.036394 -0.259797 2.323911 69 82 92
0.036307 -0.257456 2.318375 66 78 90
0.036360 -0.256103 2.321722 63 76 88
0.036324 -0.254131 2.319459 62 76 87
0.036126 -0.251027 2.306773 60 74 85
0.036095 -0.249104 2.304832 56 71 82
0.035983 -0.246626 2.297690 52 67 81
0.036134 -0.245946 2.307321 46 61 81
0.035781 -0.240149 2.284782 49 64 85
0.035604 -0.237274 2.273492 51 66 87
0.035369 -0.234024 2.258430 53 68 88
0.035307 -0.231940 2.254472 54 69 89
0.035464 -0.231290 2.264504 53 68 87
0.035685 -0.231043 2.278660 53 68 87
0.035718 -0.229558 2.280725 52 69 87
0.035464 -0.226244 2.264504 49 66 84
0.035719 -0.226178 2.280803 44 61 77
0.035340 -0.220425 2.256594 37 55 67
0.035173 -0.216048 2.245942 41 60 66
0.035223 -0.214682 2.249107 43 62 69
0.035239 -0.213109 2.250139 42 60 69
0.035392 -0.212356 2.259909 40 56 68
0.035366 -0.210523 2.258257 37 54 65
0.035564 -0.210017 2.270917 34 51 60
0.035564 -0.208330 2.270917 30 49 56
0.036089 -0.209691 2.304416 27 46 52
0.036395 -0.209744 2.323962 25 43 48
0.036339 -0.207700 2.320420 23 40 44
0.036115 -0.204706 2.306098 22 38 41
0.036100 -0.202908 2.305139 22 37 40
0.036329 -0.202472 2.319758 24 36 38
0.036370 -0.200975 2.322369 24 35 37
0.036558 -0.200280 2.334379 22 34 36
0.036084 -0.194261 2.304109 20 34 35
0.036031 -0.192264 2.300701 20 33 35
0.036172 -0.191303 2.309726 22 30 34
0.036158 -0.189515 2.308839 25 29 35
0.036079 -0.187392 2.303828 26 30 37
0.036043 -0.185491 2.301477 25 30 36
0.036136 -0.184257 2.307432 23 28 34
0.036144 -0.182585 2.307953 26 31 37
0.036159 -0.180944 2.308886 36 41 46
0.036147 -0.179170 2.308134 48 53 57
0.036147 -0.177457 2.308146 66 70 74
0.036283 -0.176405 2.316844 91 95 97
0.036245 -0.174500 2.314412 124 127 126
0.036469 -0.172119 2.328717 172 172 169
0.036577 -0.170891 2.335572 182 180 176
0.036656 -0.169522 2.340614 190 185 180
0.036789 -0.168396 2.349163 195 189 184
0.036895 -0.167128 2.355885 203 193 189
0.036517 -0.163686 2.331774 210 196 196
0.036568 -0.162180 2.335029 213 198 198
0.036496 -0.160131 2.330451 209 198 195
0.036734 -0.159433 2.345645 205 196 190
0.036688 -0.157493 2.342705 204 198 190
0.036717 -0.155876 2.344562 204 200 191
0.036646 -0.153836 2.340023 202 199 190
0.036701 -0.152324 2.343497 202 197 190
0.036693 -0.150550 2.342987 203 198 192
0.036671 -0.148721 2.341585 204 197 193
0.036639 -0.146856 2.339580 205 197 194
0.036769 -0.145631 2.347853 205 197 194
0.036843 -0.144175 2.352552 205 197 194
0.036875 -0.142554 2.354637 205 197 194
0.036854 -0.140723 2.353267 205 197 194
0.036429 -0.135646 2.326149 204 200 196
0.036108 -0.132737 2.305625 203 201 196
0.036398 -0.132078 2.324169 201 200 195
0.036839 -0.126690 2.352335 202 196 192
0.036630 -0.124232 2.338959 206 197 193
0.036779 -0.122995 2.348508 210 198 194
0.034129 -0.110893 2.179250 208 195 189
0.033798 -0.105011 2.158168 201 194 184
0.034419 -0.105307 2.197787 202 198 188
0.034439 -0.103734 2.199062 200 198 189
