ply
format ascii 1.0
element vertex 1287
property float x
property float y
property float z
property uchar red
property uchar green
property uchar blue
end_header
0.214912 0.140439 1.711214 0 3 12
0.231849 0.161105 1.846070 0 3 2
0.230928 0.167294 1.838733 0 0 7
0.229946 0.167942 1.830916 0 0 7
0.229873 0.169249 1.830340 4 4 10
0.230592 0.171142 1.836064 14 12 18
0.229300 0.171539 1.825775 25 23 27
0.229386 0.172960 1.826456 34 32 31
0.229408 0.174333 1.826634 50 49 41
0.229232 0.175555 1.825229 69 69 56
0.229518 0.177131 1.827506 90 91 78
0.230077 0.178924 1.831958 105 106 93
0.229798 0.180066 1.829743 115 116 104
0.230098 0.181662 1.832132 128 130 115
0.230100 0.183025 1.832148 142 145 130
0.229243 0.183699 1.825320 154 157 141
0.229056 0.184904 1.823832 148 151 135
0.229216 0.186388 1.825108 148 151 134
0.229196 0.187728 1.824949 148 152 134
0.228857 0.188803 1.822246 147 151 131
0.228523 0.189879 1.819584 144 149 129
0.228467 0.191184 1.819143 139 146 124
0.228733 0.192759 1.821257 135 143 120
0.229331 0.194619 1.826017 133 141 118
0.229197 0.195861 1.824952 131 140 116
0.229269 0.197279 1.825525 127 137 112
0.229333 0.198690 1.826034 124 133 109
0.229233 0.199960 1.825244 123 133 108
0.229070 0.201172 1.823943 124 133 108
0.228710 0.202208 1.821073 124 133 108
0.228651 0.203509 1.820610 123 132 108
0.228595 0.204811 1.820162 122 132 107
0.228225 0.205829 1.817215 116 127 102
0.228411 0.207348 1.818699 106 117 92
0.228608 0.208878 1.820261 95 107 80
0.228300 0.209948 1.817814 85 96 69
0.353491 -0.637025 2.798081 202 194 192
0.205339 -0.368833 1.625371 201 193 191
0.443256 -0.790972 3.508621 201 193 191
0.443501 -0.788801 3.510560 201 193 191
0.443729 -0.786599 3.512368 201 193 191
0.444428 -0.785224 3.517899 201 193 191
0.444666 -0.783030 3.519781 201 193 191
0.445559 -0.781983 3.526850 201 193 191
0.444852 -0.778128 3.521258 201 193 190
0.443732 -0.773559 3.512390 201 193 190
0.443639 -0.770789 3.511657 201 193 190
0.443627 -0.768160 3.511560 201 193 190
0.281773 -0.484590 2.230396 201 193 190
0.287331 -0.487390 2.274385 203 195 193
0.438509 -0.738671 3.471044 203 195 193
0.437950 -0.735157 3.466627 203 195 193
0.437572 -0.731949 3.463633 203 195 193
0.437154 -0.728679 3.460320 203 195 193
0.436808 -0.725533 3.457580 203 195 193
0.435966 -0.719010 3.450921 201 195 193
3.663674 -5.999168 29.000061 200 196 193
0.391181 -0.633649 3.096420 198 197 193
0.391034 -0.631111 3.095256 198 196 193
0.391314 -0.629263 3.097472 200 196 193
0.390909 -0.626314 3.094271 200 195 192
0.395047 -0.630621 3.127023 202 195 192
0.396429 -0.630496 3.137963 202 195 192
0.395810 -0.627184 3.133059 203 194 192
0.395908 -0.625012 3.133841 204 194 192
0.285586 -0.442453 2.260576 202 194 191
0.288128 -0.439615 2.280697 201 193 191
0.308395 -0.468725 2.441124 201 193 191
0.286635 -0.422170 2.268880 200 192 191
0.285881 -0.419378 2.262907 199 193 191
0.311664 -0.448039 2.466996 201 193 191
0.391133 -0.553084 3.096041 201 193 191
0.391509 -0.551314 3.099018 201 193 191
0.401820 -0.535121 3.180635 203 195 192
0.401710 -0.483014 3.179765 203 195 193
0.395545 -0.473275 3.130962 203 195 193
0.279897 -0.333255 2.215541 203 195 193
0.279471 -0.331105 2.212172 203 195 193
0.384303 -0.450786 3.041974 203 195 193
0.284639 -0.276981 2.253078 198 190 188
0.287370 -0.277950 2.274700 198 190 188
0.304247 -0.281751 2.408290 196 188 186
0.300212 -0.274484 2.376345 196 188 186
0.290290 -0.258586 2.297813 194 186 183
0.287381 -0.247546 2.274782 193 185 182
0.285382 -0.244146 2.258957 192 184 181
0.286690 -0.241894 2.269310 191 183 180
0.285652 -0.239339 2.261099 194 186 183
0.285392 -0.237443 2.259036 195 187 184
0.284704 -0.233523 2.253595 193 185 182
0.285421 -0.229077 2.259269 189 181 179
0.285328 -0.227325 2.258533 187 179 177
0.282409 -0.221678 2.235429 188 180 178
0.280251 -0.211746 2.218346 193 184 187
0.279762 -0.209732 2.214477 194 185 188
0.281436 -0.206022 2.227727 192 183 184
0.281160 -0.204167 2.225539 190 181 182
0.279213 -0.201112 2.210130 192 184 183
0.280325 -0.200265 2.218934 193 185 183
0.283463 -0.200839 2.243768 191 183 181
0.282160 -0.198257 2.233455 189 181 179
0.280000 -0.195094 2.216360 188 180 178
0.280989 -0.194131 2.224190 190 182 179
0.291571 -0.198013 2.307953 195 187 184
0.281586 -0.176332 2.228910 197 191 182
0.306880 -0.186759 2.429133 188 189 181
0.308525 -0.185946 2.442153 154 158 155
0.276981 -0.155535 2.192461 49 67 77
0.275389 -0.153022 2.179864 47 65 73
0.272904 -0.148432 2.160193 47 64 73
0.273239 -0.147007 2.162843 48 65 74
0.272733 -0.145132 2.158836 48 65 76
0.273931 -0.144158 2.168317 45 61 75
0.272762 -0.141940 2.159064 44 60 75
0.274121 -0.141035 2.169825 44 60 75
0.274525 -0.139629 2.173018 43 59 75
0.274626 -0.138066 2.173817 42 58 74
0.274209 -0.136244 2.170522 42 58 74
0.272978 -0.134027 2.160775 41 57 72
0.274613 -0.133215 2.173715 40 58 72
0.274674 -0.131630 2.174204 39 58 72
0.274468 -0.129918 2.172570 37 59 72
0.274318 -0.128234 2.171379 36 58 71
0.274389 -0.126654 2.171947 35 57 70
0.274520 -0.125100 2.172981 33 55 68
0.274163 -0.123325 2.170153 32 54 66
0.274285 -0.121768 2.171125 33 53 64
0.275845 -0.120839 2.183468 33 53 64
0.273368 -0.118146 2.163862 34 52 64
0.271151 -0.115594 2.146317 27 45 57
0.271529 -0.114159 2.149306 29 47 59
0.278396 -0.103951 2.203659 0 8 23
0.278162 -0.102228 2.201810 0 9 24
0.278701 -0.100788 2.206074 0 9 24
0.278830 -0.099195 2.207099 0 9 24
0.279897 -0.097929 2.215541 0 9 24
0.281032 -0.096674 2.224529 1 10 25
0.281160 -0.095065 2.225539 0 9 24
0.278790 -0.092624 2.206779 0 9 23
0.277607 -0.088967 2.197421 0 6 18
0.278287 -0.085913 2.202798 0 4 12
0.275845 -0.083537 2.183468 0 3 9
0.278296 -0.081007 2.202873 0 4 10
0.278504 -0.079430 2.204515 0 4 12
0.278024 -0.077658 2.200717 0 6 15
0.278095 -0.076043 2.201277 0 7 17
0.277439 -0.072601 2.196088 0 6 18
0.278571 -0.071260 2.205049 0 7 18
0.276131 -0.067389 2.185735 0 6 14
0.276102 -0.064135 2.185508 0 6 12
0.267526 -0.057424 2.117624 0 6 12
0.267117 -0.055766 2.114383 0 6 12
0.268832 -0.054543 2.127958 0 6 13
0.269424 -0.053079 2.132648 0 5 15
0.256676 -0.035477 2.031733 0 2 7
0.256115 -0.033893 2.027292 0 2 7
0.254100 -0.030639 2.011349 0 2 6
0.253569 -0.029084 2.007140 0 2 6
0.254865 -0.027734 2.017403 0 2 6
0.254991 -0.026248 2.018395 0 4 9
0.264129 -0.025636 2.090728 0 4 12
0.265293 -0.024189 2.099948 0 4 12
0.263892 -0.022510 2.088856 0 4 12
0.263739 -0.020947 2.087647 0 4 12
0.258845 -0.015992 2.048906 0 4 13
0.258925 -0.014475 2.049536 0 3 13
0.259823 -0.012997 2.056650 0 3 14
0.260929 -0.011519 2.065398 0 3 14
0.260999 -0.009987 2.065958 0 3 14
0.261395 -0.008465 2.069094 0 3 14
0.262237 -0.006951 2.075759 0 3 14
0.261065 -0.005385 2.066476 0 3 14
0.260536 -0.003842 2.062288 0 3 14
0.260276 -0.002308 2.060234 0 4 15
0.261092 -0.000780 2.066693 0 5 16
0.262593 0.000759 2.078571 0 5 16
0.262262 0.002300 2.075956 0 5 16
0.262260 0.003842 2.075938 0 5 16
0.248074 0.015303 1.963649 0 6 16
0.247385 0.016715 1.958194 0 6 16
0.248066 0.018219 1.963582 0 6 16
0.247926 0.019666 1.962478 0 6 15
0.245633 0.023817 1.944322 0 6 12
0.253193 0.034971 2.004168 0 5 11
0.252592 0.036373 1.999408 0 5 11
0.250722 0.037578 1.984611 0 5 11
0.250164 0.038965 1.980193 0 4 11
0.248501 0.040167 1.967024 0 4 11
0.248542 0.041635 1.967348 0 4 11
0.248944 0.043166 1.970530 0 4 11
0.248832 0.046072 1.969647 0 2 9
0.249537 0.047670 1.975229 0 2 9
0.263241 0.051835 2.083702 0 2 9
0.248738 0.050442 1.968903 0 2 9
0.248210 0.051794 1.964725 0 2 9
0.247639 0.053131 1.960202 0 2 9
0.247491 0.054554 1.959029 0 2 9
0.261152 0.062172 2.067163 0 2 9
0.259083 0.064726 2.050792 0 2 9
0.258622 0.066132 2.047144 0 2 9
0.259093 0.067775 2.050867 0 2 9
0.249971 0.069798 1.978661 0 1 6
0.247935 0.072145 1.962543 0 1 5
0.248840 0.073871 1.969708 0 1 4
0.248131 0.092626 1.964102 0 1 4
0.252562 0.097250 1.999171 0 2 7
0.252592 0.098747 1.999408 0 2 7
0.253130 0.100445 2.003667 0 2 9
0.255530 0.102900 2.022662 0 2 10
0.260602 0.108007 2.062810 1 1 11
0.249112 0.107639 1.971861 0 1 11
0.248872 0.108998 1.969963 0 3 12
0.248120 0.110128 1.964007 1 6 12
0.228550 0.112192 1.809104 0 5 11
0.228609 0.113565 1.809570 0 5 11
0.245821 0.123560 1.945811 0 4 11
0.232385 0.125004 1.839456 0 6 16
0.229781 0.124955 1.818843 0 6 16
0.229675 0.126248 1.818009 0 6 14
0.228421 0.126901 1.808080 0 6 14
0.228719 0.128411 1.810437 0 9 15
0.229247 0.130056 1.814622 0 8 13
0.229286 0.131426 1.814926 0 8 10
0.222470 0.137983 1.760977 0 2 4
0.217417 0.138684 1.720982 0 2 14
0.220519 0.144552 1.745535 0 0 13
0.220552 0.145871 1.745795 0 2 17
0.233695 0.158685 1.849826 1 7 8
0.233735 0.160086 1.850143 0 6 2
0.232740 0.160773 1.842270 0 6 0
0.232539 0.162002 1.840681 2 6 1
0.232440 0.163299 1.839891 6 9 6
0.232196 0.164494 1.837967 15 16 16
0.232985 0.166422 1.844206 24 25 27
0.232850 0.167695 1.843143 35 35 39
0.232293 0.168659 1.838733 44 43 49
0.232059 0.169854 1.836877 55 53 58
0.231409 0.170738 1.831733 70 67 72
0.231120 0.171884 1.829449 88 85 87
0.231347 0.173413 1.831243 102 98 94
0.231068 0.174563 1.829039 116 112 101
0.230973 0.175849 1.828282 132 128 113
0.231393 0.177529 1.831607 149 145 130
0.231531 0.178996 1.832699 159 156 141
0.231681 0.180474 1.833884 166 163 147
0.231650 0.181812 1.833641 168 166 148
0.231679 0.183197 1.833872 157 156 137
0.231233 0.184204 1.830340 143 142 122
0.230614 0.185066 1.825438 128 130 108
0.230406 0.186255 1.823798 129 131 109
0.231349 0.188377 1.831256 131 135 110
0.232094 0.190348 1.837154 134 138 111
0.230780 0.190627 1.826752 135 140 111
0.230612 0.191845 1.825428 137 142 111
0.230751 0.193316 1.826522 137 143 110
0.230693 0.194625 1.826067 135 144 111
0.230461 0.195784 1.824233 124 136 107
0.230264 0.196970 1.822668 118 132 105
0.230283 0.198341 1.822824 116 131 105
0.230182 0.199607 1.822022 115 129 104
0.229838 0.200660 1.819299 113 127 103
0.229396 0.201622 1.815796 107 120 97
0.229663 0.203207 1.817913 96 110 87
0.229903 0.204771 1.819812 87 101 79
0.229630 0.205878 1.817649 73 87 66
0.229428 0.207046 1.816052 62 76 54
0.229970 0.208887 1.820342 62 76 53
0.229719 0.210010 1.818359 63 77 53
0.355569 -0.637025 2.798081 201 193 191
0.206294 -0.368383 1.623391 201 193 191
0.443036 -0.785960 3.486388 201 193 191
0.443465 -0.784128 3.489759 201 193 191
0.444109 -0.782671 3.494829 201 193 191
0.444885 -0.781437 3.500932 201 193 191
0.445127 -0.779261 3.502840 201 193 191
0.446628 -0.779278 3.514651 201 193 191
0.445009 -0.773852 3.501907 201 193 190
0.444497 -0.770363 3.497878 201 193 190
0.444909 -0.768478 3.501126 201 193 190
0.445069 -0.766151 3.502378 201 193 190
0.289272 -0.487815 2.276371 203 195 193
0.439450 -0.738499 3.458162 203 195 193
0.438692 -0.734662 3.452201 203 195 193
0.439875 -0.734071 3.461507 203 195 193
0.439359 -0.730643 3.457451 203 195 193
0.439007 -0.727491 3.454680 203 195 193
0.438755 -0.724509 3.452697 203 195 193
0.437249 -0.716910 3.440845 200 195 193
3.669570 -5.995150 28.876951 200 196 193
3.681187 -5.992613 28.968370 200 196 193
3.653159 -5.925633 28.747808 200 196 193
0.393532 -0.633731 3.096823 198 197 193
0.393433 -0.631271 3.096041 198 196 193
0.393783 -0.629532 3.098800 200 196 193
0.393701 -0.627100 3.098153 200 195 192
0.397870 -0.631415 3.130962 201 195 192
0.398603 -0.630247 3.136725 202 195 192
0.397170 -0.625661 3.125451 203 194 192
0.397632 -0.624063 3.129082 204 194 192
0.396927 -0.615997 3.123538 203 195 192
0.397819 -0.615057 3.130561 203 195 192
0.287469 -0.442767 2.262181 202 194 191
0.309903 -0.468263 2.438717 201 193 191
0.310386 -0.467179 2.442521 201 192 191
0.310566 -0.465635 2.443939 202 192 191
0.392920 -0.552363 3.092009 201 193 191
0.395883 -0.531075 3.115323 203 195 192
0.395320 -0.525698 3.110894 203 195 192
0.396632 -0.476438 3.121213 203 195 193
0.395938 -0.470977 3.115756 203 195 193
0.393184 -0.465403 3.094085 203 195 193
0.386931 -0.451216 3.044874 203 195 193
0.387018 -0.449056 3.045563 203 195 193
0.387057 -0.444576 3.045867 203 195 193
0.300394 -0.271290 2.363892 200 192 189
0.292644 -0.262580 2.302903 198 190 187
0.295098 -0.249258 2.322211 191 183 180
0.285723 -0.239669 2.248437 191 183 180
0.295674 -0.235919 2.326751 189 181 179
0.302275 -0.223518 2.378695 191 182 183
0.299874 -0.219989 2.359795 191 182 183
0.284296 -0.206900 2.237212 189 181 180
0.283320 -0.199565 2.229527 192 184 182
0.283268 -0.197872 2.229118 192 184 181
0.294415 -0.198776 2.316844 192 184 181
0.307178 -0.185847 2.417278 194 194 184
0.307595 -0.184302 2.420560 174 177 173
0.273845 -0.154475 2.154968 50 67 76
0.277843 -0.153483 2.186431 50 68 75
0.278708 -0.152332 2.193238 51 68 76
0.274922 -0.148655 2.163443 51 68 75
0.273815 -0.146456 2.154732 50 68 75
0.274443 -0.143584 2.159674 47 64 75
0.274299 -0.141905 2.158538 46 64 77
0.273805 -0.140049 2.154655 46 62 76
0.275638 -0.139376 2.169080 46 62 77
0.276023 -0.137957 2.172111 45 61 76
0.274982 -0.135829 2.163914 44 60 76
0.274336 -0.133907 2.158836 45 59 75
0.274654 -0.132457 2.161338 43 60 74
0.275545 -0.131276 2.168349 42 61 75
0.275682 -0.129730 2.169426 40 61 72
0.275584 -0.128073 2.168651 39 60 71
0.275787 -0.126555 2.170252 37 58 70
0.275921 -0.125004 2.171306 36 57 68
0.275600 -0.123248 2.168783 34 55 66
0.275932 -0.121783 2.171393 35 53 65
0.276187 -0.120281 2.173398 34 53 63
0.271307 -0.114984 2.134994 27 44 55
0.270674 -0.113134 2.130018 27 44 55
0.268830 -0.109221 2.115508 15 32 42
0.274654 -0.108376 2.161338 3 19 28
0.278333 -0.101693 2.190284 1 10 24
0.280191 -0.100735 2.204909 0 9 22
0.280203 -0.099101 2.205006 0 9 22
0.282231 -0.098168 2.220958 0 9 23
0.282948 -0.096764 2.226601 1 11 25
0.282568 -0.094983 2.223617 0 9 23
0.282416 -0.093281 2.222420 0 9 21
0.278333 -0.088678 2.190284 0 6 18
0.280181 -0.081079 2.204827 0 3 11
0.280293 -0.079473 2.205706 0 5 13
0.281097 -0.078058 2.212034 0 6 16
0.281071 -0.076408 2.211836 0 7 17
0.280246 -0.074545 2.205342 1 7 19
0.280776 -0.073045 2.209513 1 7 19
0.281031 -0.071469 2.211516 1 7 18
0.280032 -0.069578 2.203659 0 7 17
0.280663 -0.068094 2.208622 0 6 14
0.270822 -0.060958 2.131179 0 6 12
0.270125 -0.059222 2.125693 0 6 12
0.268404 -0.057276 2.112155 0 6 12
0.267962 -0.055615 2.108675 0 6 12
0.268590 -0.054176 2.113619 0 6 13
0.268843 -0.052655 2.115609 0 5 15
0.259688 -0.035683 2.043567 0 2 7
0.259360 -0.034122 2.040982 0 2 7
0.260184 -0.032710 2.047466 0 2 7
0.256391 -0.027737 2.017614 0 2 6
0.259527 -0.015941 2.042292 0 4 13
0.260158 -0.014459 2.047262 0 4 14
0.261290 -0.012994 2.056170 0 4 15
0.260977 -0.011453 2.053709 0 4 15
0.261438 -0.009946 2.057335 0 4 15
0.262061 -0.008437 2.062236 0 4 15
0.262057 -0.006906 2.062202 0 4 15
0.261892 -0.005370 2.060906 0 4 15
0.261890 -0.003840 2.060893 0 4 15
0.261794 -0.002308 2.060132 0 5 16
0.262610 -0.000780 2.066558 0 6 16
0.262982 0.000756 2.069484 0 6 16
0.263461 0.002297 2.073254 0 6 16
0.249326 0.019662 1.962024 0 6 15
0.254238 0.033424 2.000679 0 5 11
0.254566 0.034955 2.003257 0 5 11
0.253310 0.036263 1.993374 0 5 11
0.251273 0.037440 1.977341 0 5 11
0.250698 0.038820 1.972815 0 4 11
0.250110 0.040190 1.968189 1 4 11
0.250184 0.041665 1.968770 1 4 11
0.250336 0.043153 1.969972 1 4 11
0.251946 0.044903 1.982639 0 2 9
0.249282 0.045886 1.961678 0 2 9
0.251682 0.047799 1.980561 0 2 9
0.264071 0.051695 2.078053 0 2 9
0.251746 0.050754 1.981063 0 2 9
0.249310 0.051720 1.961898 0 2 9
0.247299 0.052748 1.946067 0 2 9
0.247756 0.054294 1.949666 0 2 9
0.257554 0.063968 2.026767 0 2 9
0.254682 0.064743 2.004168 0 2 9
0.254638 0.066220 2.003822 0 2 9
0.247066 0.071472 1.944239 0 1 5
0.251450 0.078619 1.978735 0 0 0
0.232026 0.080683 1.825879 0 0 0
0.253909 0.097197 1.998088 0 2 7
0.252647 0.098191 1.988157 0 2 7
0.256031 0.102499 2.014783 0 2 10
0.257359 0.104535 2.025234 2 2 11
0.259382 0.106873 2.041152 1 1 11
0.249043 0.106980 1.959798 0 1 11
0.249445 0.108611 1.962958 0 3 12
0.228732 0.110288 1.799963 0 5 11
0.227983 0.111259 1.794071 0 5 11
0.245755 0.122805 1.933924 0 4 11
0.233409 0.124822 1.836768 0 6 16
0.231412 0.125106 1.821049 0 6 16
0.231490 0.126501 1.821662 0 6 14
0.229765 0.126902 1.808090 0 6 14
0.231233 0.129064 1.819640 2 10 16
0.229933 0.129683 1.809415 0 10 14
0.226929 0.133294 1.785776 0 4 7
0.226248 0.134216 1.780414 0 5 6
0.219080 0.132525 1.724008 0 5 5
0.216869 0.134991 1.706608 0 6 15
0.217625 0.136733 1.712554 1 6 17
0.216841 0.137508 1.706385 0 2 13
0.216567 0.139866 1.704228 2 6 12
0.234487 0.158292 1.845250 0 2 3
0.233855 0.159233 1.840276 3 7 4
0.233852 0.160597 1.840248 13 19 12
0.233356 0.161620 1.836345 26 32 23
0.233256 0.162915 1.835559 41 46 37
0.233262 0.164282 1.835607 62 65 57
0.233474 0.165797 1.837281 83 84 78
0.233532 0.167202 1.837730 106 106 103
0.233295 0.168397 1.835869 122 121 119
0.232812 0.169408 1.832064 129 128 126
0.232795 0.170757 1.831933 132 131 128
0.231962 0.171502 1.825375 137 134 130
0.232057 0.172928 1.826124 141 138 130
0.232090 0.174310 1.826386 143 139 125
0.232431 0.175925 1.829071 146 141 124
0.232460 0.177305 1.829296 143 138 121
0.232657 0.178816 1.830851 135 133 115
0.232322 0.179915 1.828209 133 131 112
0.233023 0.181821 1.833730 137 134 115
0.233377 0.183461 1.836517 135 134 113
0.233005 0.184531 1.833588 129 129 108
0.232268 0.185305 1.827789 135 137 115
0.232035 0.186475 1.825953 139 141 117
0.232216 0.187977 1.827376 143 146 120
0.232545 0.189603 1.829966 146 150 121
0.232171 0.190655 1.827024 144 150 116
0.231733 0.191650 1.823573 136 144 108
0.231618 0.192909 1.822674 128 136 98
0.231439 0.194112 1.821261 120 130 93
0.231107 0.195185 1.818652 111 124 92
0.231069 0.196504 1.818354 96 114 85
0.231272 0.198027 1.819946 80 98 71
0.231385 0.199477 1.820840 67 84 58
0.231378 0.200823 1.820781 61 79 54
0.230889 0.201749 1.816935 62 79 56
0.231620 0.203741 1.822687 64 82 60
0.231823 0.205275 1.824283 65 82 63
0.231368 0.206225 1.820708 72 89 70
0.231085 0.207323 1.818481 80 97 78
0.231307 0.208874 1.820224 87 104 84
0.231249 0.210173 1.819767 97 114 93
0.357647 -0.637025 2.798081 201 193 191
0.207500 -0.368383 1.623391 201 193 191
0.443484 -0.782181 3.469627 201 193 191
0.444223 -0.780904 3.475411 201 193 191
0.445646 -0.780815 3.486541 201 193 191
0.446880 -0.780381 3.496202 201 193 191
0.447160 -0.778271 3.498386 201 193 191
0.448879 -0.778654 3.511834 201 193 191
0.447302 -0.773320 3.499501 201 193 190
0.447095 -0.770363 3.497878 201 193 190
0.447256 -0.768041 3.499137 201 193 190
0.447386 -0.765665 3.500155 201 193 190
0.290884 -0.487682 2.275750 203 195 193
0.440776 -0.736423 3.448444 203 195 193
0.440343 -0.733140 3.445053 203 195 193
0.441263 -0.732108 3.452252 203 195 193
0.441074 -0.729232 3.450776 203 195 193
0.440886 -0.726358 3.449302 203 195 193
0.201772 -0.330074 1.578578 202 195 193
3.693084 -5.998505 28.893110 200 196 193
3.697898 -5.984836 28.930773 200 196 193
3.660295 -5.902705 28.636578 200 196 193
0.395640 -0.633424 3.095320 198 197 193
0.395544 -0.630971 3.094569 198 196 193
0.395466 -0.628549 3.093957 200 196 193
0.395987 -0.627076 3.098034 201 195 192
0.400265 -0.631525 3.131505 202 195 192
0.401511 -0.631156 3.141248 202 195 192
0.399894 -0.626291 3.128597 203 194 192
0.398998 -0.622568 3.121586 204 194 192
0.401999 -0.622580 3.145070 203 195 192
0.400906 -0.618556 3.136513 203 195 192
0.400964 -0.616316 3.136970 203 195 192
0.311556 -0.468025 2.437479 201 193 191
0.413814 -0.573545 3.237502 201 193 191
0.413099 -0.570154 3.231910 203 195 193
0.397535 -0.541742 3.110145 203 195 193
0.399849 -0.542572 3.128247 203 195 193
0.401540 -0.528533 3.141475 203 195 192
0.407548 -0.534073 3.188484 203 195 192
0.397609 -0.470216 3.110720 203 195 193
0.389180 -0.451201 3.044775 203 195 193
0.388872 -0.448585 3.042368 203 195 193
0.388301 -0.445669 3.037899 203 195 193
0.388899 -0.444096 3.042580 203 195 193
0.387212 -0.439920 3.029382 203 195 193
0.307159 -0.315056 2.403081 201 193 191
0.306535 -0.282352 2.398200 198 190 188
0.295021 -0.258031 2.308114 199 191 188
0.294336 -0.248880 2.302755 188 180 177
0.294478 -0.247289 2.303873 187 179 176
0.287200 -0.239509 2.246933 190 182 179
0.286684 -0.237412 2.242895 195 187 184
0.288186 -0.236981 2.254646 198 190 187
0.296136 -0.233194 2.316844 195 187 185
0.284367 -0.217316 2.224764 193 185 183
0.285600 -0.204981 2.234412 196 188 186
0.284624 -0.200972 2.226776 192 184 182
0.284707 -0.199377 2.227427 193 185 183
0.284017 -0.197243 2.222029 194 186 183
0.295709 -0.200208 2.313502 193 185 182
0.307670 -0.183275 2.407081 186 188 183
0.279019 -0.153237 2.182926 54 70 76
0.279564 -0.151911 2.187186 54 72 77
0.279510 -0.150258 2.186763 53 71 76
0.278791 -0.148251 2.181144 52 71 76
0.277949 -0.144573 2.174552 49 68 76
0.277589 -0.142773 2.171734 49 67 78
0.277925 -0.141331 2.174367 49 66 77
0.277755 -0.139630 2.173034 49 65 79
0.277948 -0.138112 2.174550 48 64 79
0.278013 -0.136529 2.175055 48 63 78
0.277434 -0.134632 2.170522 49 62 79
0.277552 -0.133077 2.171451 46 62 77
0.277349 -0.131368 2.169863 44 62 75
0.277607 -0.129876 2.171877 42 62 73
0.278057 -0.128471 2.175397 41 61 72
0.277999 -0.126829 2.174944 39 59 70
0.278087 -0.125253 2.175631 37 57 68
0.278181 -0.123679 2.176365 36 55 65
0.278087 -0.122021 2.175635 35 53 64
0.278159 -0.120436 2.176195 35 53 63
0.278717 -0.119058 2.180560 40 58 68
0.269819 -0.108985 2.110948 12 28 37
0.278110 -0.110718 2.175814 2 16 25
0.279242 -0.109546 2.184668 1 15 24
0.279095 -0.104623 2.183519 2 11 26
0.279960 -0.101693 2.190284 1 11 23
0.281730 -0.100699 2.204138 0 9 21
0.282581 -0.099361 2.210791 0 8 20
0.283806 -0.098143 2.220376 0 9 21
0.283458 -0.096375 2.217653 2 12 23
0.284193 -0.094974 2.223408 1 9 21
0.282844 -0.092879 2.212848 0 8 18
0.283960 -0.091595 2.221581 0 7 18
0.282705 -0.086262 2.211762 0 4 13
0.280628 -0.082367 2.195517 0 3 12
0.281775 -0.081066 2.204487 0 3 12
0.281821 -0.079442 2.204849 0 5 13
0.282359 -0.077952 2.209055 0 7 16
0.282677 -0.076398 2.211546 1 8 18
0.281464 -0.074434 2.202057 1 8 19
0.282221 -0.072994 2.207973 1 7 19
0.283557 -0.071692 2.218429 1 7 18
0.281770 -0.069603 2.204451 0 7 16
0.282239 -0.068079 2.208114 0 6 14
0.283629 -0.066766 2.218992 0 6 12
0.270392 -0.058936 2.115430 0 6 12
0.273324 -0.057987 2.138368 0 6 12
0.269461 -0.054035 2.108150 0 6 14
0.272408 -0.046711 2.131201 0 4 13
0.267162 -0.038049 2.090159 0 2 9
0.260401 -0.034060 2.037263 0 2 8
0.260697 -0.032584 2.039581 0 1 8
0.258627 -0.030822 2.023384 0 1 8
0.267515 -0.020999 2.092920 0 4 15
0.260742 -0.015922 2.039936 0 5 15
0.260987 -0.014421 2.041852 0 5 15
0.260953 -0.012902 2.041585 0 5 15
0.260853 -0.011381 2.040804 0 5 15
0.261265 -0.009881 2.044028 0 5 15
0.262004 -0.008387 2.049808 0 5 15
0.262157 -0.006868 2.051004 0 5 15
0.261900 -0.005339 2.048996 0 5 15
0.261674 -0.003814 2.047223 0 5 15
0.261921 -0.002296 2.049162 0 6 16
0.263000 -0.000777 2.057598 0 7 17
0.256993 0.009695 2.010599 0 6 16
0.256684 0.011175 2.008183 0 6 16
0.251107 0.018228 1.964550 0 6 16
0.251457 0.019715 1.967292 0 6 15
0.254005 0.031723 1.987223 0 4 10
0.254390 0.033249 1.990240 0 4 10
0.254896 0.034797 1.994200 0 4 11
0.253471 0.036075 1.983050 0 4 11
0.252141 0.037351 1.972640 0 4 11
0.251651 0.038741 1.968813 0 4 11
0.251464 0.040173 1.967348 1 4 11
0.251713 0.041676 1.969294 1 4 11
0.251948 0.043179 1.971133 1 4 11
0.252995 0.044828 1.979324 0 2 9
0.252729 0.047719 1.977245 0 2 9
0.264950 0.051566 2.072857 0 2 9
0.252031 0.051980 1.971784 0 2 9
0.249703 0.054402 1.953568 0 2 9
0.254841 0.064407 1.993769 0 2 9
0.251198 0.069326 1.965267 0 1 6
0.251560 0.076735 1.968097 0 0 1
0.251485 0.078173 1.967512 0 0 0
0.245963 0.083603 1.924311 0 0 0
0.271372 0.095394 2.123097 0 0 0
0.253246 0.096380 1.981287 0 1 6
0.252819 0.097687 1.977947 0 1 7
0.253635 0.099476 1.984330 0 2 9
0.256017 0.101898 2.002966 0 2 9
0.256958 0.103766 2.010326 2 2 10
0.259245 0.106196 2.028220 1 1 10
0.250386 0.108387 1.958915 1 2 11
0.250886 0.110061 1.962821 1 4 11
0.244266 0.121352 1.911034 0 4 11
0.235666 0.123927 1.843749 0 6 16
0.235904 0.125423 1.845610 0 6 16
0.234845 0.126225 1.837329 0 6 16
0.235797 0.128106 1.844776 0 6 14
0.233384 0.128151 1.825894 0 6 14
0.234554 0.130157 1.835052 1 9 15
0.241129 0.146416 1.886488 1 4 9
0.217499 0.134596 1.701617 3 9 20
0.217265 0.135713 1.699785 4 9 21
0.217126 0.136889 1.698704 1 4 15
0.217155 0.138169 1.698928 0 2 10
0.217355 0.139559 1.700493 4 8 13
0.217104 0.140660 1.698528 6 11 18
0.215847 0.142354 1.688692 29 33 40
0.236822 0.157564 1.852797 45 50 52
0.235765 0.158230 1.844521 59 63 62
0.235416 0.159364 1.841793 73 77 72
0.235235 0.160609 1.840380 90 96 87
0.234655 0.161576 1.835839 108 115 102
0.234474 0.162814 1.834425 121 127 112
0.234314 0.164064 1.833172 130 133 118
0.234419 0.165500 1.833993 136 139 124
0.234585 0.166980 1.835290 144 146 131
0.233727 0.167728 1.828582 147 149 134
0.233918 0.169224 1.830074 146 148 133
0.234158 0.170759 1.831954 141 143 129
0.233186 0.171405 1.824349 137 138 124
0.233093 0.172691 1.823622 137 136 121
0.233172 0.174105 1.824241 137 136 120
0.232985 0.175319 1.822775 138 136 119
0.233952 0.177406 1.830340 134 133 115
0.234430 0.179131 1.834077 128 128 110
0.233695 0.179927 1.828327 128 128 108
0.233620 0.181227 1.827739 134 133 113
0.233729 0.182670 1.828598 137 139 118
0.233528 0.183870 1.827023 138 141 120
0.233290 0.185038 1.825158 140 144 123
0.233082 0.186228 1.823537 140 144 121
0.232964 0.187488 1.822614 135 139 115
0.232889 0.188780 1.822022 127 132 105
0.232698 0.189978 1.820532 115 121 91
0.232590 0.191241 1.819682 101 108 75
0.232713 0.192695 1.820650 89 96 60
0.232762 0.194088 1.821029 79 90 53
0.232742 0.195423 1.820873 57 72 39
0.232882 0.196894 1.821967 50 68 39
0.233164 0.198488 1.824178 52 70 44
0.233150 0.199830 1.824063 56 74 49
0.233116 0.201156 1.823801 64 82 59
0.232606 0.202068 1.819807 77 95 74
0.232629 0.203440 1.819991 92 110 90
0.232835 0.204973 1.821599 103 122 103
0.232602 0.206119 1.819780 118 137 118
0.232587 0.207457 1.819660 132 151 132
0.232778 0.208981 1.821158 134 153 134
0.232405 0.209996 1.818235 137 156 136
0.359726 -0.637025 2.798081 201 193 191
0.208706 -0.368383 1.623391 201 193 191
0.445052 -0.780413 3.461782 201 193 191
0.444487 -0.776854 3.457388 201 193 191
0.446275 -0.777401 3.471296 201 193 191
0.449006 -0.779564 3.492537 201 193 191
0.449519 -0.777856 3.496522 201 193 191
0.451606 -0.778859 3.512758 201 193 191
0.450173 -0.773786 3.501611 201 193 190
0.449882 -0.770687 3.499347 201 193 190
0.449891 -0.768104 3.499420 201 193 190
0.449782 -0.765319 3.498574 201 193 190
0.292329 -0.487274 2.273844 203 195 193
0.443157 -0.736124 3.447043 203 195 193
0.442088 -0.731794 3.438726 203 195 193
0.442799 -0.730412 3.444253 203 195 193
0.441877 -0.723785 3.437083 203 195 193
0.202945 -0.331246 1.578578 203 195 193
0.202945 -0.330074 1.578578 201 195 193
3.767934 -6.084721 29.308392 200 196 193
3.784668 -6.089879 29.438555 200 196 193
3.756509 -6.022863 29.219515 200 196 193
0.399016 -0.635138 3.103696 198 197 193
0.398561 -0.632110 3.100152 198 196 193
0.398618 -0.629898 3.100601 200 196 193
0.398548 -0.627484 3.100051 200 195 192
0.401050 -0.629107 3.119516 201 195 192
0.401637 -0.627707 3.124081 202 195 192
0.401060 -0.624488 3.119594 203 194 192
0.400523 -0.621338 3.115419 204 194 192
0.401705 -0.620851 3.124611 203 194 191
0.402054 -0.619067 3.127325 202 194 191
0.401915 -0.616531 3.126243 202 194 191
0.402483 -0.615077 3.130660 202 194 191
0.312820 -0.467209 2.433228 201 193 191
0.312996 -0.456622 2.434596 202 191 191
0.403572 -0.574771 3.139132 198 194 191
0.402777 -0.571312 3.132945 200 193 191
0.402409 -0.566141 3.130089 201 193 191
0.400733 -0.556837 3.117053 201 193 191
0.402312 -0.549733 3.129333 203 195 193
0.398873 -0.542729 3.102581 203 195 193
0.398785 -0.540306 3.101896 203 195 193
0.400315 -0.540066 3.113798 203 195 193
0.401527 -0.539382 3.123229 203 195 193
0.400733 -0.536000 3.117053 203 195 193
0.400805 -0.533780 3.117611 203 195 193
0.398345 -0.528202 3.098471 202 194 191
0.397759 -0.522829 3.093917 202 194 191
0.400111 -0.523610 3.112214 202 194 191
0.404154 -0.526565 3.143659 202 194 191
0.397691 -0.469893 3.093387 203 195 193
0.399108 -0.469262 3.104411 203 195 193
0.400482 -0.468564 3.115098 203 195 193
0.391456 -0.451218 3.044891 203 195 193
0.390922 -0.448344 3.040734 203 195 193
0.390024 -0.445061 3.033752 203 195 193
0.390631 -0.443497 3.038476 202 194 192
0.388991 -0.439387 3.025715 201 193 191
0.306885 -0.279268 2.387063 200 192 190
0.306719 -0.277345 2.385772 200 192 190
0.306397 -0.275284 2.383270 200 192 189
0.305916 -0.269549 2.379525 199 191 188
0.295187 -0.248158 2.296078 195 187 184
0.295580 -0.246780 2.299131 194 186 183
0.289088 -0.236349 2.248630 197 189 186
0.294679 -0.234110 2.292121 198 190 188
0.299358 -0.236099 2.328521 196 188 186
0.305556 -0.228629 2.376730 196 188 186
0.305243 -0.226631 2.374294 196 188 187
0.303630 -0.223679 2.361746 197 188 187
0.304224 -0.218844 2.366364 197 189 187
0.286724 -0.201285 2.230244 197 189 186
0.285845 -0.199017 2.223408 197 189 186
0.285406 -0.197063 2.219995 198 190 187
0.304212 -0.199502 2.366277 193 186 181
0.304692 -0.198056 2.370011 193 185 182
0.277543 -0.154753 2.158836 43 56 62
0.279516 -0.154238 2.174180 54 67 74
0.280336 -0.153071 2.180560 62 76 82
0.280734 -0.151666 2.183657 56 72 77
0.280867 -0.150115 2.184685 52 68 73
0.280594 -0.148348 2.182563 53 72 76
0.280625 -0.146743 2.182809 55 74 79
0.281361 -0.145503 2.188534 52 71 76
0.280023 -0.143192 2.178121 49 67 75
0.279986 -0.141556 2.177834 46 64 73
0.280271 -0.140081 2.180048 46 63 75
0.280639 -0.138643 2.182915 48 64 78
0.281326 -0.137357 2.188257 49 65 80
0.280226 -0.135201 2.179700 51 65 81
0.279913 -0.133433 2.177263 48 64 79
0.279341 -0.131546 2.172816 43 61 73
0.279068 -0.129805 2.170693 42 61 71
0.279396 -0.128344 2.173246 41 60 70
0.279587 -0.126816 2.174732 40 59 69
0.279717 -0.125259 2.175742 39 58 68
0.279772 -0.123667 2.176167 39 58 67
0.280057 -0.122175 2.178384 39 57 67
0.280274 -0.120651 2.180076 39 57 66
0.280267 -0.119029 2.180024 37 54 63
0.279972 -0.117286 2.177727 28 46 55
0.279839 -0.110763 2.176694 0 11 19
0.279896 -0.109168 2.177139 0 10 19
0.282582 -0.108583 2.198030 0 12 21
0.281971 -0.101832 2.193279 1 11 23
0.284008 -0.100927 2.209121 0 9 21
0.285064 -0.099655 2.217335 0 8 20
0.284959 -0.097972 2.216518 0 9 20
0.285340 -0.096455 2.219481 1 11 21
0.284467 -0.094516 2.212689 1 8 19
0.284174 -0.092777 2.210408 0 8 17
0.282874 -0.084181 2.200300 0 2 12
0.282147 -0.082334 2.194643 0 2 12
0.282888 -0.080916 2.200406 0 5 13
0.283670 -0.079501 2.206493 0 6 14
0.283623 -0.077849 2.206122 0 8 17
0.283686 -0.076227 2.206615 1 8 18
0.283281 -0.074482 2.203467 1 7 19
0.283550 -0.072914 2.205556 1 7 19
0.285028 -0.071648 2.217055 0 7 17
0.283826 -0.069706 2.207703 0 6 15
0.283617 -0.068016 2.206074 0 5 12
0.283959 -0.066457 2.208737 0 5 11
0.282433 -0.064468 2.196872 0 5 11
0.274541 -0.061081 2.135484 0 6 11
0.273063 -0.057597 2.123984 0 6 12
0.272184 -0.055839 2.117151 0 6 13
0.274308 -0.051520 2.133672 0 4 15
0.274587 -0.049986 2.135836 0 4 15
0.274021 -0.048300 2.131438 0 4 15
0.272537 -0.044889 2.119894 0 3 12
0.268278 -0.037988 2.086767 0 2 9
0.261250 -0.033974 2.032100 0 2 9
0.260746 -0.032402 2.028178 0 1 9
0.259381 -0.030733 2.017559 1 1 9
0.258212 -0.029103 2.008470 1 1 8
0.259854 -0.023283 2.021238 1 5 16
0.260626 -0.015823 2.027249 0 6 16
0.260313 -0.014300 2.024814 0 6 16
0.260239 -0.012793 2.024238 0 6 16
0.260722 -0.011310 2.027989 0 6 16
0.261399 -0.009829 2.033255 0 6 16
0.261890 -0.008334 2.037075 0 6 16
0.261933 -0.006823 2.037409 0 6 16
0.261302 -0.005296 2.032507 0 6 16
0.262692 -0.002289 2.043319 0 6 16
0.259403 0.002236 2.017731 0 7 17
0.259388 0.003734 2.017614 0 7 17
0.260602 0.005257 2.027059 0 7 17
0.256684 0.009627 1.996583 0 6 16
0.255885 0.011076 1.990368 0 6 16
0.256707 0.012594 1.996763 0 6 16
0.255530 0.014013 1.987609 0 6 16
0.252904 0.015330 1.967178 0 6 16
0.252196 0.016744 1.961678 0 6 16
0.252815 0.018246 1.966488 0 6 16
0.252196 0.026944 1.961678 0 4 10
0.255062 0.031671 1.983967 0 3 10
0.254973 0.033133 1.983273 0 3 10
0.255256 0.034644 1.985479 1 4 11
0.254025 0.035945 1.975901 1 4 11
0.253272 0.037302 1.970040 1 4 11
0.252852 0.038701 1.966776 1 4 11
0.252620 0.040125 1.964971 1 4 11
0.253132 0.041668 1.968951 1 4 11
0.253415 0.043179 1.971153 1 4 11
0.254446 0.044825 1.979175 0 2 9
0.268032 0.051864 2.084856 0 2 9
0.266628 0.053133 2.073931 0 2 9
0.276716 0.059939 2.152397 0 2 9
0.253022 0.078196 1.968097 0 0 0
0.270646 0.096153 2.105185 0 0 0
0.252471 0.095530 1.963813 0 1 5
0.259337 0.102623 2.017216 0 1 9
0.259802 0.105809 2.020834 1 1 10
0.260234 0.107489 2.024197 1 1 11
0.249658 0.107447 1.941931 0 3 11
0.250733 0.109359 1.950295 0 5 11
0.273976 0.122662 2.131090 0 6 12
0.238503 0.121938 1.855162 1 5 15
0.236418 0.122238 1.838949 0 5 16
0.237343 0.125459 1.846141 0 6 16
0.235798 0.126004 1.834121 0 6 16
0.236804 0.127910 1.841951 0 6 14
0.235097 0.128346 1.828670 0 6 13
0.236282 0.130358 1.837891 0 7 12
0.235496 0.132646 1.831773 0 8 14
0.237010 0.138976 1.843549 2 8 8
0.218271 0.135555 1.697794 0 0 13
0.217504 0.136334 1.691824 0 4 13
0.217526 0.137605 1.691998 13 21 26
0.217372 0.138764 1.690800 38 44 47
0.236421 0.153656 1.838968 85 89 93
0.236636 0.155163 1.840639 111 115 117
0.236418 0.156386 1.838944 135 139 139
0.236402 0.157741 1.838824 147 151 148
0.236100 0.158904 1.836474 148 154 146
0.236066 0.160244 1.836207 148 153 141
0.235729 0.161378 1.833591 150 155 139
0.235548 0.162615 1.832183 147 153 133
0.235698 0.164080 1.833344 140 145 122
0.235766 0.165489 1.833872 141 146 121
0.235682 0.166793 1.833225 140 145 120
0.235894 0.168305 1.834873 136 141 115
0.235758 0.169570 1.833811 130 135 109
0.235870 0.171013 1.834682 127 130 107
0.235647 0.172213 1.832948 126 129 106
0.235627 0.173560 1.832796 130 133 112
0.235011 0.174464 1.828001 143 145 126
0.234908 0.175745 1.827199 144 146 128
0.235293 0.177392 1.830193 144 146 127
0.235295 0.178753 1.830210 140 143 124
0.235073 0.179943 1.828485 133 138 117
0.234709 0.181020 1.825656 126 130 109
0.234621 0.182308 1.824969 117 122 100
0.234389 0.183482 1.823167 112 117 95
0.234133 0.184634 1.821170 103 111 88
0.234161 0.186009 1.821392 98 106 83
0.234132 0.187339 1.821166 88 97 73
0.234208 0.188752 1.821755 79 88 61
0.234061 0.189986 1.820612 72 83 53
0.234409 0.191623 1.823322 70 81 49
0.234669 0.193191 1.825340 71 82 48
0.234637 0.194521 1.825095 71 84 49
0.234521 0.195779 1.824189 72 88 57
0.234270 0.196924 1.822240 81 99 70
0.234055 0.198095 1.820570 96 114 88
0.233948 0.199356 1.819735 111 129 103
0.233948 0.200708 1.819737 121 139 115
0.233869 0.201991 1.819118 130 147 125
0.233943 0.203406 1.819693 137 155 135
0.233755 0.204594 1.818233 143 162 142
0.233669 0.205869 1.817565 146 165 146
0.233780 0.207317 1.818430 146 165 146
0.233998 0.208862 1.820123 147 166 147
0.233772 0.210011 1.818368 147 166 146
0.361804 -0.637025 2.798081 201 193 191
0.209912 -0.368383 1.623391 201 193 191
0.447256 -0.779771 3.458937 201 193 191
0.445171 -0.773579 3.442814 201 193 191
0.446278 -0.772940 3.451376 201 193 191
0.451611 -0.776988 3.492623 201 193 191
0.455037 -0.780267 3.519112 201 193 191
0.452554 -0.773411 3.499913 201 193 190
0.452431 -0.770601 3.498959 201 193 190
0.452320 -0.767814 3.498102 201 193 190
0.452585 -0.765665 3.500155 201 193 190
0.291613 -0.484962 2.255241 201 193 190
0.293473 -0.486371 2.269632 201 193 191
0.443623 -0.730116 3.430841 201 193 191
0.443910 -0.728039 3.433064 201 193 191
0.441414 -0.718873 3.413757 201 193 191
0.204117 -0.331246 1.578578 201 193 191
0.204117 -0.330074 1.578578 201 193 191
3.676674 -5.903241 28.434254 198 194 191
3.672413 -5.875305 28.401304 198 194 191
3.658854 -5.832594 28.296440 198 194 191
0.399289 -0.631921 3.087978 196 195 191
0.399013 -0.629193 3.085845 196 194 191
0.398547 -0.626168 3.082238 198 194 191
0.398771 -0.624229 3.083973 199 194 191
0.400073 -0.623968 3.094037 201 193 190
0.400279 -0.621991 3.095632 201 193 190
0.400582 -0.620160 3.097974 202 192 190
0.400441 -0.617642 3.096886 202 192 190
0.401710 -0.617292 3.106702 201 192 190
0.401232 -0.614253 3.103004 201 193 190
0.401101 -0.611748 3.101990 201 193 190
0.402616 -0.611746 3.113707 201 193 190
0.312708 -0.464360 2.418389 201 193 191
0.314234 -0.455794 2.430185 202 191 191
0.402277 -0.567325 3.111085 200 193 191
0.403077 -0.566137 3.117269 201 193 191
0.401135 -0.544976 3.102251 203 195 193
0.399257 -0.540131 3.087728 203 195 193
0.399575 -0.538267 3.090190 203 195 193
0.400272 -0.536906 3.095579 203 195 193
0.400960 -0.535526 3.100903 203 195 193
0.400790 -0.532996 3.099587 203 195 193
0.400160 -0.529860 3.094713 203 195 193
0.398918 -0.525924 3.085112 201 193 190
0.398667 -0.523303 3.083170 201 193 190
0.398468 -0.520753 3.081631 201 193 190
0.399926 -0.520361 3.092905 201 193 190
0.402252 -0.521077 3.110894 201 193 190
0.398239 -0.467838 3.079856 203 195 193
0.398199 -0.465504 3.079551 203 195 193
0.399045 -0.464200 3.086089 203 195 193
0.397349 -0.459945 3.072972 203 195 193
0.397270 -0.457571 3.072360 203 195 193
0.395868 -0.453682 3.061519 203 195 193
0.394643 -0.450012 3.052050 203 195 193
0.392214 -0.442735 3.033258 202 194 192
0.387190 -0.434841 2.994408 201 193 191
0.297056 -0.250001 2.297338 197 189 186
0.297141 -0.246659 2.297997 197 189 186
0.292616 -0.234498 2.263000 197 189 186
0.294626 -0.234416 2.278543 199 191 189
0.298500 -0.235784 2.308507 198 190 188
0.298285 -0.233901 2.306846 196 188 186
0.305026 -0.216408 2.358975 197 189 187
0.305741 -0.215159 2.364504 198 190 187
0.300882 -0.204826 2.326928 199 191 188
0.303613 -0.201453 2.348050 199 191 188
0.303834 -0.199855 2.349759 196 189 185
0.304863 -0.198780 2.357714 194 187 182
0.304753 -0.196958 2.356866 194 186 183
0.304088 -0.187794 2.351722 194 187 178
0.296922 -0.169723 2.296299 128 134 142
0.281585 -0.154487 2.177688 42 53 58
0.281799 -0.152985 2.179344 54 67 71
0.282332 -0.151653 2.183468 56 70 74
0.282404 -0.150069 2.184025 54 69 73
0.282616 -0.148558 2.185662 52 69 72
0.282987 -0.147128 2.188534 51 69 72
0.283364 -0.145697 2.191451 57 76 79
0.283290 -0.144031 2.190875 54 73 78
0.283213 -0.142365 2.190284 51 70 77
0.283378 -0.140820 2.191561 50 68 77
0.283183 -0.139096 2.190049 50 66 80
0.283772 -0.137756 2.194607 50 66 81
0.283213 -0.135858 2.190284 50 63 80
0.282801 -0.134035 2.187098 47 62 77
0.283023 -0.132515 2.188812 47 64 76
0.281165 -0.130030 2.174446 46 64 74
0.279596 -0.127698 2.162308 44 62 72
0.280791 -0.126631 2.171553 42 60 70
0.280967 -0.125096 2.172913 41 59 69
0.281255 -0.123609 2.175140 39 57 67
0.281192 -0.121966 2.174653 39 57 65
0.281972 -0.120684 2.180683 38 57 64
0.281782 -0.118985 2.179218 35 52 60
0.281540 -0.117265 2.177346 32 49 57
0.281747 -0.110878 2.178948 0 6 14
0.284587 -0.103821 2.200908 0 11 23
0.286342 -0.101172 2.214477 0 10 20
0.286387 -0.099543 2.214827 0 10 19
0.286738 -0.098017 2.217539 0 8 18
0.286126 -0.096165 2.212811 0 8 17
0.285677 -0.094373 2.209340 0 8 17
0.286026 -0.092845 2.212034 0 7 16
0.288136 -0.091875 2.228351 0 4 15
0.282547 -0.083601 2.185134 0 2 14
0.284126 -0.082436 2.197345 0 3 14
0.285934 -0.081318 2.211325 0 7 16
0.284843 -0.079371 2.202890 0 8 16
0.285991 -0.076405 2.211762 0 9 18
0.285336 -0.074591 2.206698 0 7 17
0.285710 -0.073048 2.209596 0 6 16
0.286265 -0.071545 2.213881 0 6 16
0.286015 -0.069840 2.211950 0 6 15
0.286528 -0.068319 2.215917 0 5 13
0.283833 -0.066046 2.195080 0 3 9
0.275057 -0.059264 2.127203 0 6 11
0.273411 -0.057339 2.114476 0 6 12
0.272910 -0.055666 2.110599 0 6 13
0.273971 -0.054309 2.118807 0 6 14
0.273717 -0.052686 2.116845 0 4 15
0.274344 -0.051231 2.121690 0 4 15
0.273918 -0.049578 2.118397 0 4 15
0.273853 -0.047993 2.117893 0 4 15
0.274225 -0.046483 2.120774 0 4 14
0.272652 -0.044650 2.108607 0 3 14
0.269834 -0.037988 2.086812 0 2 10
0.262225 -0.033905 2.027967 0 2 10
0.261369 -0.032292 2.021344 0 1 10
0.259388 -0.030558 2.006024 1 1 10
0.259280 -0.023098 2.005190 0 4 15
0.259628 -0.014181 2.007885 0 7 17
0.259783 -0.012697 2.009082 0 8 17
0.260608 -0.011240 2.015463 0 7 17
0.261973 -0.008289 2.026021 0 7 17
0.261137 -0.006763 2.019550 0 7 17
0.261074 -0.005261 2.019066 0 7 17
0.263316 -0.002281 2.036401 0 7 17
0.259439 0.002223 2.006419 0 7 17
0.260741 0.005230 2.016487 0 7 17
0.256329 0.009559 1.982368 0 6 16
0.254960 0.013901 1.971784 0 6 16
0.253690 0.015289 1.961956 0 6 16
0.253483 0.016733 1.960362 0 6 16
0.254276 0.018246 1.966488 0 6 16
0.255191 0.019778 1.973570 0 6 15
0.254439 0.024104 1.967749 0 4 10
0.254335 0.025555 1.966948 0 4 10
0.252978 0.026872 1.956457 0 4 10
0.255867 0.031588 1.978795 0 3 10
0.255621 0.033026 1.976895 0 3 10
0.255830 0.034523 1.978509 0 3 10
0.254484 0.035803 1.968097 0 3 10
0.253871 0.037175 1.963363 0 3 10
0.253769 0.038618 1.962574 0 3 10
0.253824 0.040084 1.962994 0 3 10
0.254179 0.041601 1.965741 1 4 11
0.254580 0.043128 1.968841 1 4 11
0.270185 0.051980 2.089523 0 2 9
0.270248 0.053545 2.090013 0 2 9
0.272544 0.055565 2.107767 0 2 9
0.272012 0.057019 2.103656 0 2 9
0.259148 0.066232 2.004168 0 2 9
0.270823 0.095663 2.094463 0 0 0
0.254791 0.094390 1.970473 0 0 4
0.255080 0.095963 1.972708 0 1 5
0.255930 0.097753 1.979284 0 1 5
0.259430 0.102070 2.006348 0 1 7
0.259179 0.103460 2.004412 1 1 9
0.259626 0.105130 2.007865 1 1 9
0.259672 0.106640 2.008225 1 1 11
0.256583 0.109793 1.984330 1 2 10
0.259196 0.118356 2.004539 0 4 13
0.243067 0.116576 1.879807 0 5 11
0.242482 0.117689 1.875282 0 5 11
0.239913 0.126089 1.855410 0 5 16
0.237783 0.127701 1.838939 0 5 14
0.237859 0.130475 1.839529 0 7 10
0.229274 0.131033 1.773130 0 5 12
0.219163 0.134068 1.694938 39 46 62
0.219520 0.136808 1.697698 81 87 96
0.218302 0.137303 1.688277 102 110 113
0.217997 0.138364 1.685925 121 129 128
0.237445 0.153435 1.836327 144 149 147
0.237262 0.154679 1.834908 152 157 154
0.237516 0.156209 1.836871 158 163 159
0.237499 0.157563 1.836745 156 161 155
0.237286 0.158785 1.835098 147 153 142
0.237460 0.160265 1.836445 136 141 127
0.236798 0.161178 1.831323 129 133 114
0.236801 0.162541 1.831347 127 133 108
0.237329 0.164267 1.835433 129 135 105
0.237434 0.165703 1.836238 127 134 101
0.237499 0.167113 1.836745 125 133 99
0.237097 0.168192 1.833635 124 131 97
0.237064 0.169530 1.833383 124 131 98
0.236915 0.170784 1.832226 125 132 99
0.236395 0.171767 1.828203 126 133 102
0.236269 0.173033 1.827232 128 135 107
0.235796 0.174041 1.823572 135 142 119
0.235580 0.175235 1.821906 130 136 115
0.235740 0.176708 1.823142 124 130 109
0.235533 0.177906 1.821543 118 124 103
0.235468 0.179209 1.821033 109 118 97
0.235561 0.180634 1.821755 102 110 89
0.235671 0.182071 1.822604 97 106 85
0.235590 0.183362 1.821978 96 104 83
0.235723 0.184820 1.823010 61 70 49
0.235901 0.186314 1.824381 59 68 47
0.236050 0.187789 1.825540 60 71 50
0.236026 0.189125 1.825349 68 80 56
0.235909 0.190386 1.824444 80 93 67
0.235484 0.191396 1.821158 95 108 80
0.235803 0.193010 1.823628 109 123 92
0.235694 0.194275 1.822788 116 131 99
0.235595 0.195547 1.822022 134 150 120
0.235503 0.196823 1.821310 142 160 132
0.235354 0.198050 1.820155 147 165 138
0.234910 0.199026 1.816720 149 167 142
0.235249 0.200664 1.819340 148 166 142
0.234974 0.201780 1.817218 145 163 141
0.235203 0.203327 1.818986 143 161 142
0.235411 0.204860 1.820599 144 163 143
0.235048 0.205894 1.817791 142 161 142
0.235249 0.207421 1.819344 139 158 139
0.235447 0.208948 1.820870 139 158 139
0.235392 0.210252 1.820450 139 158 138
0.363882 -0.637025 2.798081 201 193 191
0.211117 -0.368383 1.623391 201 193 191
0.363465 -0.632142 2.794868 201 193 191
0.451085 -0.781956 3.468626 201 193 191
0.446705 -0.771812 3.434950 201 193 191
0.446961 -0.769700 3.436912 201 193 191
0.454870 -0.778125 3.497732 201 193 191
0.457796 -0.780516 3.520233 201 193 190
0.453551 -0.768098 3.487591 201 193 190
0.454639 -0.767344 3.495957 201 193 190
0.455080 -0.765488 3.499347 201 193 190
0.447253 -0.731886 3.439158 201 193 191
0.446888 -0.728736 3.436351 201 193 191
0.444661 -0.720025 3.419228 201 193 191
0.205290 -0.330074 1.578578 199 193 191
3.709857 -5.922499 28.527012 198 194 191
3.696217 -5.879613 28.422127 198 194 191
3.667239 -5.812572 28.199299 198 194 191
0.402362 -0.633147 3.093967 196 195 191
0.401859 -0.625470 3.090102 198 193 190
0.403109 -0.625114 3.099715 199 193 190
0.402426 -0.621755 3.094459 201 192 190
0.402998 -0.620338 3.098862 201 192 190
0.403581 -0.618931 3.103347 202 192 190
0.404290 -0.617709 3.108797 201 192 190
0.402800 -0.613131 3.097337 201 193 190
0.401086 -0.608231 3.084159 201 193 190
0.402770 -0.608484 3.097104 201 193 190
0.405773 -0.568987 3.120196 200 193 191
0.409661 -0.555720 3.150094 203 195 193
0.403312 -0.544805 3.101277 203 195 193
0.401719 -0.540359 3.089028 203 195 193
0.401339 -0.537554 3.086102 203 195 193
0.402140 -0.536331 3.092261 203 195 193
0.403057 -0.535252 3.099313 203 195 193
0.402829 -0.532648 3.097559 203 195 193
0.402117 -0.529410 3.092084 203 195 193
0.400823 -0.525418 3.082139 201 193 190
0.400392 -0.522565 3.078819 201 193 190
0.400281 -0.520134 3.077969 201 193 190
0.401624 -0.519585 3.088296 201 193 190
0.402998 -0.519061 3.098862 201 193 190
0.401274 -0.514549 3.085607 201 193 190
0.401754 -0.469271 3.089294 202 194 192
0.400073 -0.465023 3.076365 202 194 192
0.399887 -0.462523 3.074936 202 194 192
0.398441 -0.458575 3.063819 202 194 192
0.398638 -0.456524 3.065330 202 194 192
0.397095 -0.452490 3.053470 202 194 192
0.396429 -0.449467 3.048349 202 194 192
0.311209 -0.276414 2.393049 201 193 190
0.297585 -0.250715 2.288284 197 189 186
0.296897 -0.248440 2.282993 197 189 186
0.296753 -0.246624 2.281887 197 189 186
0.296559 -0.244770 2.280397 197 189 186
0.295458 -0.242173 2.271933 197 189 186
0.295719 -0.240698 2.273940 197 189 186
0.295723 -0.239012 2.273967 197 189 186
0.295904 -0.234088 2.275356 199 191 189
0.297390 -0.233566 2.286789 198 190 188
0.297244 -0.231753 2.285666 197 189 187
0.296784 -0.229699 2.282125 195 187 185
0.296340 -0.227663 2.278715 194 186 184
0.296927 -0.214547 2.283228 197 189 186
0.295800 -0.203595 2.274558 199 191 188
0.294947 -0.201324 2.267998 199 191 188
0.296727 -0.200844 2.281686 199 191 188
0.299039 -0.200701 2.299469 199 191 188
0.299460 -0.199273 2.302706 199 191 188
0.299568 -0.195923 2.303534 198 191 187
0.289884 -0.173033 2.229068 196 193 180
0.277154 -0.154353 2.131179 87 90 96
0.280182 -0.154439 2.154465 52 57 62
0.283403 -0.154596 2.179230 35 43 47
0.283585 -0.153076 2.180633 38 48 51
0.284013 -0.151684 2.183921 43 55 58
0.284051 -0.150083 2.184216 47 60 63
0.284265 -0.148572 2.185861 46 61 63
0.284672 -0.147159 2.188991 42 59 60
0.285051 -0.145726 2.191902 46 64 65
0.285037 -0.144092 2.191799 46 65 68
0.284917 -0.142404 2.190875 46 65 70
0.284316 -0.140479 2.186251 46 63 71
0.284604 -0.138996 2.188468 45 61 73
0.284483 -0.137312 2.187541 45 60 76
0.283293 -0.135120 2.178384 47 60 77
0.284289 -0.133971 2.186046 48 61 77
0.284226 -0.132318 2.185564 51 68 79
0.283573 -0.130394 2.180538 50 68 77
0.282430 -0.128255 2.171747 49 66 75
0.282525 -0.126685 2.172482 46 63 73
0.282460 -0.125042 2.171978 42 60 69
0.283281 -0.123788 2.178296 38 56 64
0.283351 -0.122200 2.178829 34 52 60
0.283426 -0.120614 2.179407 33 51 58
0.284116 -0.119285 2.184714 39 55 63
0.283167 -0.117269 2.177414 35 51 59
0.283639 -0.115844 2.181044 32 45 54
0.284275 -0.114481 2.185941 21 35 42
0.285553 -0.113364 2.195767 6 17 25
0.282781 -0.109033 2.174446 0 6 14
0.285265 -0.105104 2.193552 0 12 23
0.287003 -0.102465 2.206912 0 11 21
0.286457 -0.100634 2.202717 0 10 20
0.286597 -0.099047 2.203790 0 9 18
0.287122 -0.097588 2.207826 0 9 17
0.286806 -0.095843 2.205402 0 8 15
0.287620 -0.094472 2.211658 0 7 15
0.286788 -0.092561 2.205260 0 6 14
0.286292 -0.082590 2.201450 0 3 15
0.287178 -0.081205 2.208260 0 7 17
0.286930 -0.079496 2.206353 0 8 16
0.286090 -0.077629 2.199897 0 9 17
0.287684 -0.076419 2.212150 0 9 18
0.286823 -0.074552 2.205528 0 7 17
0.286871 -0.072926 2.205898 0 6 16
0.287920 -0.071548 2.213968 0 6 15
0.286768 -0.069624 2.205109 0 6 14
0.287800 -0.068230 2.213039 0 5 11
0.288350 -0.066714 2.217276 0 3 9
0.284101 -0.064108 2.184601 0 5 9
0.274481 -0.054099 2.110625 0 6 14
0.275647 -0.051180 2.119594 1 5 16
0.276711 -0.048217 2.127777 0 4 15
0.277220 -0.046722 2.131685 0 4 15
0.277200 -0.045135 2.131535 0 4 15
0.264677 -0.035538 2.035236 0 2 11
