ply
format ascii 1.0
element vertex 1324
property float x
property float y
property float z
property uchar red
property uchar green
property uchar blue
end_header
0.103856 0.022320 1.939721 9 17 39
0.103620 0.025144 1.935298 7 14 29
0.103646 0.026588 1.935791 4 14 27
0.104303 0.028204 1.948062 3 17 28
0.103930 0.029545 1.941102 3 21 31
0.103590 0.030885 1.934746 5 22 32
0.103138 0.032181 1.926307 5 22 31
0.102898 0.033534 1.921829 4 18 27
0.103233 0.035075 1.928076 3 13 23
0.102838 0.036367 1.920700 2 10 21
0.102869 0.037806 1.921286 1 9 20
0.102754 0.039189 1.919127 2 11 20
0.102800 0.040632 1.919997 3 15 23
0.102732 0.042030 1.918715 2 18 25
0.102709 0.043446 1.918288 1 18 26
0.102735 0.044882 1.918785 1 16 26
0.102716 0.046299 1.918419 1 15 28
0.102768 0.047748 1.919389 1 15 28
0.102750 0.049165 1.919061 1 16 28
0.102784 0.050607 1.919696 0 17 26
0.102775 0.052029 1.919532 1 18 26
0.102716 0.053423 1.918414 2 19 26
0.102711 0.054846 1.918330 2 20 27
0.102578 0.056198 1.915853 4 21 28
0.102320 0.057476 1.911034 6 23 30
0.101688 0.058531 1.899216 5 23 30
0.101621 0.059903 1.897967 4 22 30
0.101530 0.061258 1.896270 4 21 29
0.101453 0.062619 1.894842 4 20 29
0.101380 0.063980 1.893475 4 19 28
0.101529 0.065482 1.896248 4 19 27
0.101529 0.066891 1.896260 3 18 28
0.101623 0.068363 1.898003 3 17 29
0.101613 0.069766 1.897823 2 17 29
0.101305 0.070960 1.892070 2 18 27
0.101507 0.072509 1.895841 2 18 26
0.101798 0.074130 1.901283 2 18 26
0.101432 0.075270 1.894436 2 19 26
0.101406 0.076658 1.893959 2 19 26
0.101303 0.077985 1.892032 2 19 27
0.101067 0.079206 1.887630 2 18 27
0.101654 0.081076 1.898592 2 18 28
0.101365 0.082251 1.893192 2 17 29
0.101419 0.083702 1.894193 1 16 29
0.101676 0.085325 1.898996 0 15 28
0.101770 0.086815 1.900745 1 14 28
0.101825 0.088275 1.901775 1 14 27
0.102199 0.090017 1.908759 1 15 25
0.101658 0.090950 1.898658 0 17 24
0.102805 0.093403 1.920076 0 18 24
0.102875 0.094894 1.921391 0 18 24
0.103135 0.096564 1.926243 0 18 24
0.102940 0.097810 1.922606 0 18 24
0.101235 0.098998 1.890758 0 18 24
0.101048 0.100218 1.887275 0 18 24
0.101249 0.101822 1.891028 0 17 23
0.101654 0.103639 1.898592 0 17 23
0.101714 0.105112 1.899716 0 17 23
0.102069 0.106894 1.906340 0 17 23
0.101415 0.107616 1.894132 0 17 23
0.101303 0.108902 1.892032 0 17 23
0.101281 0.110284 1.891621 0 17 23
0.101515 0.111947 1.895987 0 16 23
0.101965 0.115272 1.904395 0 15 25
0.102145 0.116892 1.907750 0 14 25
0.102211 0.118386 1.908992 0 14 24
0.102311 0.119921 1.910859 0 14 23
0.101900 0.120853 1.903184 0 14 22
0.101554 0.121852 1.896720 0 14 22
0.100544 0.122035 1.877854 0 13 21
0.099319 0.123303 1.854973 0 12 17
0.099978 0.125508 1.867277 0 12 16
0.099591 0.126404 1.860058 0 12 16
0.101003 0.129598 1.886437 0 12 16
0.101944 0.132220 1.904012 0 12 16
0.100955 0.139339 1.885527 0 11 15
0.101920 0.143500 1.903560 0 10 16
0.099723 0.143173 1.862527 0 10 17
0.100508 0.145694 1.877184 0 9 17
0.100081 0.146464 1.869211 0 8 17
0.099787 0.147418 1.863716 0 8 18
0.100338 0.149624 1.874014 0 8 18
0.102760 0.160364 1.919250 0 4 18
0.102940 0.162072 1.922606 0 3 18
0.102866 0.163383 1.921231 0 3 18
0.098655 0.164906 1.842574 0 4 15
0.098852 0.166607 1.846259 0 4 15
0.099303 0.168745 1.854681 0 4 13
0.100540 0.179215 1.877784 0 3 14
0.100424 0.180402 1.875623 0 2 14
0.100218 0.181421 1.871767 0 2 15
0.099883 0.182200 1.865502 0 3 16
0.098449 0.182317 1.838733 0 4 15
0.101539 0.189448 1.896449 0 4 14
0.102224 0.194980 1.909238 0 3 14
0.102145 0.196245 1.907750 0 3 13
0.102338 0.198036 1.911359 0 3 13
0.102320 0.199422 1.911034 0 3 13
0.102137 0.200481 1.907604 0 3 13
0.102460 0.203957 1.913632 0 3 13
0.100325 0.203884 1.873765 0 3 16
0.100411 0.205450 1.875363 0 3 15
0.100195 0.206400 1.871344 0 3 15
0.100159 0.207714 1.870657 0 2 14
0.100220 0.209231 1.871797 0 2 13
0.100402 0.211003 1.875194 0 2 12
0.100575 0.212763 1.878433 0 2 12
0.101167 0.215418 1.889485 0 3 10
0.101009 0.216484 1.886544 0 3 10
0.100940 0.217736 1.885254 0 4 8
0.123605 -0.516696 2.276974 207 198 201
0.725954 -2.965120 13.373093 207 198 201
0.739843 -3.011726 13.628948 207 198 201
0.272319 -1.104818 5.016489 207 198 201
0.194691 -0.784549 3.586483 206 197 198
0.194359 -0.780550 3.580359 206 197 196
0.194302 -0.777666 3.579323 206 198 196
0.194513 -0.775846 3.583198 206 198 196
0.194404 -0.772751 3.581188 206 198 196
0.194321 -0.769766 3.579674 206 198 196
0.194038 -0.765987 3.574448 206 198 196
0.168034 -0.661033 3.095416 206 198 196
0.193884 -0.754769 3.571618 206 198 196
0.194195 -0.742693 3.577341 206 198 196
0.194958 -0.742943 3.591394 206 197 197
0.194952 -0.740252 3.591280 206 197 199
0.193769 -0.733110 3.569498 206 197 199
0.191608 -0.722314 3.529696 206 197 200
0.188680 -0.708694 3.475754 206 197 200
0.189805 -0.710320 3.496467 206 197 200
0.190515 -0.710372 3.509557 206 197 200
0.190936 -0.709329 3.517311 206 197 199
0.189517 -0.680717 3.491160 206 198 196
0.187671 -0.671520 3.457162 206 198 196
0.187631 -0.661109 3.456432 204 196 193
0.169761 -0.586528 3.127227 204 196 193
0.169703 -0.584009 3.126175 204 196 193
0.169802 -0.582024 3.127983 204 196 193
0.169984 -0.580324 3.131350 204 196 193
0.189166 -0.640634 3.484704 204 196 193
0.197951 -0.648717 3.646535 206 198 196
0.197416 -0.644263 3.636683 206 198 196
0.196888 -0.639845 3.626955 206 198 196
0.124975 -0.392462 2.302211 203 195 193
0.124418 -0.389012 2.291962 202 195 192
0.125367 -0.386831 2.309430 196 195 190
0.124632 -0.382859 2.295897 194 191 187
0.124782 -0.381614 2.298668 176 172 168
0.123936 -0.375633 2.283072 125 121 118
0.124601 -0.375944 2.295323 135 131 128
0.124682 -0.374483 2.296820 151 147 146
0.124504 -0.372244 2.293537 148 146 146
0.124455 -0.370394 2.292633 105 105 108
0.124822 -0.369779 2.299393 89 91 95
0.124955 -0.368462 2.301838 99 105 111
0.124952 -0.366745 2.301794 107 114 124
0.124890 -0.364853 2.300642 87 96 109
0.123673 -0.359606 2.278229 66 77 92
0.123518 -0.357466 2.275378 69 82 99
0.123123 -0.354637 2.268091 63 79 99
0.122504 -0.351180 2.256701 59 76 101
0.122534 -0.349587 2.257242 59 77 102
0.122617 -0.348148 2.258783 60 78 104
0.122568 -0.346332 2.257878 62 80 105
0.122485 -0.344419 2.256339 62 82 107
0.122353 -0.342375 2.253910 64 84 109
0.122279 -0.340494 2.252544 66 87 110
0.121972 -0.337972 2.246902 66 87 108
0.121856 -0.335983 2.244763 53 76 96
0.121863 -0.334334 2.244889 47 70 87
0.122051 -0.333179 2.248343 39 64 80
0.121884 -0.331057 2.245279 36 61 76
0.122066 -0.329881 2.248630 38 63 77
0.121962 -0.327931 2.246716 40 65 80
0.122105 -0.326644 2.249342 38 63 78
0.121980 -0.324641 2.247040 37 60 75
0.121956 -0.322909 2.246607 28 48 64
0.121685 -0.320526 2.241608 24 42 58
0.121444 -0.318229 2.237163 25 42 59
0.121014 -0.315447 2.229252 22 39 56
0.120952 -0.313630 2.228101 13 30 47
0.120892 -0.311822 2.227009 8 25 42
0.120739 -0.309775 2.224190 6 23 40
0.120622 -0.307824 2.222029 2 16 32
0.120212 -0.305133 2.214477 2 14 31
0.120141 -0.303308 2.213163 3 15 31
0.119945 -0.301172 2.209557 3 15 29
0.119924 -0.299479 2.209172 3 14 27
0.119980 -0.297977 2.210205 2 14 24
0.120194 -0.296863 2.214142 2 14 23
0.120051 -0.294869 2.211516 2 13 21
0.120032 -0.293180 2.211165 2 13 20
0.120281 -0.292142 2.215752 1 13 21
0.120260 -0.290445 2.215362 1 11 21
0.120259 -0.288795 2.215331 0 8 20
0.120391 -0.287465 2.217763 0 6 18
0.120125 -0.285188 2.212874 0 5 17
0.120087 -0.283454 2.212172 0 5 17
0.119964 -0.281522 2.209900 0 7 18
0.120001 -0.279968 2.210593 0 8 18
0.119905 -0.278102 2.208813 0 11 20
0.119913 -0.276481 2.208967 2 15 22
0.119583 -0.274084 2.202890 2 15 22
0.119127 -0.271407 2.194479 1 14 19
0.119307 -0.270187 2.197809 1 13 18
0.119201 -0.268315 2.195853 0 12 19
0.119089 -0.266432 2.193779 0 10 18
0.119176 -0.264997 2.195387 0 9 18
0.119262 -0.263556 2.196968 0 9 18
0.118739 -0.260776 2.187343 1 10 17
0.118834 -0.259358 2.189088 1 10 17
0.118693 -0.257427 2.186492 0 10 17
0.119092 -0.256663 2.193846 0 9 16
0.118438 -0.253633 2.181794 0 9 16
0.118281 -0.251678 2.178898 0 9 16
0.118283 -0.250065 2.178948 0 8 13
0.118234 -0.248342 2.178036 0 8 13
0.119562 -0.249495 2.202494 0 7 13
0.119517 -0.247767 2.201678 0 7 13
0.119040 -0.245149 2.192888 0 7 13
0.119639 -0.244745 2.203913 0 7 13
0.119277 -0.242373 2.197253 0 7 13
0.119148 -0.240481 2.194875 0 7 13
0.119552 -0.239660 2.202314 0 7 13
0.119438 -0.237797 2.200212 0 7 13
0.119671 -0.236625 2.204515 0 5 13
0.120582 -0.236776 2.221293 0 4 11
0.120336 -0.234645 2.216755 0 4 10
0.119716 -0.231799 2.205342 0 5 8
0.118387 -0.227605 2.180852 0 5 7
0.118647 -0.226482 2.185641 0 5 6
0.120314 -0.226372 2.216360 1 5 6
0.119757 -0.218770 2.206101 0 3 8
0.120511 -0.218498 2.219982 0 4 9
0.119735 -0.213813 2.205679 1 6 11
0.119298 -0.211402 2.197641 2 7 11
0.119440 -0.210018 2.200251 1 5 6
0.119007 -0.207629 2.192280 0 4 1
0.119033 -0.206046 2.192762 3 5 2
0.119218 -0.204734 2.196154 19 17 16
0.119361 -0.203347 2.198801 52 45 44
0.119370 -0.201729 2.198967 94 81 82
0.119286 -0.199955 2.197421 126 109 110
0.119079 -0.197979 2.193605 138 119 119
0.119195 -0.196541 2.195744 148 128 129
0.119286 -0.195058 2.197411 156 136 136
0.119351 -0.193531 2.198613 151 132 131
0.119311 -0.191834 2.197877 147 130 127
0.119210 -0.190041 2.196021 147 132 127
0.119029 -0.188123 2.192679 149 134 129
0.119162 -0.186703 2.195134 148 133 128
0.119013 -0.184841 2.192379 144 129 124
0.119106 -0.183356 2.194097 141 126 119
0.119187 -0.181849 2.195586 137 125 116
0.119337 -0.180446 2.198362 134 124 114
0.119111 -0.178474 2.194192 133 123 113
0.118828 -0.176424 2.188969 133 123 114
0.118983 -0.175026 2.191828 133 123 114
0.119352 -0.173937 2.198638 131 121 112
0.119050 -0.171867 2.193062 128 118 109
0.119267 -0.170548 2.197061 128 118 109
0.119360 -0.169048 2.198776 130 120 111
0.119166 -0.167143 2.195212 119 109 101
0.119294 -0.165691 2.197567 104 93 87
0.119509 -0.164354 2.201523 86 75 69
0.119203 -0.162301 2.195881 68 57 51
0.119188 -0.160651 2.195614 49 40 33
0.119162 -0.158985 2.195126 34 24 17
0.119054 -0.157212 2.193147 25 17 9
0.118699 -0.155119 2.186608 25 22 12
0.119584 -0.154639 2.202901 33 33 23
0.119407 -0.152777 2.199646 38 39 31
0.119232 -0.150921 2.196422 44 46 38
0.119069 -0.149086 2.193426 60 62 56
0.119001 -0.147373 2.192174 84 86 81
0.118350 -0.144946 2.180169 103 105 100
0.117992 -0.142894 2.173586 110 114 109
0.117209 -0.140341 2.159146 112 116 111
0.117556 -0.139149 2.165549 110 114 110
0.117746 -0.137762 2.169038 105 112 108
0.117984 -0.136427 2.173432 103 112 110
0.117263 -0.133989 2.160156 101 113 114
0.117937 -0.133145 2.172561 89 105 108
0.117993 -0.131594 2.173596 69 87 91
0.118004 -0.129992 2.173805 46 65 69
0.117366 -0.127683 2.162054 21 41 43
0.117682 -0.126416 2.167868 9 27 30
0.118020 -0.125164 2.174089 6 20 24
0.119061 -0.124640 2.193279 3 14 20
0.118233 -0.122154 2.178014 1 9 16
0.116627 -0.118900 2.148442 2 9 17
0.116356 -0.117032 2.143448 0 6 14
0.117137 -0.116214 2.157820 0 3 11
0.116674 -0.114158 2.149298 3 10 19
0.116534 -0.112427 2.146727 16 29 38
0.116679 -0.110970 2.149392 30 46 55
0.116654 -0.109350 2.148935 32 49 57
0.116239 -0.107371 2.141283 28 45 53
0.116337 -0.105869 2.143090 29 46 54
0.116277 -0.104224 2.141994 29 46 54
0.115964 -0.102357 2.136221 23 41 47
0.115999 -0.100801 2.136871 12 32 35
0.116066 -0.099270 2.138098 5 22 24
0.116529 -0.098072 2.146626 0 10 14
0.116258 -0.096253 2.141631 0 3 9
0.116646 -0.094978 2.148782 0 1 8
0.116780 -0.093489 2.151245 1 1 8
0.116793 -0.091902 2.151499 1 2 7
0.117097 -0.090539 2.157098 0 1 6
0.117113 -0.088949 2.157384 0 1 6
0.116796 -0.087110 2.151542 0 1 6
0.116600 -0.085368 2.147941 0 1 6
0.116700 -0.083844 2.149769 0 0 6
0.116819 -0.082332 2.151970 0 0 6
0.117060 -0.080900 2.156417 0 0 6
0.117344 -0.079490 2.161634 0 1 6
0.117312 -0.077864 2.161052 0 0 6
0.116838 -0.075950 2.152320 0 0 8
0.116825 -0.074343 2.152077 0 0 8
0.117005 -0.072857 2.155397 0 0 8
0.117231 -0.071394 2.159567 0 0 8
0.117245 -0.069798 2.159822 0 0 8
0.117978 -0.068620 2.173323 0 0 8
0.117787 -0.066898 2.169811 0 0 8
0.116600 -0.064628 2.147929 0 0 7
0.116738 -0.063107 2.150474 0 1 6
0.116898 -0.058395 2.153425 0 1 6
0.117131 -0.056908 2.157709 0 1 6
0.117030 -0.055258 2.155859 1 2 7
0.116457 -0.053394 2.145298 1 2 7
0.115559 -0.051402 2.128764 1 1 4
0.115049 -0.049601 2.119373 1 1 0
0.115854 -0.048362 2.134189 2 2 0
0.115615 -0.043516 2.129786 0 1 4
0.116800 -0.042365 2.151628 0 0 5
0.116187 -0.040552 2.140328 0 1 8
0.115126 -0.038607 2.120774 0 3 13
0.114375 -0.036790 2.106955 2 10 22
0.113008 -0.034804 2.081764 14 31 46
0.111901 -0.032932 2.061371 39 60 78
0.110058 -0.030884 2.027416 62 87 107
0.108322 -0.028914 1.995440 72 99 122
0.108054 -0.027364 1.990499 70 100 124
0.107918 -0.025853 1.988002 64 97 122
0.108298 -0.024462 1.994993 59 94 122
0.108137 -0.022946 1.992038 55 90 122
0.108215 -0.020002 1.993465 52 85 115
0.108007 -0.018485 1.989633 53 83 112
0.108409 -0.017071 1.997038 52 81 108
0.108360 -0.015580 1.996137 49 75 102
0.107857 -0.014032 1.986868 44 70 96
0.107719 -0.012540 1.984330 41 67 93
0.107137 -0.011007 1.973610 38 64 88
0.107528 -0.009576 1.980816 32 57 81
0.107576 -0.008108 1.981699 32 55 77
0.107586 -0.006637 1.981878 29 50 70
0.107302 -0.005151 1.976644 21 41 57
0.107556 -0.003691 1.981323 14 31 45
0.107034 -0.002209 1.971717 5 19 31
0.106938 -0.000744 1.969939 0 7 16
0.107784 0.000725 1.985529 0 1 9
0.107514 0.002194 1.980561 1 0 7
0.107593 0.003668 1.982022 1 0 6
0.106421 0.005084 1.960430 0 0 5
0.107051 0.006579 1.972025 0 0 5
0.107569 0.008083 1.981572 1 2 6
0.106775 0.010945 1.966948 0 3 8
0.106915 0.012423 1.969529 0 3 9
0.106997 0.013896 1.971029 0 3 13
0.106879 0.015343 1.968855 0 4 17
0.106547 0.016753 1.962745 0 5 22
0.106316 0.018172 1.958484 0 7 26
0.106258 0.019616 1.957422 2 8 31
0.105057 0.023706 1.935298 1 6 21
0.104784 0.025079 1.930275 0 5 17
0.104911 0.026544 1.932601 0 5 17
0.105601 0.028164 1.945315 0 8 19
0.105118 0.029473 1.936414 0 12 21
0.104681 0.030783 1.928380 0 14 22
0.104112 0.032041 1.917889 0 15 23
0.104369 0.033548 1.922619 1 10 20
0.104155 0.034904 1.918676 0 4 14
0.103744 0.036186 1.911104 0 3 13
0.103623 0.037561 1.908881 0 3 13
0.103675 0.038999 1.909844 0 4 14
0.103647 0.040406 1.909316 0 6 15
0.103710 0.041850 1.910477 0 8 17
0.103704 0.043267 1.910364 0 10 18
0.103685 0.044678 1.910032 0 11 20
0.103582 0.046050 1.908117 0 11 23
0.103536 0.047447 1.907281 0 11 23
0.103560 0.048875 1.907727 0 13 23
0.103603 0.050313 1.908514 0 15 23
0.103529 0.051693 1.907145 1 16 22
0.103310 0.052998 1.903122 2 17 22
0.103251 0.054380 1.902027 3 18 23
0.103258 0.055796 1.902160 3 19 24
0.103203 0.057179 1.901138 3 18 25
0.103074 0.058518 1.898769 3 18 26
0.103064 0.059922 1.898592 3 18 26
0.103079 0.061341 1.898859 2 16 25
0.102885 0.062634 1.895282 2 16 24
0.102809 0.063994 1.893878 2 15 24
0.102831 0.065415 1.894284 2 15 23
0.102796 0.066799 1.893643 2 15 25
0.102811 0.068215 1.893918 2 15 27
0.102915 0.069693 1.895841 1 14 25
0.102708 0.070958 1.892032 0 13 23
0.102864 0.072473 1.894898 0 13 21
0.103199 0.074121 1.901063 0 14 21
0.103154 0.075501 1.900245 1 15 22
0.102842 0.076679 1.894494 2 16 24
0.102683 0.077966 1.891568 2 16 24
0.102237 0.079026 1.883357 1 15 24
0.102783 0.082261 1.893412 0 14 25
0.102639 0.083550 1.890758 0 13 26
0.102760 0.085055 1.892989 0 12 25
0.102782 0.086479 1.893384 0 12 25
0.103305 0.088332 1.903018 0 12 24
0.103370 0.089803 1.904227 0 13 23
0.103645 0.091460 1.909294 0 14 22
0.103630 0.092865 1.909019 0 15 22
0.103692 0.094339 1.910158 0 15 22
0.104282 0.096302 1.921018 0 15 22
0.103604 0.097094 1.908527 0 15 22
0.102175 0.098551 1.882211 0 15 22
0.101764 0.099547 1.874637 0 15 22
0.102559 0.101727 1.889273 0 15 22
0.102701 0.103274 1.891901 0 15 22
0.102794 0.104774 1.893615 0 15 22
0.102876 0.106265 1.895122 0 15 22
0.102551 0.107333 1.889138 0 15 22
0.102425 0.108601 1.886803 0 15 22
0.102585 0.110176 1.889767 0 15 22
0.102850 0.111867 1.894642 0 14 22
0.104545 0.115142 1.925873 0 11 20
0.103303 0.115187 1.902995 0 12 21
0.103493 0.116815 1.906490 0 12 21
0.103400 0.118124 1.904770 0 12 21
0.103269 0.119388 1.902367 0 12 21
0.102478 0.119876 1.887790 0 12 20
0.102065 0.120789 1.880176 0 12 20
0.101589 0.121616 1.871418 0 11 19
0.101427 0.122809 1.868423 0 11 17
0.100261 0.122770 1.846946 0 11 16
0.100690 0.124673 1.854850 1 10 15
0.100665 0.126020 1.854398 1 10 15
0.101417 0.128348 1.868244 1 10 15
0.102379 0.130967 1.885969 1 10 14
0.105604 0.137983 1.945382 0 11 13
0.100059 0.134844 1.843230 0 9 14
0.100895 0.137351 1.858621 0 9 14
0.102524 0.142375 1.888637 0 9 14
0.100646 0.142521 1.854038 0 9 16
0.100948 0.145712 1.859612 0 8 16
0.100739 0.146788 1.855754 0 8 18
0.101031 0.148596 1.861138 0 8 18
0.104567 0.160950 1.926266 0 3 16
0.104654 0.162516 1.927867 0 2 17
0.104487 0.163686 1.924795 0 2 17
0.104181 0.164632 1.919156 0 2 17
0.103405 0.164822 1.904873 0 2 15
0.100535 0.162999 1.852004 0 3 14
0.100107 0.163674 1.844115 0 3 14
0.099959 0.164800 1.841387 0 3 13
0.099815 0.165928 1.838733 0 4 13
0.099117 0.166123 1.825867 0 4 11
0.100863 0.175951 1.858047 0 5 10
0.101078 0.177708 1.861994 0 3 13
0.101086 0.179106 1.862148 1 1 14
0.100935 0.180219 1.859363 1 1 15
0.100446 0.180721 1.850362 1 1 15
0.099647 0.180646 1.835632 0 1 14
0.099429 0.181612 1.831626 0 2 14
0.102324 0.188301 1.884961 0 2 14
0.101733 0.188604 1.874065 0 2 14
0.102507 0.194248 1.888329 0 2 10
0.103387 0.197329 1.904528 0 2 9
0.103195 0.198375 1.901003 0 2 9
0.102948 0.199309 1.896449 0 2 9
0.101443 0.203335 1.868727 0 1 14
0.101522 0.204883 1.870180 0 1 14
0.101003 0.205217 1.860621 0 1 13
0.101100 0.206797 1.862403 0 1 13
0.100948 0.207869 1.859612 1 1 12
0.101033 0.209426 1.861177 1 1 11
0.101680 0.212158 1.873092 1 1 10
0.101717 0.213626 1.873765 1 1 9
0.102376 0.216411 1.885907 1 1 8
0.125296 -0.516696 2.276974 207 198 201
0.154883 -0.634527 2.814658 207 198 201
0.275581 -1.117844 5.008072 207 198 201
0.733431 -2.955224 13.328458 207 198 201
0.749267 -3.008916 13.616234 207 198 201
0.276209 -1.105475 5.019471 207 198 201
0.197300 -0.784330 3.585480 206 197 196
0.197083 -0.780809 3.581544 206 197 196
0.196815 -0.777088 3.576663 206 198 196
0.197048 -0.775348 3.580898 206 198 196
0.196737 -0.771472 3.575258 206 198 196
0.196622 -0.768365 3.573162 206 198 196
0.196618 -0.765695 3.573087 206 198 196
0.170488 -0.661634 3.098230 206 198 196
0.195588 -0.753765 3.554373 206 198 196
0.196811 -0.755823 3.576605 206 198 196
0.196304 -0.732676 3.567381 206 197 199
0.187120 -0.693345 3.400477 206 197 200
0.190102 -0.673604 3.454680 206 198 196
0.186527 -0.655901 3.389712 204 196 194
0.187044 -0.650142 3.399095 204 196 193
0.171879 -0.585832 3.123516 204 196 193
0.172109 -0.584292 3.127688 204 196 193
0.172080 -0.581871 3.127163 204 196 193
0.172532 -0.581070 3.135377 204 196 193
0.201354 -0.653680 3.659158 206 198 196
0.199672 -0.645523 3.628586 206 198 196
0.199702 -0.642924 3.629127 206 198 196
0.199273 -0.638855 3.621342 206 198 196
0.199740 -0.624174 3.629818 204 196 194
0.126677 -0.392437 2.302064 203 195 193
0.126121 -0.389012 2.291962 202 195 192
0.126874 -0.386198 2.305653 201 200 195
0.126156 -0.382310 2.292604 200 197 193
0.125995 -0.375017 2.289668 131 127 126
0.126167 -0.373827 2.292800 150 148 146
0.126227 -0.372301 2.293891 154 153 152
0.125962 -0.369818 2.289067 109 109 111
0.126471 -0.369606 2.298321 88 91 95
0.126707 -0.368587 2.302621 99 105 111
0.126160 -0.365292 2.292673 107 115 124
0.126267 -0.363897 2.294616 83 93 105
0.125707 -0.360587 2.284444 58 70 85
0.125187 -0.357406 2.274993 57 71 88
0.124794 -0.354598 2.267845 53 69 90
0.124595 -0.352352 2.264232 56 72 97
0.124349 -0.349978 2.259764 55 72 98
0.124390 -0.348414 2.260509 57 74 100
0.124273 -0.346408 2.258374 60 77 103
0.124331 -0.344893 2.259444 63 81 106
0.124209 -0.342877 2.257220 66 86 111
0.124191 -0.341150 2.256883 70 90 114
0.123956 -0.338832 2.252616 70 90 113
0.123926 -0.337076 2.252068 46 68 89
0.123598 -0.334517 2.246116 51 73 93
0.123553 -0.332728 2.245299 52 78 95
0.123407 -0.330669 2.242649 49 75 91
0.123375 -0.328917 2.242057 41 67 83
0.123218 -0.326836 2.239211 34 60 76
0.123539 -0.326021 2.245051 31 57 74
0.123442 -0.324097 2.243274 33 58 74
0.122984 -0.321236 2.234962 21 42 57
0.122956 -0.319501 2.234440 15 32 48
0.122622 -0.316979 2.228377 19 36 52
0.122245 -0.314353 2.221519 24 41 57
0.122017 -0.312120 2.217378 17 34 50
0.122396 -0.311438 2.224265 8 25 41
0.122141 -0.309141 2.219639 5 22 38
0.122027 -0.307206 2.217574 3 19 35
0.121783 -0.304947 2.213134 10 26 42
0.121811 -0.303372 2.213634 15 31 47
0.121717 -0.301495 2.211925 14 30 44
0.121476 -0.299260 2.207557 12 29 41
0.121387 -0.297401 2.205927 11 27 38
0.121335 -0.295636 2.204988 10 27 36
0.121209 -0.293694 2.202704 9 26 34
0.121177 -0.291980 2.202116 9 26 33
0.121129 -0.290229 2.201247 7 22 31
0.121200 -0.288763 2.202534 5 17 28
0.121081 -0.286846 2.200380 3 13 25
0.121342 -0.285825 2.205109 0 10 22
0.121278 -0.284038 2.203950 0 9 21
0.121234 -0.282299 2.203158 0 9 21
0.121307 -0.280832 2.204487 0 10 22
0.121451 -0.279524 2.207089 1 12 23
0.121348 -0.277650 2.205227 1 15 24
0.121149 -0.275559 2.201602 2 16 24
0.121166 -0.273963 2.201924 1 16 23
0.120732 -0.271353 2.194038 1 16 21
0.120285 -0.268724 2.185915 0 14 20
0.120748 -0.268128 2.194324 0 13 21
0.120698 -0.266389 2.193422 0 11 20
0.120877 -0.265151 2.196663 0 10 19
0.120714 -0.263165 2.193707 0 10 19
0.120606 -0.261301 2.191744 1 12 19
0.120275 -0.258961 2.185735 1 12 18
0.120240 -0.257262 2.185094 0 11 17
0.120346 -0.255865 2.187025 0 11 17
0.119903 -0.253305 2.178976 0 10 17
0.120030 -0.251951 2.181266 0 9 16
0.119841 -0.249938 2.177846 0 8 15
0.120893 -0.250499 2.196951 0 8 15
0.120416 -0.247886 2.188291 0 7 13
0.120790 -0.247025 2.195080 0 7 13
0.120691 -0.245193 2.193279 0 7 13
0.120729 -0.243641 2.193971 0 7 13
0.121051 -0.242657 2.199826 0 7 13
0.120936 -0.240794 2.197735 0 7 13
0.120951 -0.239192 2.198012 0 7 13
0.120796 -0.237256 2.195203 0 7 13
0.121489 -0.236975 2.207783 0 4 13
0.121584 -0.235520 2.209513 0 4 12
0.121314 -0.233359 2.204605 0 4 10
0.120526 -0.230216 2.190284 0 5 9
0.119885 -0.227374 2.178636 0 5 7
0.119223 -0.224510 2.166613 1 5 6
0.120691 -0.225644 2.193279 1 5 6
0.121321 -0.225185 2.204736 1 5 6
0.121290 -0.220216 2.204176 0 3 7
0.121034 -0.218118 2.199526 0 3 8
0.121280 -0.216923 2.203983 0 3 9
0.121244 -0.213586 2.203340 1 5 10
0.120883 -0.211318 2.196770 0 4 8
0.120845 -0.209620 2.196082 0 4 5
0.120483 -0.207367 2.189512 0 3 3
0.120553 -0.205860 2.190777 3 5 4
0.120465 -0.204083 2.189171 19 17 17
0.120850 -0.203104 2.196169 51 44 45
0.120735 -0.201282 2.194092 90 78 80
0.120709 -0.199609 2.193621 119 102 104
0.120702 -0.197967 2.193479 130 110 112
0.120891 -0.196647 2.196927 138 119 120
0.120993 -0.195179 2.198774 146 126 126
0.120836 -0.193294 2.195914 143 124 122
0.120931 -0.191815 2.197655 140 122 119
0.120708 -0.189831 2.193598 137 121 116
0.120727 -0.188232 2.193949 135 120 114
0.120863 -0.186812 2.196410 134 119 112
0.120714 -0.184953 2.193707 133 118 111
0.120795 -0.183446 2.195183 132 118 110
0.120958 -0.182061 2.198143 132 119 110
0.120712 -0.180061 2.193667 130 117 108
0.120598 -0.178263 2.191596 129 116 107
0.120781 -0.176903 2.194916 127 116 106
0.120870 -0.175403 2.196544 125 115 105
0.120930 -0.173857 2.197633 122 112 102
0.120734 -0.171945 2.194068 117 107 98
0.120712 -0.170284 2.193664 114 104 96
0.120995 -0.169051 2.198815 107 98 91
0.120945 -0.167348 2.197903 95 86 79
0.120914 -0.165673 2.197331 78 69 62
0.121083 -0.164271 2.200416 58 49 43
0.120856 -0.162331 2.196282 41 31 26
0.120628 -0.160397 2.192140 30 21 15
0.120782 -0.158971 2.194934 27 18 13
0.120597 -0.157099 2.191571 28 22 15
0.121135 -0.156166 2.201363 29 27 18
0.121057 -0.154432 2.199947 32 32 23
0.121099 -0.152851 2.200710 41 42 35
0.120776 -0.150812 2.194837 55 57 51
0.120687 -0.149072 2.193212 71 74 69
0.120365 -0.147049 2.187357 89 94 88
0.119628 -0.144535 2.173977 106 111 106
0.118548 -0.141629 2.154337 113 118 113
0.118543 -0.140024 2.154259 110 115 112
0.118978 -0.138931 2.162162 110 116 113
0.119009 -0.137361 2.162718 107 114 111
0.118996 -0.135740 2.162488 100 110 109
0.118650 -0.133744 2.156201 91 104 105
0.118775 -0.132281 2.158476 73 89 92
0.119186 -0.131130 2.165944 49 67 71
0.118902 -0.129212 2.160775 26 45 48
0.118380 -0.127047 2.151289 6 24 26
0.118418 -0.125490 2.151983 2 18 20
0.120526 -0.126096 2.190284 3 17 20
0.120795 -0.124747 2.195169 2 12 17
0.118721 -0.121003 2.157489 0 6 13
0.117832 -0.118507 2.141335 0 5 13
0.118188 -0.117269 2.147803 0 4 13
0.118265 -0.115749 2.149193 0 5 13
0.117928 -0.113828 2.143085 4 15 24
0.118132 -0.112430 2.146787 21 36 44
0.118021 -0.110731 2.144766 31 48 57
0.117824 -0.108956 2.141191 27 44 53
0.118101 -0.107618 2.146222 22 40 49
0.117547 -0.105527 2.136159 26 43 52
0.117545 -0.103938 2.136107 27 45 53
0.117536 -0.102344 2.135955 21 40 46
0.117646 -0.100851 2.137945 10 30 33
0.117321 -0.098990 2.132051 3 20 22
0.117870 -0.097861 2.142017 0 9 13
0.118019 -0.096392 2.144722 0 3 9
0.118178 -0.094927 2.147623 0 1 8
0.118133 -0.093296 2.146807 1 1 8
0.118805 -0.092223 2.159016 1 2 7
0.118653 -0.090504 2.156256 0 1 6
0.117723 -0.086616 2.139352 0 1 6
0.118153 -0.085338 2.147171 0 1 6
0.117530 -0.083301 2.135836 0 0 6
0.117949 -0.082006 2.143448 0 0 6
0.118164 -0.080561 2.147368 0 0 6
0.118669 -0.079303 2.156534 0 1 6
0.118553 -0.077626 2.154442 0 0 6
0.117910 -0.075613 2.142754 0 0 7
0.118073 -0.074123 2.145705 0 0 7
0.118370 -0.072712 2.151114 0 0 7
0.118582 -0.071242 2.154968 0 0 7
0.118692 -0.069706 2.156967 0 0 7
0.119017 -0.068290 2.162873 0 0 7
0.118815 -0.066570 2.159188 0 0 7
0.117292 -0.064134 2.131511 0 0 7
0.117492 -0.062657 2.135147 0 1 6
0.117391 -0.057850 2.133311 0 1 6
0.118213 -0.056659 2.148247 0 1 6
0.117929 -0.054931 2.143090 1 2 7
0.117429 -0.053113 2.134007 1 2 7
0.116915 -0.051302 2.124664 1 1 3
0.116958 -0.049743 2.125446 1 1 0
0.117435 -0.048360 2.134114 2 2 0
0.116981 -0.046594 2.125865 1 2 0
0.117092 -0.045058 2.127882 0 2 3
0.116209 -0.043150 2.111838 0 1 5
0.117153 -0.041919 2.128996 0 2 9
0.116969 -0.040274 2.125646 0 6 15
0.115860 -0.038328 2.105489 0 13 25
0.115144 -0.036537 2.092489 10 29 44
0.113605 -0.034516 2.064520 33 58 74
0.112386 -0.032628 2.042355 57 86 105
0.110653 -0.030631 2.010869 69 100 122
0.109654 -0.028875 1.992721 69 100 125
0.109736 -0.027415 1.994200 63 94 121
0.109630 -0.025909 1.992282 57 89 117
0.109531 -0.024407 1.990487 54 88 118
0.109611 -0.022945 1.991935 54 89 121
0.109857 -0.021514 1.996406 51 86 118
0.109788 -0.020018 1.995145 51 84 114
0.109445 -0.018479 1.988924 52 82 111
0.110094 -0.017102 2.000706 51 80 108
0.109849 -0.015581 1.996254 49 75 102
0.109290 -0.014027 1.986103 44 70 97
0.108972 -0.012515 1.980321 42 68 94
0.108399 -0.010986 1.969902 39 65 90
0.109211 -0.009594 1.984658 32 58 83
0.109149 -0.008115 1.983545 32 56 78
0.109053 -0.006636 1.981788 28 52 71
0.109101 -0.005167 1.982670 21 43 59
0.108782 -0.003683 1.976876 15 34 48
0.108834 -0.000747 1.977805 0 9 18
0.109144 0.000724 1.983438 0 1 10
0.108902 0.002193 1.979056 1 0 7
0.108927 0.003664 1.979505 1 0 6
0.107676 0.005075 1.956768 1 0 5
0.107955 0.006545 1.961834 1 0 5
0.108181 0.008019 1.965953 2 1 6
0.107882 0.012366 1.960515 0 1 9
0.107833 0.013816 1.959616 0 2 11
0.107395 0.015209 1.951655 0 2 14
0.107359 0.016653 1.951004 0 3 18
0.107372 0.018105 1.951245 0 3 21
0.106984 0.019483 1.944201 0 4 24
0.106912 0.020913 1.942885 0 4 25
0.106656 0.022303 1.938226 0 4 22
0.106537 0.023716 1.936074 1 3 18
0.106656 0.025182 1.938226 0 2 14
0.106895 0.028124 1.942580 0 7 16
0.106287 0.029399 1.931521 0 10 19
0.106961 0.031029 1.943772 0 12 20
0.105962 0.032170 1.925627 1 12 20
0.105709 0.033520 1.921018 1 7 17
0.105453 0.034862 1.916362 0 2 13
0.105161 0.036185 1.911057 0 1 13
0.105034 0.037559 1.908759 0 2 13
0.105121 0.039009 1.910341 0 3 12
0.105046 0.040399 1.908981 0 3 12
0.104995 0.041797 1.908042 0 6 13
0.104979 0.043207 1.907750 0 8 16
0.104865 0.044576 1.905688 0 9 19
0.104730 0.045932 1.903235 0 9 21
0.104706 0.047335 1.902791 0 9 21
0.104685 0.048739 1.902420 0 11 22
0.104671 0.050145 1.902167 0 13 22
0.104512 0.051479 1.899266 1 14 21
0.104191 0.052728 1.893445 2 15 21
0.104367 0.054226 1.896635 3 16 22
0.104358 0.055630 1.896468 1 15 21
0.104301 0.057007 1.895430 0 13 20
0.104254 0.058389 1.894587 0 13 21
0.104204 0.059767 1.893669 1 12 21
0.104245 0.061198 1.894425 1 11 20
0.104125 0.062533 1.892230 0 11 20
0.103990 0.063856 1.889786 0 10 19
0.103962 0.065242 1.889273 0 10 19
0.103799 0.066540 1.886310 1 11 21
0.103842 0.067970 1.887103 2 12 24
0.103834 0.069366 1.886944 0 11 22
0.103750 0.070710 1.885423 0 10 20
0.103778 0.072131 1.885940 0 9 18
0.103815 0.073557 1.886606 0 11 18
0.103927 0.075040 1.888646 0 12 19
0.103981 0.076482 1.889620 1 13 20
0.103713 0.077685 1.884758 1 13 22
0.103618 0.079012 1.883024 0 13 21
0.103956 0.080673 1.889159 0 13 22
0.103880 0.082017 1.887790 0 12 22
0.103874 0.083414 1.887676 0 11 22
0.103863 0.084807 1.887478 0 11 22
0.104179 0.086472 1.893227 0 10 21
0.104109 0.087818 1.891947 0 10 21
0.104403 0.089476 1.897296 0 11 20
0.104903 0.091320 1.906371 0 12 20
0.104488 0.092369 1.898831 0 13 20
0.104469 0.093763 1.898496 0 13 20
0.104457 0.095162 1.898277 0 13 20
0.104735 0.096829 1.903323 0 13 20
0.104142 0.097686 1.892542 0 13 20
0.102898 0.097909 1.869947 0 13 20
0.102708 0.099114 1.866487 0 13 20
0.103058 0.100842 1.872842 0 13 20
0.104044 0.103212 1.890758 0 13 20
0.103969 0.104541 1.889399 0 13 20
0.103939 0.105913 1.888849 0 13 20
0.103953 0.108734 1.889108 0 13 20
0.104024 0.110213 1.890401 0 13 20
0.104218 0.111825 1.893927 0 12 20
0.105034 0.115536 1.908759 0 11 20
0.104195 0.117426 1.893505 0 11 20
0.104004 0.118615 1.890035 0 10 19
0.103189 0.119078 1.875223 0 10 19
0.103149 0.120425 1.874505 0 10 19
0.102746 0.121340 1.867173 0 10 18
0.102402 0.122316 1.860922 0 9 16
0.101469 0.122572 1.843968 0 9 15
0.101615 0.124119 1.846617 0 9 14
0.101647 0.125531 1.847204 0 9 14
0.102023 0.127372 1.854038 0 9 14
0.102844 0.129786 1.868956 1 8 13
0.105892 0.136491 1.924349 0 9 12
0.101181 0.134516 1.838733 0 9 14
0.103555 0.141866 1.881883 0 9 14
0.101380 0.141623 1.842354 0 8 15
0.105201 0.148380 1.911793 0 8 15
0.102354 0.145747 1.860058 0 8 15
0.101960 0.146562 1.852895 0 7 17
0.100943 0.147825 1.834413 0 7 17
0.101297 0.149710 1.840844 0 7 17
0.105195 0.158311 1.911678 1 6 17
0.105715 0.160521 1.921133 0 3 15
0.106023 0.162420 1.926737 0 2 15
0.105711 0.163369 1.921058 0 2 15
0.105150 0.163921 1.910859 0 2 15
0.104956 0.165035 1.907341 0 2 15
0.104697 0.166042 1.902640 0 2 14
0.101046 0.161615 1.836288 0 2 14
0.101112 0.163085 1.837478 0 2 14
0.100654 0.163706 1.829168 0 3 13
0.100672 0.165093 1.829483 1 4 13
0.100218 0.165701 1.821234 0 4 10
0.100077 0.166820 1.818681 0 4 10
0.100449 0.168796 1.825438 0 4 10
0.100554 0.170329 1.827337 0 4 10
0.101915 0.176762 1.852080 1 2 12
0.101856 0.178033 1.850994 1 1 14
0.100850 0.178999 1.832730 2 1 14
0.100352 0.179470 1.823680 0 1 14
0.103408 0.187725 1.879199 0 2 13
0.103173 0.188692 1.874936 0 2 12
0.105006 0.197714 1.908245 0 2 9
0.104838 0.198812 1.905187 0 2 9
0.102948 0.198007 1.870845 0 2 9
0.103183 0.201245 1.875113 0 1 11
0.103244 0.202757 1.876222 0 1 13
0.102881 0.203433 1.869622 0 1 14
0.102861 0.204782 1.869266 0 1 14
0.102780 0.206010 1.867804 0 1 13
0.102997 0.207835 1.871747 1 1 13
0.103192 0.209620 1.875282 1 1 12
0.103579 0.211804 1.882309 1 1 11
0.103605 0.213256 1.882790 1 1 10
0.103841 0.215143 1.887068 1 1 9
0.103873 0.216611 1.887653 1 1 8
0.103889 0.218047 1.887946 1 2 7
0.126987 -0.516696 2.276974 207 198 201
0.156974 -0.634527 2.814658 206 197 200
0.278379 -1.114152 4.991532 206 197 200
0.279540 -1.115078 5.012361 206 197 200
0.742260 -2.950964 13.309247 206 197 200
0.279634 -1.104278 5.014037 206 197 200
0.200167 -0.785129 3.589133 206 197 198
0.199781 -0.780955 3.582214 206 197 196
0.199582 -0.777518 3.578644 206 198 196
0.199786 -0.775655 3.582312 206 198 196
0.199599 -0.772270 3.578960 206 198 196
0.199635 -0.769747 3.579590 206 198 196
0.199902 -0.768117 3.584389 206 198 196
0.172775 -0.661580 3.097974 206 198 196
0.199707 -0.762049 3.580898 206 198 196
0.198678 -0.755475 3.562436 206 198 196
0.186413 -0.681527 3.342515 206 197 200
0.159086 -0.562552 2.852530 204 196 194
0.158522 -0.558446 2.842419 204 196 194
0.186485 -0.647018 3.343804 205 197 194
0.186560 -0.642310 3.345156 205 198 192
0.186571 -0.639862 3.345349 204 197 192
0.174634 -0.587295 3.131316 202 195 190
0.174785 -0.585475 3.134021 204 196 193
0.174942 -0.583669 3.136827 204 196 193
0.175688 -0.583820 3.150213 204 196 193
0.203350 -0.651368 3.646216 206 198 196
0.201123 -0.641554 3.606273 206 198 196
0.201796 -0.641015 3.618354 206 198 196
0.128447 -0.392623 2.303155 203 195 193
0.127876 -0.389173 2.292910 202 195 192
0.127930 -0.384225 2.293869 202 201 196
0.127573 -0.381454 2.287472 201 197 195
0.128054 -0.374365 2.296098 138 135 134
0.128458 -0.373834 2.303336 151 149 149
0.127658 -0.369807 2.288999 116 117 118
0.128143 -0.369505 2.297690 87 90 93
0.128558 -0.368990 2.305139 94 99 105
0.127662 -0.364718 2.289067 103 111 119
0.127890 -0.363667 2.293162 82 92 103
0.127735 -0.361524 2.290375 54 65 79
0.127162 -0.358210 2.280113 50 63 80
0.126995 -0.356047 2.277112 54 69 90
0.126292 -0.352394 2.264504 54 70 94
0.126166 -0.350363 2.262250 52 69 94
0.126018 -0.348272 2.259584 53 69 95
0.125886 -0.346231 2.257220 57 73 98
0.125744 -0.344165 2.254675 60 77 102
0.125856 -0.342796 2.256683 60 78 102
0.125827 -0.341041 2.256160 57 75 99
0.125769 -0.339210 2.255130 52 71 94
0.125933 -0.337975 2.258074 41 62 83
0.125853 -0.336083 2.256629 47 69 90
0.125814 -0.334305 2.255944 48 71 91
0.125596 -0.332051 2.252021 45 68 88
0.125435 -0.329956 2.249143 45 68 88
0.124881 -0.326836 2.239211 47 70 90
0.125307 -0.326282 2.246849 37 63 80
0.125003 -0.323824 2.241388 26 50 67
0.124774 -0.321570 2.237289 13 33 50
0.124852 -0.320107 2.238679 17 34 50
0.124123 -0.316586 2.225617 24 42 57
0.123721 -0.313912 2.218398 24 43 57
0.123855 -0.312603 2.220808 17 35 50
0.123702 -0.310571 2.218073 12 30 45
0.123518 -0.308463 2.214768 14 32 48
0.123213 -0.306060 2.209301 18 36 52
0.123010 -0.303918 2.205660 27 45 61
0.122927 -0.302075 2.204168 31 49 65
0.123007 -0.300633 2.205597 30 48 63
0.122992 -0.298960 2.205342 27 46 59
0.122657 -0.296510 2.199322 24 43 55
0.122599 -0.294738 2.198289 21 40 50
0.122429 -0.292699 2.195246 17 37 44
0.122464 -0.291151 2.195863 15 34 41
0.122507 -0.289623 2.196645 10 28 37
0.122653 -0.288334 2.199258 5 19 31
0.122770 -0.286972 2.201347 4 17 30
0.122941 -0.285736 2.204420 3 15 28
0.122796 -0.283763 2.201817 3 14 27
0.123020 -0.282642 2.205832 2 14 27
0.123091 -0.281166 2.207107 2 15 28
0.122945 -0.279195 2.204487 3 16 28
0.122907 -0.277472 2.203810 2 18 27
0.122884 -0.275782 2.203390 1 17 25
0.122769 -0.273890 2.201334 0 17 24
0.122153 -0.270888 2.190284 0 17 22
0.121986 -0.268894 2.187296 0 16 22
0.121890 -0.267059 2.185571 0 15 22
0.122320 -0.266371 2.193279 0 13 21
0.122289 -0.264677 2.192734 0 11 22
0.122267 -0.262999 2.192328 0 11 21
0.122129 -0.261077 2.189864 1 12 21
0.122081 -0.259348 2.189002 1 12 18
0.121586 -0.256676 2.180117 0 11 17
0.122017 -0.255961 2.187845 0 11 17
0.121629 -0.253527 2.180887 0 9 16
0.121629 -0.251907 2.180887 0 8 15
0.122002 -0.251055 2.187578 0 7 15
0.122101 -0.249634 2.189363 0 7 14
0.122153 -0.248112 2.190284 0 7 13
0.122124 -0.246428 2.189775 0 7 13
0.121931 -0.244413 2.186303 0 7 13
0.122069 -0.243065 2.188789 0 7 13
0.122650 -0.242588 2.199197 0 6 12
0.122353 -0.240372 2.193879 0 6 12
0.122084 -0.238216 2.189046 0 6 12
0.122467 -0.237334 2.195929 0 6 12
0.122899 -0.236533 2.203659 0 4 12
0.123084 -0.235249 2.206976 0 4 11
0.122769 -0.233013 2.201334 0 4 9
0.121544 -0.229069 2.179371 0 4 8
0.120811 -0.226078 2.166222 0 4 6
0.121080 -0.224970 2.171052 0 4 5
0.121574 -0.224268 2.179902 0 4 5
0.124188 -0.225782 2.226776 0 3 5
0.122540 -0.219523 2.197232 0 3 7
0.122258 -0.217389 2.192174 0 2 7
0.122736 -0.216603 2.200737 0 2 8
0.122500 -0.214555 2.196505 0 3 10
0.123116 -0.213995 2.207557 1 4 10
0.122404 -0.211128 2.194797 0 3 6
0.121906 -0.208645 2.185861 0 4 5
0.122169 -0.207468 2.190579 0 5 4
0.121634 -0.204940 2.180985 4 6 5
0.121860 -0.203698 2.185043 18 16 17
0.122366 -0.202913 2.194102 46 40 41
0.121839 -0.200416 2.184654 80 70 72
0.122227 -0.199427 2.191614 107 93 94
0.122023 -0.197468 2.187951 119 102 103
0.122236 -0.196186 2.191780 123 105 106
0.122477 -0.194941 2.196100 126 108 107
0.122456 -0.193277 2.195724 127 109 106
0.122030 -0.190980 2.188086 126 109 105
0.121979 -0.189275 2.187167 123 108 103
0.122153 -0.187918 2.190284 121 107 100
0.122368 -0.186620 2.194150 119 106 98
0.122170 -0.184691 2.190603 118 105 97
0.122254 -0.183189 2.192102 122 109 101
0.122236 -0.181534 2.191780 126 114 104
0.122059 -0.179646 2.188606 124 112 101
0.121897 -0.177784 2.185704 121 110 100
0.122121 -0.176484 2.189721 119 109 99
0.122068 -0.174782 2.188773 116 106 96
0.122350 -0.173556 2.193824 112 102 92
0.122034 -0.171483 2.188165 106 96 87
0.122117 -0.169972 2.189637 96 87 78
0.122358 -0.168679 2.193971 82 73 66
0.122513 -0.167260 2.196745 70 61 54
0.122397 -0.165471 2.194662 54 46 39
0.122334 -0.163758 2.193543 36 29 23
0.122293 -0.162074 2.192806 23 16 10
0.122310 -0.160467 2.193102 20 14 9
0.122555 -0.159157 2.197507 29 23 17
0.122471 -0.157416 2.195996 39 36 29
0.122254 -0.155509 2.192098 43 43 33
0.122648 -0.154377 2.199163 40 42 32
0.122186 -0.152168 2.190882 50 52 44
0.122222 -0.150585 2.191531 68 71 64
0.121709 -0.148332 2.182336 81 86 81
0.121299 -0.146217 2.174979 92 98 94
0.120307 -0.143419 2.157198 106 112 109
0.119946 -0.141390 2.150709 113 119 116
0.120374 -0.140292 2.158396 109 115 113
0.120695 -0.139059 2.164151 110 118 117
0.120682 -0.137437 2.163914 107 115 115
0.120708 -0.135859 2.164385 97 107 109
0.120255 -0.133747 2.156256 81 94 98
0.120993 -0.132956 2.169484 58 73 78
0.120422 -0.130725 2.159244 30 48 53
0.121153 -0.129905 2.172352 13 30 33
0.122620 -0.128212 2.198663 7 20 22
0.121874 -0.125809 2.185287 8 20 23
0.121654 -0.123962 2.181347 4 13 19
0.120874 -0.121557 2.167356 0 5 13
0.119761 -0.118842 2.147394 0 4 12
0.119572 -0.117062 2.144007 0 6 15
0.120078 -0.115959 2.153085 0 9 18
0.119890 -0.114180 2.149717 8 23 31
0.119519 -0.112235 2.143053 26 42 51
0.119363 -0.110499 2.140262 32 50 60
0.119339 -0.108887 2.139836 24 42 52
0.119381 -0.107336 2.140587 20 38 48
0.119093 -0.105490 2.135420 25 43 53
0.118926 -0.103759 2.132425 28 46 55
0.119384 -0.102569 2.140646 21 40 46
0.119215 -0.100835 2.137602 8 28 31
0.119122 -0.099171 2.135949 2 19 21
0.119396 -0.097808 2.140847 0 9 13
0.119306 -0.096146 2.139247 0 3 9
0.119706 -0.094873 2.146410 0 1 8
0.120382 -0.093806 2.158538 1 1 8
0.119323 -0.086624 2.139555 0 1 6
0.119485 -0.085150 2.142452 0 1 6
0.119470 -0.083548 2.142176 0 0 6
0.119093 -0.081699 2.135427 0 0 6
0.120029 -0.080743 2.152214 0 0 6
0.120507 -0.079459 2.160775 0 1 6
0.120142 -0.077618 2.154229 0 1 6
0.119657 -0.075711 2.145534 0 1 6
0.119902 -0.074269 2.149923 0 1 6
0.119945 -0.072698 2.150693 0 1 6
0.119946 -0.071101 2.150709 0 1 6
0.119688 -0.069355 2.146096 0 1 6
0.119711 -0.067774 2.146508 0 1 6
0.119711 -0.066179 2.146508 0 0 5
0.118938 -0.064168 2.132648 0 0 5
0.119236 -0.059564 2.137982 0 1 6
0.118091 -0.057420 2.117455 0 1 6
0.119032 -0.056292 2.134320 0 1 6
0.119263 -0.054813 2.138478 1 2 7
0.119313 -0.053246 2.139364 1 2 7
0.118827 -0.051447 2.130654 1 1 3
0.118787 -0.049848 2.129927 1 1 0
0.118828 -0.048282 2.130663 1 2 0
0.118835 -0.046702 2.130792 1 1 1
0.118847 -0.045125 2.131021 0 1 4
0.118151 -0.043287 2.118533 0 3 9
0.118175 -0.041721 2.118956 0 8 17
0.118425 -0.040233 2.123448 2 17 29
0.116892 -0.038155 2.095962 12 33 48
0.115659 -0.036212 2.073850 32 59 77
0.114274 -0.034256 2.049020 48 80 100
0.112902 -0.032341 2.024405 62 97 119
0.112401 -0.029204 2.015427 61 95 124
0.112100 -0.027633 2.010028 57 89 119
0.111081 -0.025902 1.991761 55 87 118
0.111171 -0.022962 1.993374 53 87 121
0.111534 -0.020066 1.999883 50 83 114
0.111481 -0.018572 1.998934 52 82 111
0.111255 -0.017052 1.994884 51 80 108
0.111626 -0.015622 2.001535 49 75 103
0.110634 -0.014010 1.983753 44 71 98
0.110484 -0.012520 1.981063 42 69 96
0.110510 -0.011051 1.981529 40 66 92
0.110606 -0.009587 1.983240 33 59 83
0.110484 -0.008105 1.981063 32 57 80
0.110620 -0.006642 1.983489 28 52 73
0.110353 -0.005156 1.978705 22 44 62
0.110562 -0.002221 1.982452 9 25 37
0.109925 -0.000744 1.971029 2 10 20
0.110831 0.000726 1.987281 0 2 10
0.110804 0.002201 1.986789 1 0 8
0.110611 0.003671 1.983329 1 0 7
0.109554 0.006554 1.964376 1 0 5
0.110667 0.011042 1.984330 0 1 7
0.110626 0.012511 1.983612 0 0 8
0.107731 0.020793 1.931688 0 2 21
0.107697 0.022221 1.931085 0 3 19
0.108059 0.025174 1.937584 0 2 15
0.107841 0.026559 1.933668 0 4 15
0.107539 0.027917 1.928253 0 8 18
0.107515 0.029343 1.927820 1 11 20
0.107694 0.030826 1.931034 2 11 20
0.107068 0.032073 1.919808 1 11 20
0.106706 0.033385 1.913314 0 7 17
0.106529 0.034749 1.910150 0 4 15
0.106437 0.036136 1.908496 3 4 15
0.106416 0.037547 1.908120 3 5 14
0.106464 0.038981 1.908981 2 5 14
0.106427 0.040385 1.908316 0 5 14
0.106326 0.041763 1.906505 0 8 15
0.106317 0.043176 1.906347 1 10 18
0.106224 0.044552 1.904667 1 10 20
0.106163 0.045941 1.903581 0 9 20
0.105915 0.047244 1.899135 0 9 21
0.105771 0.048589 1.896556 0 10 20
0.105525 0.049881 1.892145 0 12 19
0.105460 0.051255 1.890972 0 13 19
0.105367 0.052613 1.889303 1 14 19
0.105452 0.054060 1.890833 1 15 19
0.105525 0.055502 1.892130 1 13 18
0.105525 0.056908 1.892142 0 11 17
0.105540 0.058322 1.892410 0 10 18
0.105463 0.059684 1.891024 0 9 18
0.105585 0.061159 1.893207 0 9 18
0.105421 0.062468 1.890280 0 8 17
0.105274 0.063783 1.887646 0 8 16
0.105154 0.065111 1.885481 0 7 16
0.105018 0.066425 1.883043 0 8 18
0.105038 0.067837 1.883415 0 9 21
0.104819 0.069092 1.879487 0 9 20
0.104717 0.070419 1.877644 0 9 18
0.104571 0.071713 1.875028 0 9 17
0.104686 0.073186 1.877094 0 9 16
0.104855 0.074701 1.880118 0 10 16
0.104796 0.076055 1.879061 0 11 17
0.104630 0.077328 1.876094 1 11 19
0.104580 0.078684 1.875199 1 11 20
0.104591 0.080085 1.875398 1 11 21
0.104926 0.081739 1.881393 1 11 21
0.104898 0.083114 1.880902 0 10 20
0.105948 0.085357 1.899716 0 10 20
0.105356 0.086283 1.889108 0 9 19
0.105159 0.087522 1.885571 0 9 19
0.106028 0.089658 1.901157 0 10 19
0.106115 0.091145 1.902721 0 10 19
0.106300 0.092720 1.906037 0 10 19
0.106046 0.093910 1.901474 0 10 19
0.105742 0.095049 1.896030 0 10 19
0.105459 0.096199 1.890947 0 10 19
0.104953 0.097136 1.881883 0 10 19
0.104227 0.097852 1.868868 0 10 19
0.104106 0.099125 1.866697 0 10 19
0.104400 0.100796 1.871971 1 11 20
0.104923 0.102698 1.881348 1 11 20
0.104764 0.103937 1.878492 1 11 20
0.104626 0.105194 1.876013 1 11 20
0.102547 0.104469 1.838733 1 11 20
0.102283 0.105563 1.834015 1 11 20
0.105144 0.109916 1.885309 1 11 20
0.105542 0.111738 1.892446 0 10 19
0.106524 0.114196 1.910058 0 9 18
0.106082 0.115134 1.902119 0 9 18
0.104855 0.116596 1.880118 0 9 18
0.104579 0.117682 1.875178 0 9 18
0.104374 0.118842 1.871502 0 9 18
0.104240 0.120077 1.869090 0 8 17
0.102904 0.121279 1.845144 0 7 15
0.102906 0.122652 1.845174 0 7 14
0.102800 0.123895 1.843285 0 7 13
0.102671 0.125107 1.840968 1 7 13
0.102881 0.126733 1.844725 1 7 13
0.107127 0.134817 1.920869 1 7 12
0.106443 0.135374 1.908605 0 7 12
0.107011 0.137521 1.918785 0 7 13
0.102847 0.134909 1.844115 0 7 13
0.105338 0.142385 1.888778 0 7 13
0.105548 0.144075 1.892542 0 7 14
0.106410 0.148086 1.908003 0 7 15
0.104425 0.149497 1.872419 0 7 16
0.101512 0.146678 1.820184 0 7 16
0.101760 0.148392 1.824628 0 7 16
0.106294 0.157835 1.905933 0 6 16
0.107135 0.160510 1.921000 0 2 14
0.107166 0.161984 1.921566 0 2 14
0.106645 0.162616 1.912212 0 2 14
0.106054 0.163129 1.901633 0 2 14
0.106178 0.164734 1.903856 0 2 14
0.104641 0.163741 1.876279 0 2 14
0.102224 0.161322 1.832955 0 2 14
0.102132 0.162536 1.831295 0 2 13
0.101817 0.163391 1.825652 0 3 13
0.101699 0.164556 1.823529 0 3 12
0.101267 0.165206 1.815784 0 3 10
0.101072 0.166234 1.812290 0 3 10
0.101155 0.167718 1.813780 0 3 10
0.103811 0.176269 1.861398 0 4 10
0.103832 0.177688 1.861785 1 2 12
0.103602 0.180055 1.857664 1 0 13
0.104571 0.187309 1.875039 0 1 12
0.106231 0.195941 1.904792 0 2 10
0.106385 0.197643 1.907560 0 2 9
0.106380 0.199049 1.907462 0 2 9
0.105830 0.199430 1.897600 0 2 9
0.104522 0.198358 1.874160 0 2 9
0.104537 0.199778 1.874419 0 2 9
0.104552 0.201200 1.874701 0 1 11
0.104489 0.202470 1.873565 0 1 13
0.104216 0.203329 1.868667 0 1 14
0.104259 0.204802 1.869444 0 1 13
0.104210 0.206093 1.868562 0 1 13
0.104420 0.207898 1.872320 1 1 13
0.104716 0.209883 1.877629 1 1 12
0.104649 0.211142 1.876431 1 1 11
0.105015 0.213280 1.883000 1 1 10
0.105138 0.216330 1.885202 1 1 8
0.104914 0.217267 1.881191 1 2 7
0.128679 -0.516696 2.276974 207 198 201
0.159065 -0.634527 2.814658 206 197 200
0.127384 -0.506473 2.254059 206 197 200
0.750486 -2.944454 13.279889 206 197 200
0.767489 -3.001076 13.580757 206 197 200
0.284800 -1.109896 5.039545 206 197 200
0.202806 -0.785027 3.588667 206 197 196
0.202510 -0.781218 3.583423 206 197 196
0.202342 -0.777911 3.580450 206 198 196
0.202741 -0.776780 3.587510 206 198 196
0.202746 -0.774134 3.587597 206 198 196
0.203003 -0.772450 3.592156 206 198 196
0.203228 -0.770633 3.596130 206 198 196
0.202565 -0.762792 3.584389 206 198 196
0.201725 -0.756981 3.569542 206 198 196
0.203557 -0.761179 3.601953 206 198 196
0.239034 -0.881272 4.229709 206 198 196
0.206569 -0.753436 3.655246 206 197 197
0.206252 -0.749570 3.649642 206 197 199
0.207912 -0.752869 3.679008 206 197 200
0.185798 -0.670350 3.287700 206 197 200
0.161141 -0.564447 2.851403 204 196 194
0.186306 -0.633006 3.296700 205 198 192
0.186356 -0.630725 3.297578 205 198 192
0.177217 -0.588147 3.135859 202 195 190
0.177307 -0.586118 3.137461 204 196 193
0.177454 -0.584269 3.140053 204 196 193
0.177873 -0.583311 3.147469 204 196 193
0.207222 -0.657770 3.666807 206 198 196
0.206197 -0.651806 3.648670 206 198 196
0.204515 -0.643800 3.618898 206 198 196
0.204024 -0.639573 3.610209 206 198 196
0.129412 -0.383569 2.289953 200 199 195
0.128930 -0.380446 2.281428 201 197 196
0.130268 -0.375834 2.305104 129 127 125
0.129847 -0.372911 2.297644 149 148 146
0.129584 -0.370453 2.292995 121 122 122
0.129778 -0.369302 2.296429 87 90 92
0.129366 -0.366428 2.289130 84 90 94
0.129945 -0.366361 2.299381 89 98 104
0.129894 -0.364511 2.298484 74 84 93
0.129047 -0.360436 2.283484 53 65 77
0.129310 -0.359473 2.288150 51 64 80
0.128679 -0.356027 2.276986 57 71 90
0.128148 -0.352872 2.267578 54 70 92
0.128057 -0.350938 2.265967 51 66 90
0.128115 -0.349414 2.266994 47 63 87
0.127461 -0.345955 2.255422 47 63 86
0.127478 -0.344326 2.255728 46 63 86
0.127373 -0.342369 2.253876 44 61 84
0.127503 -0.341042 2.256168 40 57 80
0.127494 -0.339342 2.256010 36 54 76
0.127480 -0.337630 2.255768 34 53 74
0.127468 -0.335924 2.255560 39 60 81
0.127590 -0.334568 2.257720 42 63 84
0.127494 -0.332639 2.256010 42 63 84
0.127165 -0.330110 2.250192 49 71 92
0.126799 -0.327495 2.243722 56 78 98
0.126721 -0.325627 2.242342 43 67 85
0.126869 -0.324339 2.244951 23 46 63
0.126493 -0.321715 2.238297 7 27 42
0.126414 -0.319853 2.236905 16 34 49
0.126450 -0.318283 2.237545 24 43 57
0.125702 -0.314747 2.224305 22 41 55
0.125262 -0.311999 2.216518 16 35 49
0.125249 -0.310321 2.216291 16 35 49
0.125009 -0.308082 2.212034 22 41 56
0.124745 -0.305794 2.207376 28 47 62
0.124375 -0.303252 2.200826 34 53 69
0.124271 -0.301365 2.198985 36 55 71
0.124417 -0.300083 2.201566 34 54 69
0.124418 -0.298450 2.201581 31 52 66
0.124211 -0.296322 2.197924 28 48 61
0.124178 -0.294610 2.197333 23 44 55
0.123831 -0.292159 2.191192 18 40 47
0.123651 -0.290109 2.188007 15 36 43
0.123567 -0.288288 2.186523 10 29 37
0.123684 -0.286935 2.188593 4 21 32
0.123728 -0.285412 2.189375 5 20 33
0.123915 -0.284214 2.192679 5 20 33
0.124308 -0.283481 2.199629 6 20 33
0.124610 -0.282532 2.204973 5 20 33
0.124530 -0.280715 2.203566 5 20 33
0.124239 -0.278425 2.198407 5 20 33
0.124205 -0.276717 2.197809 3 20 31
0.124141 -0.274943 2.196683 1 19 27
