ply
format ascii 1.0
element vertex 1300
property float x
property float y
property float z
property uchar red
property uchar green
property uchar blue
end_header
0.334774 -0.614191 3.149969 187 180 183
0.336515 -0.615033 3.166353 186 181 183
0.332255 -0.584026 3.126267 189 179 183
0.331202 -0.579861 3.116361 190 179 183
0.331702 -0.578417 3.121061 189 179 183
0.192078 -0.326889 1.807308 189 180 183
0.333075 -0.550550 3.133979 189 180 183
0.332501 -0.547277 3.128578 189 180 183
0.332330 -0.544674 3.126975 189 180 183
0.332312 -0.542322 3.126806 189 180 183
0.331263 -0.538295 3.116935 189 180 183
0.331353 -0.536126 3.117784 189 180 183
0.219435 -0.322837 2.064714 190 180 188
0.241530 -0.350279 2.272611 190 180 188
0.294743 -0.413033 2.773311 189 180 183
0.279887 -0.372654 2.633526 182 176 179
0.279767 -0.370538 2.632390 180 174 179
0.251132 -0.322082 2.362963 129 128 135
0.258749 -0.319192 2.434633 29 36 42
0.256301 -0.312590 2.411601 18 27 35
0.255950 -0.310372 2.408290 14 24 34
0.256061 -0.308718 2.409341 10 20 31
0.255352 -0.306079 2.402668 2 9 21
0.259867 -0.307858 2.445148 2 10 22
0.259738 -0.305890 2.443939 4 11 24
0.249945 -0.290863 2.351788 0 7 16
0.253375 -0.286001 2.384070 0 8 15
0.253520 -0.284392 2.385426 0 8 15
0.253858 -0.282998 2.388614 0 8 15
0.254797 -0.282263 2.397443 0 8 15
0.253694 -0.279268 2.387063 0 7 15
0.253305 -0.262908 2.383408 26 36 52
0.253313 -0.261146 2.383485 47 64 80
0.253885 -0.256412 2.388862 22 37 67
0.251370 -0.252115 2.365203 37 52 83
0.250759 -0.249750 2.359448 80 95 125
0.252151 -0.249374 2.372551 134 151 177
0.253685 -0.249118 2.386981 186 206 228
0.256581 -0.250169 2.414231 218 242 254
0.254161 -0.237152 2.391464 78 90 125
0.253916 -0.235148 2.389157 68 75 110
0.255686 -0.235001 2.405813 60 63 98
0.247202 -0.223747 2.325983 61 60 75
0.247950 -0.222692 2.333020 60 59 67
0.248105 -0.221097 2.334484 58 57 65
0.251067 -0.220227 2.362345 63 60 69
0.248677 -0.216392 2.339857 65 62 71
0.248923 -0.214867 2.342179 64 63 71
0.248789 -0.213013 2.340919 62 61 69
0.248773 -0.211260 2.340763 66 65 73
0.248688 -0.209450 2.339967 65 64 72
0.248026 -0.207159 2.333737 66 63 72
0.248667 -0.205956 2.339763 68 63 72
0.248426 -0.204021 2.337501 69 61 72
0.248308 -0.202188 2.336387 73 62 74
0.247868 -0.200097 2.332245 83 71 83
0.248012 -0.198481 2.333608 97 84 94
0.248126 -0.196838 2.334678 103 92 98
0.247406 -0.194537 2.327900 103 92 97
0.246874 -0.192394 2.322893 105 94 100
0.247531 -0.191176 2.329078 106 95 101
0.247213 -0.189202 2.326084 96 85 91
0.246377 -0.186841 2.318218 80 69 75
0.246910 -0.185519 2.323236 74 63 68
0.246581 -0.181826 2.320144 102 91 95
0.247150 -0.180518 2.325493 116 106 109
0.246927 -0.178629 2.323393 122 114 118
0.240225 -0.170423 2.260336 120 118 122
0.242565 -0.170388 2.282352 119 121 126
0.243960 -0.169662 2.295474 118 123 128
0.243252 -0.167470 2.288814 115 120 126
0.244141 -0.166376 2.297179 113 119 126
0.243521 -0.164251 2.291345 110 114 123
0.244015 -0.162879 2.295996 111 115 123
0.244085 -0.161220 2.296658 117 122 128
0.244544 -0.159814 2.300975 120 125 131
0.245576 -0.158772 2.310682 122 127 133
0.244948 -0.156655 2.304775 120 125 131
0.244535 -0.154681 2.300890 111 116 122
0.244561 -0.152988 2.301130 112 116 124
0.245794 -0.152042 2.312732 117 120 128
0.244607 -0.149598 2.301564 115 118 126
0.244992 -0.148122 2.305189 114 117 123
0.246231 -0.147150 2.316844 112 115 121
0.243632 -0.143894 2.292390 112 115 119
0.243786 -0.142281 2.293836 112 116 118
0.244296 -0.140871 2.298642 112 116 116
0.243178 -0.138527 2.288122 114 118 117
0.243689 -0.137115 2.292931 115 119 118
0.244407 -0.135811 2.299687 115 119 118
0.243913 -0.133832 2.295036 115 119 118
0.243982 -0.132165 2.295687 114 118 118
0.244215 -0.130584 2.297875 113 117 118
0.244937 -0.129258 2.304668 112 116 116
0.244959 -0.127558 2.304877 112 116 115
0.244973 -0.125853 2.305005 112 116 114
0.244645 -0.123974 2.301921 112 117 112
0.243917 -0.121901 2.295071 113 118 111
0.244048 -0.120261 2.296309 114 119 112
0.243418 -0.118249 2.290375 113 118 111
0.244488 -0.117060 2.300449 110 115 109
0.245083 -0.115632 2.306040 107 112 106
0.244962 -0.113863 2.304903 104 108 102
0.244263 -0.111831 2.298332 103 104 100
0.245397 -0.110635 2.308996 103 101 99
0.244856 -0.108680 2.303911 102 99 99
0.244786 -0.106938 2.303252 98 97 98
0.245896 -0.105705 2.313698 93 94 94
0.245067 -0.103635 2.305892 86 89 87
0.245168 -0.101965 2.306846 77 82 79
0.245200 -0.100264 2.307148 70 76 72
0.244854 -0.098412 2.303891 63 69 64
0.244399 -0.096521 2.299606 53 59 52
0.245663 -0.095303 2.311501 43 47 40
0.246271 -0.093818 2.317226 32 35 29
0.245098 -0.091658 2.306183 21 23 19
0.244894 -0.089870 2.304269 9 11 9
0.245994 -0.088554 2.314615 2 3 3
0.247330 -0.087307 2.327188 0 1 3
0.247396 -0.085601 2.327804 0 2 2
0.248010 -0.084080 2.333583 0 2 0
0.247978 -0.082336 2.333286 0 2 0
0.247662 -0.080500 2.330309 0 2 0
0.246409 -0.068038 2.318518 0 1 0
0.248022 -0.066750 2.333700 1 1 0
0.249620 -0.065436 2.348737 1 1 0
0.247467 -0.063142 2.328480 1 1 0
0.249931 -0.062024 2.351665 1 1 0
0.228333 -0.055068 2.148442 1 1 0
0.235027 -0.051755 2.211424 0 0 0
0.235711 -0.050258 2.217856 0 0 0
0.236255 -0.048723 2.222977 0 0 0
0.234775 -0.046777 2.209055 0 0 0
0.233112 -0.044816 2.193409 0 0 0
0.231865 -0.042956 2.181676 0 0 0
0.232015 -0.041362 2.183084 0 0 0
0.231598 -0.039669 2.179156 0 0 0
0.231800 -0.038084 2.181060 0 0 0
0.232273 -0.034915 2.185508 0 0 0
0.232089 -0.033265 2.183777 0 0 0
0.167769 -0.001769 1.578578 0 0 7
0.167769 -0.000596 1.578578 0 1 2
0.263124 0.006421 2.475797 0 1 5
0.263507 0.008272 2.479396 0 0 6
0.263124 0.017455 2.475797 1 0 14
0.233930 0.038407 2.201105 0 0 4
0.239566 0.044355 2.254131 0 0 4
0.239963 0.046106 2.257873 0 0 4
0.240421 0.047874 2.262181 0 0 4
0.240550 0.049581 2.263393 0 0 4
0.240471 0.051245 2.262645 0 0 4
0.240014 0.052825 2.258347 0 0 4
0.237888 0.054020 2.238349 0 0 4
0.238390 0.055800 2.243066 0 0 4
0.247208 0.061319 2.326040 0 0 4
0.253105 0.068089 2.381521 0 0 2
0.253460 0.069956 2.384866 0 0 2
0.253823 0.071830 2.388279 0 0 1
0.253599 0.073539 2.386178 0 0 0
0.237097 0.090295 2.230906 0 1 6
0.236685 0.091793 2.227028 0 0 6
0.236639 0.093428 2.226591 0 0 6
0.207062 0.130954 1.948300 0 0 8
0.202809 0.131099 1.908281 0 1 5
0.219699 0.146623 2.067198 0 1 4
0.223565 0.191390 2.103578 0 0 0
0.224123 0.202832 2.108823 0 0 0
0.210764 0.198107 1.983125 0 0 5
0.211037 0.199839 1.985699 0 1 5
0.211508 0.201763 1.990132 0 1 5
0.214915 0.206515 2.022186 0 1 5
0.221641 0.216076 2.085476 1 0 5
0.220153 0.225396 2.071469 0 0 0
0.221514 0.228338 2.084279 0 0 0
0.221221 0.229582 2.081522 0 0 0
0.221872 0.231808 2.087647 0 0 0
0.222167 0.233669 2.090422 0 0 0
0.222622 0.235703 2.094705 0 0 0
0.222238 0.236849 2.091086 0 0 0
0.222226 0.238390 2.090980 0 0 0
0.221597 0.239265 2.085063 0 0 0
0.221734 0.240961 2.086344 0 0 0
0.293499 -0.624357 2.742436 186 179 186
0.292230 -0.619629 2.730578 186 179 186
0.293169 -0.619584 2.739347 187 180 187
0.190381 -0.397068 1.778910 189 179 187
0.188073 -0.383116 1.757339 186 182 183
0.188486 -0.381341 1.761198 186 182 183
0.241705 -0.485658 2.258474 186 181 183
0.241043 -0.482655 2.252292 186 181 183
0.241538 -0.481969 2.256911 186 181 185
0.241578 -0.480373 2.257288 186 181 187
0.241014 -0.477578 2.252017 186 181 187
0.240954 -0.475788 2.251463 186 181 187
0.241281 -0.474759 2.254518 186 181 187
0.241564 -0.471962 2.257158 186 181 185
0.241838 -0.470819 2.259718 186 181 185
0.242062 -0.469576 2.261815 186 180 185
0.241485 -0.466780 2.256423 188 180 185
0.240817 -0.462146 2.250179 189 180 183
0.381463 -0.705580 3.564361 189 179 187
0.381002 -0.702083 3.560052 189 179 187
0.380919 -0.699288 3.559283 189 179 185
0.376001 -0.679821 3.513330 186 182 183
0.376564 -0.678225 3.518590 186 182 183
0.332939 -0.578855 3.110956 190 179 183
0.334658 -0.549328 3.127023 189 180 183
0.333858 -0.545697 3.119543 189 180 183
0.333725 -0.543163 3.118299 189 180 183
0.545148 -0.883487 5.093825 189 180 183
0.542750 -0.875834 5.071415 189 180 183
0.293253 -0.469152 2.740141 189 180 183
0.540698 -0.861265 5.052245 189 180 183
0.542107 -0.859747 5.065409 189 179 185
0.547215 -0.864050 5.113140 189 179 186
0.536580 -0.836085 5.013766 189 179 187
0.687526 -1.042655 6.424195 189 179 187
0.676999 -1.021992 6.325833 189 179 187
0.677814 -0.999701 6.333450 189 179 187
0.686258 -1.007392 6.412348 190 180 188
0.689378 -1.007187 6.441501 190 180 188
0.243381 -0.350515 2.274137 190 180 188
0.293025 -0.409809 2.738008 189 180 183
0.294091 -0.409259 2.747968 189 180 183
0.263939 -0.334326 2.466228 99 100 104
0.261953 -0.329992 2.447669 79 80 82
0.260899 -0.326853 2.437821 76 80 79
0.262228 -0.326699 2.450245 77 81 80
0.262107 -0.324728 2.449107 64 69 71
0.261023 -0.321575 2.438984 56 61 65
0.261368 -0.320186 2.442208 51 58 64
0.260556 -0.317383 2.434621 46 55 61
0.258923 -0.311799 2.419362 23 34 42
0.258404 -0.309380 2.414505 16 26 36
0.259184 -0.308515 2.421797 6 15 25
0.260712 -0.308525 2.436078 5 13 25
0.262086 -0.308332 2.448915 7 15 26
0.262239 -0.306691 2.450340 10 17 28
0.259543 -0.298134 2.425149 2 7 13
0.259310 -0.296068 2.422977 2 6 12
0.261023 -0.296212 2.438984 3 9 15
0.260179 -0.293448 2.431097 1 8 15
0.258923 -0.288438 2.419362 0 8 15
0.258523 -0.286198 2.415624 0 8 15
0.258793 -0.284701 2.418146 0 7 15
0.252963 -0.250196 2.363671 74 88 120
0.252952 -0.248430 2.363566 136 150 178
0.253995 -0.247691 2.373312 196 213 236
0.255608 -0.247490 2.388382 223 243 254
0.257738 -0.240609 2.408290 96 114 148
0.253818 -0.235188 2.371660 87 100 130
0.252425 -0.232145 2.358639 71 78 106
0.251014 -0.229105 2.345455 69 71 97
0.249004 -0.225543 2.326681 66 66 87
0.249133 -0.223930 2.327881 79 77 90
0.250120 -0.223081 2.337100 74 73 80
0.249071 -0.220417 2.327303 69 68 75
0.250984 -0.220368 2.345178 69 68 75
0.251832 -0.217617 2.353102 82 79 87
0.250315 -0.214569 2.338929 88 86 94
0.250085 -0.212636 2.336776 91 90 97
0.250000 -0.210828 2.335980 92 90 97
0.250150 -0.209219 2.337388 89 87 94
0.250216 -0.207538 2.338003 87 83 92
0.249818 -0.205474 2.334285 87 81 90
0.249611 -0.203571 2.332348 85 78 88
0.249947 -0.202111 2.335491 89 77 89
0.250142 -0.200532 2.337307 101 87 99
0.249799 -0.198523 2.334107 114 100 111
0.249528 -0.196576 2.331574 119 107 115
0.249179 -0.194572 2.328312 121 109 116
0.249756 -0.193289 2.333700 123 111 118
0.248519 -0.190607 2.322145 119 108 115
0.249074 -0.189304 2.327329 105 93 100
0.248343 -0.187025 2.320501 86 75 82
0.247903 -0.184973 2.316390 77 65 72
0.248326 -0.183565 2.320341 78 66 72
0.248233 -0.180050 2.319472 115 104 108
0.249054 -0.178917 2.327144 124 114 119
0.249307 -0.177369 2.329512 123 117 121
0.249567 -0.175822 2.331935 120 117 122
0.248326 -0.173224 2.320341 116 119 122
0.246169 -0.170011 2.300190 109 114 118
0.245640 -0.167941 2.295245 97 104 109
0.245856 -0.166382 2.297264 89 96 103
0.246156 -0.164877 2.300070 89 95 103
0.246033 -0.163087 2.298919 100 105 112
0.245906 -0.161295 2.297725 112 118 124
0.246309 -0.159851 2.301499 116 121 127
0.246509 -0.158269 2.303362 116 121 127
0.246811 -0.156750 2.306183 116 121 127
0.247369 -0.155388 2.311403 111 116 122
0.247380 -0.153678 2.311501 112 116 124
0.247262 -0.151889 2.310399 114 118 125
0.246821 -0.149905 2.306283 112 115 122
0.247642 -0.148685 2.313953 110 113 119
0.246937 -0.146547 2.307363 109 112 116
0.246527 -0.144593 2.303534 109 113 114
0.245878 -0.142506 2.297469 110 114 114
0.245833 -0.140774 2.297047 111 115 114
0.245031 -0.138614 2.289558 113 117 115
0.246111 -0.137517 2.299648 113 117 116
0.246625 -0.136092 2.304446 113 117 116
0.246370 -0.134242 2.302064 112 116 115
0.245698 -0.132170 2.295787 111 115 115
0.245643 -0.130436 2.295270 111 115 116
0.245863 -0.128846 2.297332 110 114 114
0.245319 -0.126859 2.292246 109 114 111
0.246069 -0.125538 2.299249 110 115 110
0.245885 -0.123738 2.297534 111 116 110
0.245733 -0.121956 2.296113 112 117 111
0.244821 -0.119805 2.287595 113 118 111
0.245353 -0.118362 2.292558 112 117 111
0.246375 -0.117145 2.302109 109 114 108
0.246547 -0.115515 2.303715 104 109 103
0.245620 -0.113377 2.295057 100 104 98
0.244659 -0.111235 2.286082 101 101 98
0.245223 -0.109789 2.291345 102 101 99
0.246704 -0.108740 2.305189 103 103 102
0.246882 -0.107105 2.306846 101 102 101
0.246973 -0.105431 2.307700 93 96 96
0.246975 -0.103718 2.307720 84 87 88
0.246763 -0.101916 2.305741 76 81 80
0.248411 -0.100872 2.321136 71 77 74
0.245997 -0.098185 2.298581 65 71 66
0.246002 -0.096479 2.298628 53 60 53
0.248670 -0.095800 2.323557 41 47 40
0.248488 -0.094005 2.321852 32 35 29
0.248005 -0.092101 2.317340 22 25 19
0.244808 -0.089215 2.287472 11 13 10
0.248034 -0.088669 2.317609 3 5 3
0.249186 -0.087351 2.328376 0 1 1
0.249224 -0.085635 2.328735 0 2 1
0.249299 -0.083931 2.329436 0 2 0
0.249635 -0.082311 2.332568 0 2 0
0.249393 -0.080500 2.330309 0 2 0
0.248322 -0.069814 2.320304 0 2 0
0.248447 -0.068125 2.321470 0 1 0
0.247639 -0.066185 2.313919 1 1 0
0.248928 -0.064801 2.325964 1 1 0
0.247856 -0.062802 2.315952 1 1 0
0.246527 -0.055622 2.303534 0 0 0
0.232083 -0.044309 2.168566 0 0 0
0.230506 -0.042408 2.153833 0 0 0
0.230797 -0.040860 2.156549 0 0 0
0.230794 -0.039257 2.156522 0 0 0
0.259759 -0.040579 2.427173 0 0 0
0.231737 -0.032984 2.165331 0 0 0
0.233303 -0.031588 2.179963 0 0 0
0.251095 -0.028769 2.346218 0 1 4
0.261813 -0.004558 2.446367 0 0 9
0.261968 0.006348 2.447807 0 1 5
0.262257 0.008176 2.450511 0 0 6
0.261023 0.011760 2.438984 0 0 11
0.255633 0.027485 2.388614 0 1 5
0.235377 0.038376 2.199343 0 0 4
0.239835 0.044097 2.240999 0 0 4
0.240180 0.045827 2.244225 0 0 4
0.240411 0.047540 2.246380 0 0 4
0.245312 0.055319 2.292181 0 0 4
0.249330 0.061416 2.329720 0 0 4
0.252016 0.063827 2.354816 0 0 3
0.252220 0.065629 2.356724 0 0 2
0.253377 0.067689 2.367541 0 0 2
0.253675 0.069529 2.370325 0 0 2
0.254276 0.071459 2.375937 0 0 1
0.253377 0.072965 2.367541 0 0 0
0.263655 0.079584 2.463576 0 0 0
0.236996 0.089630 2.214477 0 1 5
0.236276 0.090998 2.207750 0 1 6
0.235886 0.092485 2.204100 0 1 6
0.230628 0.119235 2.154968 0 0 8
0.232985 0.122070 2.176992 0 0 8
0.202261 0.121414 1.889909 0 0 8
0.202748 0.128742 1.894462 0 0 6
0.202402 0.129927 1.891227 0 1 5
0.202198 0.131200 1.889321 0 1 4
0.219368 0.145386 2.049761 0 1 4
0.233651 0.190528 2.183216 0 0 0
0.233934 0.192382 2.185861 0 0 0
0.233860 0.193944 2.185168 0 0 0
0.232880 0.194748 2.176019 0 0 0
0.212261 0.196656 1.983349 0 0 4
0.212306 0.199645 1.983770 0 1 6
0.212551 0.201351 1.986065 0 1 6
0.220948 0.224640 2.064520 0 0 0
0.221200 0.226431 2.066875 0 0 0
0.221263 0.228031 2.067464 0 0 0
0.221289 0.229594 2.067711 0 0 0
0.221626 0.231482 2.070855 0 0 0
0.221585 0.232977 2.070479 0 0 0
0.221514 0.234440 2.069817 0 0 0
0.221711 0.236187 2.071654 0 0 0
0.221389 0.237380 2.068640 0 0 0
0.221224 0.238739 2.067101 0 0 0
0.295152 -0.623544 2.738868 186 179 186
0.294960 -0.621106 2.737087 186 179 186
0.295108 -0.619385 2.738465 187 180 187
0.191703 -0.397068 1.778910 189 179 187
0.189342 -0.383044 1.757009 186 182 183
0.189615 -0.382288 1.759538 186 182 183
0.189604 -0.380960 1.759439 186 182 183
0.243182 -0.485258 2.256615 186 181 183
0.242284 -0.481795 2.248280 186 181 185
0.242970 -0.481485 2.254646 186 181 186
0.243182 -0.480229 2.256615 186 181 187
0.242329 -0.476875 2.248700 186 181 187
0.242291 -0.475129 2.248343 186 181 187
0.242467 -0.473804 2.249982 186 181 187
0.243044 -0.471581 2.255333 186 181 185
0.243538 -0.470862 2.259922 186 181 185
0.244147 -0.470356 2.265571 188 180 185
0.380374 -0.696096 3.529696 189 179 187
0.380683 -0.694038 3.532562 189 179 185
0.378733 -0.687872 3.514465 188 180 185
0.378507 -0.679635 3.512368 186 182 183
0.333315 -0.577813 3.093008 189 179 183
0.332217 -0.573619 3.082816 190 179 183
0.225169 -0.371714 2.089461 189 180 183
0.335012 -0.543809 3.108753 189 180 183
0.334584 -0.540808 3.104778 189 180 183
0.543082 -0.874073 5.039545 189 180 183
0.544222 -0.872157 5.050124 189 180 183
0.543359 -0.859538 5.042114 189 180 184
0.543765 -0.856433 5.045887 189 179 186
0.539241 -0.834441 5.003905 189 179 187
0.681867 -1.026946 6.327403 189 179 187
0.690883 -1.007191 6.411067 190 180 188
0.244659 -0.349926 2.270321 190 180 188
0.293344 -0.409449 2.722096 189 180 185
0.295108 -0.409878 2.738465 189 180 183
0.242630 -0.310233 2.251493 171 165 175
0.243336 -0.309458 2.258043 160 157 164
0.264024 -0.326670 2.450023 77 81 80
0.263578 -0.324301 2.445884 57 63 63
0.262668 -0.319560 2.437439 63 72 76
0.257350 -0.304221 2.388085 22 32 42
0.263040 -0.298256 2.440887 4 12 17
0.263905 -0.295599 2.448915 3 10 16
0.256729 -0.284022 2.382324 0 8 15
0.257181 -0.282750 2.386519 0 8 15
0.256748 -0.280504 2.382500 0 7 15
0.254826 -0.276648 2.364666 0 7 15
0.252232 -0.272093 2.340595 0 7 15
0.254854 -0.252086 2.364925 42 56 91
0.253765 -0.249259 2.354816 70 81 115
0.253226 -0.246985 2.349819 124 135 167
0.255837 -0.247768 2.374050 183 195 223
0.254977 -0.245177 2.366062 201 217 240
0.255688 -0.237050 2.372663 87 106 132
0.255115 -0.234760 2.367352 76 91 111
0.253268 -0.231315 2.350212 79 86 102
0.249615 -0.226258 2.316308 99 100 115
0.249059 -0.224037 2.311146 86 85 97
0.251042 -0.224090 2.329548 100 98 107
0.249519 -0.221011 2.315417 99 98 104
0.249119 -0.218940 2.311706 98 97 103
0.250793 -0.218683 2.327243 101 100 106
0.252153 -0.218130 2.339857 107 104 111
0.251881 -0.214423 2.337335 110 107 114
0.251160 -0.212078 2.330647 109 106 113
0.251362 -0.210516 2.332522 105 102 109
0.251625 -0.209002 2.334962 99 96 103
0.250517 -0.206355 2.324679 96 91 98
0.250935 -0.204970 2.328558 95 90 97
0.250396 -0.202804 2.323557 97 90 98
0.251841 -0.202238 2.336967 104 93 102
0.251243 -0.200027 2.331420 117 105 115
0.251075 -0.198162 2.329857 132 116 127
0.250638 -0.196090 2.325803 136 122 132
0.251023 -0.194661 2.329375 136 123 132
0.251951 -0.193644 2.337989 134 121 130
0.249283 -0.188157 2.313231 110 97 107
0.249316 -0.186464 2.313539 92 79 88
0.248476 -0.184122 2.305741 81 68 76
0.249064 -0.182841 2.311194 78 65 72
0.249240 -0.179535 2.312835 115 104 108
0.248934 -0.177598 2.309989 125 116 119
0.250541 -0.177018 2.324904 124 119 122
0.250396 -0.175190 2.323557 120 118 122
0.249918 -0.173133 2.319125 114 117 120
0.246908 -0.169346 2.291193 100 107 110
0.246735 -0.167526 2.289582 81 88 93
0.246917 -0.165948 2.291278 68 75 82
0.246861 -0.164209 2.290754 72 79 87
0.247187 -0.162722 2.293778 92 99 105
0.246790 -0.160760 2.290094 108 115 121
0.246707 -0.159006 2.289329 110 116 122
0.246525 -0.157189 2.287640 108 113 119
0.248181 -0.156534 2.303004 111 116 122
0.248714 -0.155156 2.307953 112 117 123
0.248642 -0.153398 2.307285 110 115 121
0.248788 -0.151773 2.308635 109 114 120
0.248093 -0.149638 2.302184 108 112 118
0.247764 -0.147732 2.299131 107 111 116
0.248279 -0.146328 2.303911 107 111 115
0.248220 -0.144583 2.303366 109 113 114
0.247998 -0.142744 2.301301 111 115 114
0.246881 -0.140400 2.290944 113 117 115
0.246503 -0.138486 2.287435 112 117 114
0.247691 -0.137446 2.298455 111 115 114
0.248259 -0.136050 2.303731 111 115 114
0.248170 -0.134291 2.302903 110 114 113
0.247836 -0.132401 2.299799 109 113 114
0.246690 -0.130089 2.289168 109 113 114
0.246438 -0.128258 2.286833 108 112 112
0.247146 -0.126922 2.293398 107 112 110
0.247234 -0.125264 2.294219 109 113 110
0.247165 -0.123525 2.293578 111 116 110
0.246556 -0.121521 2.287925 112 117 110
0.247669 -0.120363 2.298252 113 118 111
0.246640 -0.118163 2.288706 112 117 110
0.247751 -0.116987 2.299010 108 113 107
0.247519 -0.115172 2.296858 103 108 102
0.247480 -0.113448 2.296497 100 103 98
0.246063 -0.111102 2.283352 101 101 98
0.246630 -0.109658 2.288608 105 103 101
0.248176 -0.108635 2.302958 106 103 103
0.248340 -0.106995 2.304479 103 102 103
0.249726 -0.105871 2.317340 95 96 99
0.248670 -0.103709 2.307541 85 88 90
0.248409 -0.100176 2.305123 72 78 75
0.248295 -0.098419 2.304063 66 73 67
0.247909 -0.096557 2.300483 54 60 53
0.250532 -0.095852 2.324815 41 45 37
0.250465 -0.094100 2.324198 30 33 25
0.249807 -0.092131 2.318089 21 23 17
0.248953 -0.088384 2.310169 3 5 3
0.250330 -0.087148 2.322945 0 1 1
0.249807 -0.085244 2.318089 0 1 1
0.249935 -0.083565 2.319281 0 2 0
0.250292 -0.081959 2.322596 0 2 0
0.250500 -0.080300 2.324519 0 2 0
0.251002 -0.077001 2.329181 0 2 0
0.247943 -0.069227 2.300799 0 2 0
0.247991 -0.067531 2.301242 0 1 0
0.248098 -0.065850 2.302237 0 1 0
0.248320 -0.064198 2.304290 0 1 0
0.249384 -0.062754 2.314169 0 1 0
0.247658 -0.058906 2.298154 0 1 0
0.245861 -0.055089 2.281475 0 0 0
0.245358 -0.053285 2.276804 0 0 0
0.230205 -0.042061 2.136198 0 0 0
0.233095 -0.032949 2.163016 0 0 0
0.234242 -0.031497 2.173660 0 0 0
0.235712 -0.030070 2.187296 0 0 0
0.250703 -0.028526 2.326403 0 1 5
0.170114 -0.008804 1.578578 0 0 7
0.170114 -0.007631 1.578578 0 0 7
0.170114 -0.006459 1.578578 0 0 8
0.260670 -0.004507 2.418898 0 0 7
0.259791 -0.002701 2.410742 0 0 6
0.257271 0.002645 2.387350 0 1 3
0.260862 0.008076 2.420672 0 0 6
0.260063 0.011636 2.413260 0 0 10
0.260284 0.017028 2.415313 0 0 12
0.253270 0.037518 2.350229 0 1 5
0.234908 0.038036 2.179838 0 0 4
0.239575 0.042094 2.223144 0 0 4
0.240686 0.043948 2.233455 0 0 4
0.239616 0.045404 2.223526 0 0 4
0.250611 0.059579 2.325550 0 0 4
0.252091 0.061669 2.339287 0 0 4
0.251796 0.063332 2.336548 0 0 3
0.252647 0.065287 2.344449 0 0 2
0.253878 0.067355 2.355867 0 0 2
0.254307 0.069222 2.359849 0 0 2
0.254441 0.071012 2.361091 0 0 1
0.253415 0.072472 2.351569 0 0 0
0.263905 0.079110 2.448915 0 0 0
0.250559 0.083745 2.325069 0 2 0
0.241885 0.084180 2.244584 0 1 1
0.242152 0.085942 2.247054 0 1 2
0.235519 0.090081 2.185508 0 1 5
0.235189 0.091576 2.182445 0 1 5
0.231581 0.118902 2.148962 0 0 8
0.232184 0.120812 2.154555 0 0 8
0.232979 0.122832 2.161940 0 0 8
0.201938 0.120385 1.873888 0 0 8
0.201406 0.121456 1.868956 0 0 9
0.201957 0.128748 1.874065 0 1 6
0.233584 0.155351 2.167550 0 1 5
0.234752 0.157745 2.178384 0 1 5
0.232422 0.160986 2.156771 0 1 5
0.203720 0.146722 1.890427 0 0 4
0.230439 0.175496 2.138368 0 0 3
0.231455 0.181055 2.147793 0 0 0
0.232596 0.183551 2.158380 0 0 0
0.232496 0.185074 2.157453 0 0 0
0.232436 0.186629 2.156900 0 0 0
0.232188 0.188030 2.154595 0 0 0
0.233089 0.190366 2.162961 0 0 0
0.232879 0.191800 2.161008 0 0 0
0.232228 0.192864 2.154968 0 0 0
0.231078 0.193502 2.144297 0 0 0
0.228846 0.193210 2.123582 0 0 0
0.227940 0.194017 2.115180 0 0 0
0.227802 0.195469 2.113893 0 0 0
0.229113 0.198174 2.126065 0 0 0
0.229555 0.200138 2.130163 0 0 0
0.229716 0.201862 2.131660 0 0 0
0.229969 0.203669 2.134007 0 0 0
0.228667 0.204092 2.121925 0 0 0
0.227709 0.204807 2.113036 0 0 2
0.213775 0.199641 1.983735 0 1 6
0.213806 0.201144 1.984024 0 1 6
0.227015 0.215135 2.106593 0 1 6
0.227068 0.216751 2.107087 0 0 5
0.220997 0.229234 2.050744 0 0 0
0.221316 0.231090 2.053709 0 0 0
0.221158 0.232449 2.052239 0 0 0
0.220983 0.235312 2.050619 0 0 0
0.221237 0.237107 2.052973 0 0 0
0.297679 -0.624578 2.743410 186 179 186
0.298021 -0.623256 2.746564 186 179 186
0.296993 -0.619073 2.737087 187 180 187
0.193024 -0.397068 1.778910 189 179 187
0.190911 -0.382267 1.759439 186 182 183
0.243830 -0.481551 2.247138 186 181 183
0.244669 -0.481532 2.254867 186 181 185
0.244834 -0.480182 2.256395 186 181 187
0.243939 -0.476756 2.248139 186 181 187
0.243904 -0.475018 2.247819 186 181 187
0.244509 -0.471176 2.253397 186 181 185
0.245038 -0.470517 2.258269 186 181 185
0.245714 -0.470134 2.264504 186 180 185
0.386208 -0.699289 3.559292 189 179 185
0.382505 -0.682112 3.525168 186 182 183
0.544337 -0.870096 5.016616 189 180 183
0.546963 -0.870548 5.040812 189 180 183
0.545981 -0.857774 5.031769 189 180 183
0.546335 -0.854590 5.035025 189 179 185
0.680282 -1.017545 6.269481 189 179 187
0.678649 -1.010457 6.254431 189 179 187
0.223613 -0.313044 2.060822 190 181 186
0.294533 -0.406278 2.714414 189 180 183
0.262134 -0.323905 2.415828 77 80 77
0.265028 -0.325666 2.442498 69 74 71
0.264646 -0.323386 2.438984 46 52 52
0.264911 -0.321896 2.441421 48 55 57
0.264845 -0.320003 2.440817 59 68 71
0.256331 -0.299187 2.362345 7 14 24
0.263212 -0.301813 2.425760 1 8 17
0.263322 -0.296533 2.426780 2 9 13
0.265184 -0.296814 2.443939 3 10 14
0.263068 -0.292644 2.424433 1 9 14
0.263358 -0.291164 2.427105 0 8 14
0.261990 -0.287859 2.414505 0 8 15
0.260903 -0.284878 2.404481 0 8 15
0.259360 -0.281418 2.390263 0 7 15
0.255728 -0.275726 2.356790 0 7 15
0.263344 -0.278530 2.426981 0 5 13
0.255706 -0.249447 2.356591 60 69 104
0.256094 -0.248072 2.360163 101 108 142
0.257680 -0.247845 2.374782 160 168 200
0.257341 -0.243996 2.371660 160 177 206
0.262395 -0.245195 2.418231 31 56 82
0.267431 -0.248070 2.464646 25 49 70
0.256079 -0.235787 2.360027 64 85 100
0.254816 -0.232880 2.348384 61 76 84
0.253937 -0.230338 2.340283 79 87 91
0.252988 -0.227746 2.331541 114 114 117
0.252645 -0.225707 2.328376 106 105 107
0.252441 -0.223797 2.326495 105 104 109
0.251130 -0.219196 2.314412 113 112 118
0.252275 -0.218469 2.324967 118 117 123
0.253400 -0.217709 2.335336 122 119 126
0.254234 -0.214944 2.343018 110 107 114
0.254071 -0.213067 2.341516 103 100 107
0.253729 -0.211044 2.338371 102 99 106
0.252982 -0.208691 2.331480 94 91 98
0.252624 -0.206667 2.328189 89 84 91
0.252055 -0.204476 2.322945 93 86 94
0.254056 -0.202621 2.341385 116 104 114
0.253418 -0.200377 2.335499 130 118 128
0.252737 -0.198108 2.329226 144 129 140
0.254153 -0.197478 2.342272 146 132 143
0.255891 -0.197077 2.358292 143 130 140
0.255399 -0.194950 2.353760 136 122 133
0.254123 -0.192237 2.342003 124 110 121
0.253316 -0.189892 2.334562 110 97 108
0.251976 -0.187162 2.322211 97 84 94
0.251652 -0.185199 2.319226 87 74 83
0.251393 -0.183288 2.316844 81 67 75
0.253024 -0.182745 2.331873 99 86 91
0.252268 -0.180472 2.324904 117 105 109
0.252418 -0.178852 2.326290 126 116 120
0.252007 -0.176835 2.322494 124 118 119
0.252389 -0.175376 2.326022 119 118 120
0.252208 -0.173523 2.324353 115 118 120
0.250429 -0.170585 2.307953 99 106 108
0.249471 -0.168225 2.299131 75 85 87
0.250814 -0.167413 2.311501 64 72 77
0.250770 -0.165668 2.311100 72 79 87
0.250783 -0.163959 2.311221 93 100 107
0.249860 -0.161646 2.302714 109 116 122
0.249168 -0.159492 2.296337 107 113 119
0.251976 -0.159565 2.322211 102 107 113
0.251987 -0.157846 2.322311 104 109 115
0.250777 -0.155372 2.311161 105 110 116
0.250878 -0.153717 2.312094 102 107 113
0.251120 -0.152146 2.314321 100 105 111
0.250315 -0.149945 2.306903 102 105 111
0.250467 -0.148322 2.308307 104 108 112
0.250779 -0.146790 2.311178 106 110 112
0.250463 -0.144890 2.308270 109 113 113
0.249801 -0.142797 2.302165 112 117 114
0.249782 -0.141077 2.301996 114 119 115
0.248481 -0.138641 2.290001 112 117 114
0.249686 -0.137604 2.301113 111 115 114
0.250440 -0.136306 2.308061 110 114 113
0.250302 -0.134517 2.306784 110 114 113
0.249780 -0.132527 2.301978 109 113 113
0.249370 -0.130602 2.298196 108 112 113
0.249164 -0.128789 2.296299 108 112 111
0.249073 -0.127037 2.295463 107 111 109
0.249639 -0.125616 2.300672 108 113 108
0.248632 -0.123408 2.291395 110 115 109
0.248058 -0.121424 2.286101 111 116 110
0.249091 -0.120225 2.295620 112 117 110
0.249069 -0.118509 2.295418 110 115 109
0.248676 -0.116620 2.291803 108 113 107
0.248264 -0.114727 2.287999 104 109 103
0.248376 -0.113079 2.289034 102 105 100
0.248837 -0.111586 2.293286 104 104 101
0.248201 -0.109601 2.287425 106 105 104
0.249504 -0.108469 2.299434 105 104 105
0.250052 -0.106995 2.304479 102 102 104
0.251492 -0.105890 2.317752 95 98 100
0.250124 -0.103602 2.305148 87 91 93
0.249016 -0.101438 2.294935 79 84 84
0.249398 -0.099887 2.298455 73 79 76
0.250052 -0.098437 2.304479 67 73 68
0.250669 -0.096964 2.310169 54 61 53
0.252183 -0.095823 2.324118 37 44 35
0.252087 -0.094061 2.323236 26 30 21
0.251976 -0.092295 2.322211 17 20 12
0.250237 -0.089945 2.306183 8 11 6
0.250525 -0.088333 2.308839 2 4 2
0.250309 -0.086544 2.306846 0 1 1
0.250355 -0.084846 2.307272 0 1 0
0.250929 -0.083323 2.312568 0 2 0
0.250889 -0.081592 2.312196 0 2 0
0.247238 -0.066865 2.278543 0 2 0
0.248096 -0.065399 2.286457 0 2 1
0.250012 -0.062481 2.304109 0 2 1
0.252659 -0.061413 2.328505 0 2 1
0.244841 -0.054485 2.256456 0 0 0
0.245195 -0.052885 2.259718 0 0 0
0.241704 -0.050478 2.227549 0 0 0
0.231379 -0.041986 2.132394 0 0 0
0.234096 -0.032864 2.157428 0 0 0
0.235631 -0.031467 2.171577 0 0 0
0.236553 -0.029970 2.180076 0 0 0
0.250259 -0.028281 2.306391 0 1 5
0.256583 -0.025482 2.364666 0 1 6
0.171287 -0.008804 1.578578 0 1 6
0.171287 -0.007631 1.578578 0 0 6
0.171287 -0.006459 1.578578 0 0 7
0.259616 -0.004458 2.392627 0 0 7
0.259282 0.002648 2.389544 0 1 5
0.256504 0.004375 2.363945 0 1 5
0.258823 0.006186 2.385314 0 1 6
0.259616 0.007983 2.392627 0 0 6
0.259800 0.016880 2.394320 0 0 12
0.259181 0.018614 2.388614 0 0 12
0.258770 0.022127 2.384826 0 0 12
0.257623 0.025556 2.374253 0 0 10
0.255685 0.027114 2.356395 0 0 7
0.259387 0.032834 2.390513 0 1 5
0.252444 0.037139 2.326523 0 1 5
0.252087 0.038812 2.323236 0 0 4
0.234262 0.037671 2.158957 0 0 4
0.240243 0.043567 2.214083 0 0 4
0.239780 0.045124 2.209811 0 0 4
0.244924 0.051122 2.257220 0 0 4
0.249819 0.057274 2.302331 0 0 4
0.252122 0.059528 2.323557 0 0 4
0.254333 0.061791 2.343931 0 0 4
0.253315 0.063278 2.334549 0 0 3
0.253031 0.064939 2.331935 0 0 2
0.254432 0.067040 2.344846 0 0 2
0.255251 0.069003 2.352394 0 0 2
0.255210 0.070739 2.352020 0 0 1
0.253421 0.071978 2.335530 0 0 0
0.264516 0.076940 2.437778 0 0 0
0.264929 0.078874 2.441589 0 0 0
0.250237 0.081351 2.306183 0 2 0
0.241020 0.083305 2.221246 0 2 0
0.241679 0.085187 2.227313 0 1 1
0.234956 0.089251 2.165359 0 1 5
0.234748 0.090779 2.163443 0 1 5
0.232346 0.118479 2.141302 0 0 8
0.233067 0.120442 2.147951 0 0 8
0.232890 0.121944 2.146317 0 0 8
0.201409 0.119247 1.856183 0 0 10
0.201434 0.120641 1.856415 0 0 10
0.201595 0.127638 1.857903 0 0 6
0.201212 0.128773 1.854369 0 1 5
0.232070 0.151698 2.138757 0 1 4
0.233709 0.154370 2.153866 0 1 5
0.234032 0.156185 2.156838 0 1 5
0.229339 0.171892 2.113587 0 0 4
0.230933 0.174668 2.128278 0 0 3
0.252195 0.194202 2.324230 0 0 0
0.232981 0.181001 2.147151 0 0 0
0.233892 0.183310 2.155548 0 0 0
0.233346 0.184480 2.150523 0 0 0
0.231871 0.186487 2.136920 0 0 0
0.233145 0.189109 2.148669 0 0 0
0.232648 0.190298 2.144085 0 0 0
0.232881 0.192082 2.146230 0 0 0
0.231666 0.192667 2.135038 0 0 0
0.229815 0.192700 2.117973 0 0 0
0.229815 0.194273 2.117973 0 0 0
0.230467 0.197979 2.123984 0 0 0
0.230594 0.199668 2.125160 0 0 0
0.230870 0.201487 2.127699 0 0 0
0.231753 0.203844 2.135836 0 0 0
0.230292 0.204135 2.122377 0 0 0
0.228585 0.204187 2.106642 0 0 2
0.215881 0.197272 1.989558 0 0 4
0.215904 0.198771 1.989772 0 0 5
0.215473 0.199849 1.985799 0 1 6
0.215679 0.201517 1.987703 0 1 6
0.228138 0.214720 2.102524 0 1 6
0.228850 0.216956 2.109087 0 0 5
0.220435 0.227086 2.031533 0 0 0
0.221173 0.229360 2.038329 0 0 0
0.226262 0.237735 2.085235 0 0 0
0.299717 -0.624578 2.743410 186 179 186
0.300197 -0.623538 2.747805 186 179 186
0.299084 -0.619194 2.737621 187 180 187
0.194345 -0.397068 1.778910 189 179 187
0.192174 -0.382179 1.759035 186 182 183
0.225612 -0.444075 2.065102 186 181 183
0.245625 -0.481799 2.248294 186 181 185
0.246222 -0.481295 2.253756 186 181 186
0.246374 -0.479917 2.255147 186 181 187
0.245585 -0.476710 2.247922 186 181 187
0.245535 -0.474943 2.247464 186 181 187
0.246398 -0.469913 2.255372 186 181 185
0.246988 -0.469358 2.260767 188 180 185
0.248097 -0.447851 2.270917 189 179 187
0.388357 -0.695759 3.554764 188 180 185
0.386815 -0.690368 3.540653 187 180 183
0.385325 -0.682469 3.527014 186 182 183
0.547275 -0.868845 5.009404 188 180 183
0.550418 -0.870092 5.038168 188 180 183
0.549018 -0.856681 5.025356 188 180 184
0.549741 -0.854072 5.031973 189 179 186
0.682832 -1.009772 6.250196 189 179 187
1.674327 -2.373547 15.325706 190 180 188
0.224031 -0.311496 2.050634 190 181 186
0.293165 -0.403635 2.683441 189 180 185
0.243135 -0.304998 2.225497 169 165 171
0.245767 -0.304958 2.249590 131 130 132
0.265957 -0.320970 2.434400 42 47 51
0.266323 -0.319601 2.437748 48 56 59
0.263585 -0.310939 2.412689 56 66 74
0.257147 -0.298100 2.353760 20 28 38
0.264341 -0.302845 2.419605 10 17 27
0.264864 -0.301643 2.424395 7 14 24
0.265974 -0.299290 2.434551 6 13 20
0.266999 -0.298629 2.443939 3 10 15
0.266749 -0.296536 2.441650 0 6 12
0.266806 -0.294785 2.442173 0 7 14
0.264054 -0.289949 2.416977 0 8 15
0.263847 -0.286134 2.415087 0 8 15
0.261204 -0.279716 2.390893 0 7 15
0.266354 -0.279799 2.438036 0 7 15
0.264119 -0.275654 2.417570 1 7 15
0.266651 -0.267420 2.440752 79 96 114
0.269165 -0.268111 2.463762 113 133 155
0.258016 -0.251743 2.361709 80 93 126
0.257838 -0.249817 2.360084 61 69 103
0.268891 -0.255041 2.461249 168 178 209
0.258503 -0.243431 2.366172 164 178 210
0.259993 -0.241299 2.379810 68 91 115
0.269414 -0.246379 2.466044 46 66 74
0.252584 -0.229270 2.311986 56 70 69
0.252531 -0.217204 2.311501 112 110 117
0.254549 -0.217209 2.329979 116 113 120
0.255179 -0.216011 2.335739 115 112 119
0.257023 -0.215825 2.352618 111 108 115
0.256824 -0.213912 2.350803 108 105 112
0.255391 -0.210982 2.337684 102 99 106
0.254544 -0.208552 2.329929 89 86 93
0.253533 -0.206000 2.320675 82 77 84
0.254491 -0.205048 2.329445 89 82 90
0.255341 -0.203997 2.337229 106 96 105
0.255700 -0.202545 2.340511 122 110 120
0.254832 -0.200125 2.332568 137 125 135
0.255941 -0.199255 2.342714 148 134 144
0.258195 -0.197500 2.363348 138 125 136
0.257075 -0.194896 2.353102 126 114 125
0.255784 -0.192178 2.341282 115 103 115
0.255879 -0.190509 2.342146 109 96 108
0.254451 -0.187716 2.329078 105 93 103
0.257299 -0.184569 2.355150 106 91 99
0.255327 -0.181419 2.337100 120 107 114
0.255179 -0.177843 2.335739 121 114 117
0.254684 -0.175767 2.331212 116 115 118
0.254415 -0.173851 2.328747 117 121 124
0.253163 -0.171275 2.317290 105 114 115
0.252511 -0.169117 2.311317 83 93 95
0.252055 -0.167098 2.307148 79 87 92
0.253165 -0.166112 2.317305 85 93 100
0.252574 -0.164007 2.311896 100 107 113
0.252210 -0.162056 2.308564 111 118 123
0.253533 -0.161183 2.320675 106 113 119
0.254382 -0.159993 2.328452 98 105 111
0.253984 -0.158016 2.324804 96 101 107
0.254511 -0.156614 2.329632 92 96 102
0.254064 -0.154611 2.325539 88 93 99
0.253558 -0.152579 2.320908 90 94 100
0.252498 -0.150225 2.311201 94 98 103
0.253603 -0.149158 2.321315 99 103 107
0.253825 -0.147563 2.323353 104 108 112
0.252643 -0.145158 2.312533 109 113 115
0.252039 -0.143097 2.307000 112 116 116
0.252031 -0.141379 2.306924 114 119 116
0.251419 -0.139327 2.301330 112 116 114
0.250939 -0.137355 2.296935 111 115 114
0.251883 -0.136159 2.305571 110 114 113
0.251808 -0.134406 2.304884 110 114 113
0.251446 -0.132503 2.301574 109 113 113
0.251427 -0.130784 2.301401 108 112 113
0.251412 -0.129067 2.301263 108 112 111
0.251660 -0.127483 2.303534 107 111 110
0.252122 -0.126003 2.307765 109 113 111
0.252355 -0.124404 2.309892 110 115 110
0.252406 -0.122713 2.310359 111 116 109
0.252005 -0.120805 2.306689 110 115 108
0.251286 -0.118751 2.300107 109 114 108
0.251761 -0.117264 2.304457 108 113 107
0.250223 -0.114847 2.290375 106 111 105
0.251560 -0.113750 2.302621 106 109 104
0.251305 -0.111926 2.300284 108 109 105
0.252055 -0.110547 2.307148 109 107 106
0.252385 -0.108975 2.310169 105 103 105
0.252410 -0.107270 2.310399 101 100 104
0.252599 -0.105633 2.312128 97 98 102
0.252005 -0.103671 2.306689 91 94 97
0.251066 -0.101578 2.298097 82 87 88
0.252801 -0.100561 2.313978 73 79 76
0.252086 -0.098563 2.307432 66 73 67
0.252372 -0.096959 2.310048 54 60 53
0.254555 -0.096067 2.330033 36 40 32
0.254374 -0.094269 2.328376 22 25 17
0.253635 -0.092271 2.321614 13 15 9
0.253603 -0.090535 2.321315 6 8 3
0.252685 -0.088489 2.312913 1 3 1
0.252716 -0.086782 2.313199 0 1 1
0.251409 -0.084624 2.301234 0 1 1
0.251614 -0.082982 2.303107 0 2 0
0.252210 -0.081464 2.308564 0 2 0
0.253492 -0.080155 2.320304 0 2 0
0.256074 -0.077489 2.343931 0 2 0
0.257251 -0.074347 2.354704 0 2 0
0.251792 -0.065922 2.304737 0 2 1
0.252910 -0.064495 2.314977 0 2 1
0.252842 -0.062759 2.314356 0 2 1
0.252251 -0.060897 2.308938 0 2 1
0.251916 -0.059103 2.305871 0 2 1
0.244122 -0.053955 2.234532 0 0 0
0.244193 -0.052311 2.235185 0 0 0
0.260719 -0.050533 2.386448 0 0 0
0.260382 -0.048698 2.383363 0 0 0
0.247789 -0.039604 2.268100 0 0 0
0.246062 -0.035982 2.252292 0 0 0
0.236852 -0.033025 2.167991 0 0 0
0.238353 -0.031614 2.181727 0 0 0
0.248432 -0.027883 2.273988 0 0 5
0.172459 -0.008804 1.578578 0 1 5
0.172459 -0.007631 1.578578 0 1 5
0.258681 0.000865 2.367797 0 1 5
0.258491 0.007894 2.366062 0 0 6
0.260645 0.020364 2.385772 0 0 11
0.258644 0.021966 2.367459 0 0 10
0.258743 0.023734 2.368364 0 0 10
0.256880 0.025310 2.351317 0 0 9
0.254882 0.026846 2.333020 0 0 7
0.258917 0.032552 2.369961 0 1 5
0.251384 0.036732 2.301002 0 1 5
0.241142 0.041793 2.207253 0 0 4
0.241012 0.043409 2.206064 0 0 4
0.241499 0.045139 2.210527 0 0 4
0.242349 0.048593 2.218306 0 0 4
0.246093 0.051017 2.252577 0 0 4
0.246889 0.052861 2.259863 0 0 4
0.247838 0.054749 2.268550 0 0 4
0.253369 0.059416 2.319175 0 0 4
0.256216 0.061825 2.345237 0 0 4
0.255684 0.065174 2.340363 0 0 2
0.254832 0.066689 2.332568 0 0 2
0.256882 0.068972 2.351333 0 0 2
0.258424 0.071143 2.365442 0 0 1
0.253791 0.071593 2.323039 0 0 0
0.266234 0.076913 2.436933 0 0 0
0.266391 0.078770 2.438366 0 0 0
0.241824 0.084659 2.213499 0 1 1
0.243568 0.086925 2.229467 0 1 3
0.233953 0.120078 2.141457 0 0 8
0.233572 0.121470 2.137962 0 0 8
0.200804 0.118081 1.838031 0 0 10
0.201295 0.119738 1.842521 0 0 11
0.201118 0.126470 1.840904 0 0 6
0.200973 0.127745 1.839577 0 1 5
0.232627 0.151029 2.129318 0 1 5
0.233717 0.153325 2.139290 0 1 5
0.233403 0.154706 2.136420 0 1 5
0.231600 0.167682 2.119911 0 0 4
0.231882 0.169464 2.122501 0 0 4
0.230475 0.171569 2.109616 0 0 4
0.252124 0.192827 2.307776 0 0 0
0.234399 0.180865 2.145534 0 0 0
0.232291 0.185556 2.126245 0 0 0
0.232799 0.187544 2.130894 0 0 0
0.232775 0.189107 2.130669 0 0 0
0.232843 0.190746 2.131295 0 0 0
0.232659 0.192177 2.129608 0 0 0
0.230806 0.192215 2.112647 0 0 0
0.231571 0.194427 2.119653 0 0 0
0.231624 0.196046 2.120133 0 0 0
0.231759 0.197736 2.121372 0 0 0
0.231416 0.199016 2.118227 0 0 0
0.231873 0.200986 2.122417 0 0 0
0.232150 0.202804 2.124949 0 0 0
0.232277 0.204495 2.126111 0 0 0
0.217118 0.200006 1.987357 0 0 7
0.232103 0.218544 2.124519 0 0 5
0.231808 0.230874 2.121818 0 0 0
0.225132 0.227287 2.060714 0 0 0
0.226009 0.235855 2.068738 0 0 0
0.225144 0.236483 2.060822 0 0 0
0.225337 0.238218 2.062589 0 0 0
0.301754 -0.624578 2.743410 186 179 186
0.301821 -0.622678 2.744013 186 179 186
0.302051 -0.621113 2.746107 187 180 187
0.195667 -0.397068 1.778910 187 179 187
0.193167 -0.381559 1.756184 186 182 183
0.227278 -0.444334 2.066307 186 181 183
0.248629 -0.481039 2.260419 186 181 187
0.247016 -0.476250 2.245755 186 181 187
0.247076 -0.474698 2.246302 186 181 187
0.250177 -0.446867 2.274495 187 180 185
0.387379 -0.681474 3.521872 186 182 183
0.554477 -0.870590 5.041053 187 180 183
0.553757 -0.865719 5.034501 187 180 183
0.552575 -0.860141 5.023759 187 180 183
0.553563 -0.857940 5.032739 188 180 185
0.554029 -0.854921 5.036978 188 179 186
1.571578 -2.223456 14.288063 189 179 187
1.601024 -2.254305 14.555775 189 179 187
0.292594 -0.398152 2.660127 189 180 183
0.241593 -0.304281 2.196454 177 171 176
0.241422 -0.302434 2.194895 175 170 175
0.242453 -0.302088 2.204267 178 174 179
0.244558 -0.301409 2.223408 163 161 163
0.247301 -0.303119 2.248343 144 143 144
0.290054 -0.353563 2.637034 126 125 124
0.266306 -0.321019 2.421133 54 57 60
0.265483 -0.318234 2.413650 35 39 45
0.267306 -0.318614 2.430224 31 37 41
0.267039 -0.316493 2.427796 45 51 58
0.265287 -0.310833 2.411865 62 68 76
0.264671 -0.302962 2.406266 41 47 56
0.264906 -0.301442 2.408399 33 38 47
0.265349 -0.300155 2.412430 28 33 41
0.264902 -0.297861 2.408369 25 30 39
0.268924 -0.298751 2.444933 5 10 22
0.268177 -0.296110 2.438146 0 4 15
0.266411 -0.292361 2.422090 0 6 15
0.266227 -0.290361 2.420414 0 8 16
0.264574 -0.286772 2.405385 0 9 16
0.265577 -0.286065 2.414505 1 10 17
0.265884 -0.284600 2.417293 1 9 17
0.264780 -0.281631 2.407257 0 7 16
0.264764 -0.279826 2.407110 0 7 15
0.264852 -0.278131 2.407914 0 7 15
0.265555 -0.277075 2.414300 1 7 15
0.265689 -0.275421 2.415520 2 6 15
0.265830 -0.266591 2.416803 34 41 61
0.266168 -0.265133 2.419874 106 118 141
0.268737 -0.265877 2.443230 152 168 195
0.262808 -0.252912 2.389326 62 70 98
0.263694 -0.251984 2.397382 79 86 110
0.265577 -0.251990 2.414505 131 140 163
0.268941 -0.253366 2.445086 163 176 200
0.262808 -0.242264 2.389326 80 97 121
0.270832 -0.244174 2.462283 49 61 63
0.265746 -0.232410 2.416037 117 115 119
0.254574 -0.205448 2.314466 85 79 87
0.265513 -0.203519 2.413924 133 128 135
0.260181 -0.197675 2.365442 116 113 119
0.257080 -0.188375 2.337252 110 100 109
0.256366 -0.186120 2.330760 108 96 106
0.261544 -0.186347 2.377835 111 95 105
0.257261 -0.181558 2.338894 123 107 116
0.258823 -0.180913 2.353102 126 114 121
0.256221 -0.173904 2.329445 116 123 126
0.254368 -0.170928 2.312592 110 121 124
0.253935 -0.168922 2.308658 95 107 109
0.255055 -0.167945 2.318844 97 107 109
0.254128 -0.165618 2.310416 100 108 112
0.253626 -0.163579 2.305852 107 115 118
0.253772 -0.161959 2.307175 113 121 123
0.256357 -0.161877 2.330675 109 115 118
0.255922 -0.159874 2.326721 99 104 108
0.255574 -0.157931 2.323557 89 92 98
0.255925 -0.156420 2.326751 78 78 86
0.253702 -0.153348 2.306545 77 77 85
0.254082 -0.151862 2.309999 82 82 90
0.253873 -0.150023 2.308098 89 89 96
0.255108 -0.149030 2.319325 98 98 103
0.255446 -0.147502 2.322397 105 106 110
0.254069 -0.144992 2.309880 110 111 114
0.253723 -0.143081 2.306732 112 115 115
0.253743 -0.141378 2.306912 113 117 116
0.252645 -0.139061 2.296935 112 116 115
0.253271 -0.137695 2.302621 110 114 114
0.252605 -0.135627 2.296566 110 114 113
0.252659 -0.133949 2.297055 110 114 114
0.253171 -0.132511 2.301709 109 113 114
0.253437 -0.130939 2.304130 108 112 113
0.255405 -0.130231 2.322022 108 112 111
0.254500 -0.128051 2.313798 107 111 109
0.254101 -0.126135 2.310169 109 114 109
0.254639 -0.124682 2.315060 111 116 110
0.253846 -0.122580 2.307854 110 115 108
0.253248 -0.120581 2.302418 109 114 107
0.253043 -0.118774 2.300549 109 114 107
0.253134 -0.117108 2.301381 108 113 107
0.253834 -0.115717 2.307737 108 113 106
0.254052 -0.114101 2.309726 108 113 107
0.253313 -0.112059 2.303004 110 112 108
0.254162 -0.110718 2.310724 108 108 107
0.254502 -0.109147 2.313817 103 102 103
0.254150 -0.107280 2.310613 99 99 101
0.254328 -0.105638 2.312237 97 99 101
0.253690 -0.103660 2.306432 93 96 98
0.253483 -0.101863 2.304552 83 88 88
0.253794 -0.100275 2.307382 72 78 75
0.253997 -0.098639 2.309219 66 73 67
0.258462 -0.096883 2.349819 34 38 31
0.257196 -0.094671 2.338303 18 22 15
0.258062 -0.093247 2.346180 10 12 6
0.255821 -0.090710 2.325803 3 5 1
0.255925 -0.089019 2.326751 0 2 0
0.255120 -0.087016 2.319438 0 1 1
0.252704 -0.084485 2.297469 0 2 1
0.251604 -0.082419 2.287472 0 2 0
0.252607 -0.081041 2.296589 0 2 0
0.253221 -0.079528 2.302165 0 2 0
0.256363 -0.078784 2.330732 0 2 0
0.258700 -0.077755 2.351980 0 2 0
0.259549 -0.076257 2.359696 0 2 0
0.258704 -0.072515 2.352020 0 2 0
0.258639 -0.070751 2.351429 0 2 0
0.254835 -0.066268 2.316844 0 2 1
0.254279 -0.064406 2.311789 0 2 1
0.253874 -0.062589 2.308106 0 2 1
0.244347 -0.053640 2.221488 0 0 0
0.244007 -0.051918 2.218398 0 0 0
0.259135 -0.049887 2.355938 0 0 0
0.258950 -0.048103 2.354253 0 0 0
0.248302 -0.041095 2.257452 0 0 0
0.247267 -0.039254 2.248041 0 0 0
0.247296 -0.037588 2.248303 0 0 0
0.238229 -0.032993 2.165870 0 0 0
0.239606 -0.031565 2.178384 0 0 0
0.240915 -0.030111 2.190284 0 0 0
0.258286 0.000858 2.348222 0 1 5
0.260571 0.002625 2.368991 0 1 5
0.259090 0.021856 2.355527 0 0 10
0.258800 0.023579 2.352888 0 0 9
0.255911 0.025044 2.326621 0 0 7
0.253489 0.026519 2.304607 0 0 6
0.258756 0.032312 2.352488 0 1 5
0.249000 0.036138 2.263794 0 1 5
0.247980 0.037664 2.254518 0 0 5
0.241657 0.043232 2.197034 1 0 5
0.242643 0.045047 2.206002 1 0 5
0.243104 0.046774 2.210188 1 0 5
0.243139 0.048422 2.210510 1 0 5
0.246586 0.050774 2.241847 0 0 4
0.247100 0.052548 2.246517 0 0 4
0.247663 0.054341 2.251641 0 0 4
0.253909 0.057426 2.308419 0 0 4
0.255951 0.059616 2.326992 0 0 4
0.257174 0.061637 2.338106 0 0 4
0.258150 0.063615 2.346981 0 0 3
0.258789 0.065520 2.352790 0 0 2
0.259960 0.067572 2.363437 0 0 2
0.258796 0.069017 2.352853 0 0 2
0.260683 0.071280 2.370011 0 0 1
0.263502 0.073831 2.395640 0 0 0
0.266616 0.076504 2.423950 0 0 0
0.242326 0.080989 2.203121 0 2 0
0.242130 0.084193 2.201334 0 1 1
0.243472 0.086304 2.213537 0 1 1
0.248177 0.091324 2.256313 0 1 3
0.200572 0.117148 1.823510 0 0 10
0.200539 0.125254 1.823206 0 0 7
0.200791 0.126768 1.825501 0 0 6
0.232433 0.167149 2.113173 0 0 4
0.253820 0.191099 2.307613 0 0 1
0.253371 0.192473 2.303534 0 0 0
0.236809 0.181490 2.152956 0 0 0
0.236606 0.182933 2.151114 0 0 0
0.234260 0.182701 2.129786 0 0 0
0.232329 0.184333 2.112230 0 0 0
0.232675 0.186178 2.115372 0 0 0
0.232917 0.187945 2.117573 0 0 0
0.232741 0.189375 2.115977 0 0 0
0.233417 0.191501 2.122121 0 0 0
0.232979 0.192715 2.118138 0 0 0
0.232245 0.193676 2.111467 0 0 0
0.232111 0.195131 2.110244 0 0 0
0.231984 0.196591 2.109087 0 0 0
0.231982 0.198156 2.109070 0 0 0
0.231878 0.199633 2.108129 0 0 0
0.232358 0.201615 2.112488 0 0 0
0.233014 0.203758 2.118456 0 0 0
0.233631 0.205875 2.124062 0 0 2
0.218560 0.197022 1.987043 0 0 6
0.218200 0.199645 1.983775 0 0 8
0.231718 0.215143 2.106675 0 0 8
0.232641 0.217571 2.115061 0 0 6
0.227673 0.225225 2.069897 0 0 0
0.227337 0.226427 2.066842 0 0 0
0.225036 0.225656 2.045926 0 0 0
0.225324 0.233552 2.048539 0 0 0
0.224368 0.234077 2.039854 0 0 0
0.224628 0.235865 2.042215 0 0 0
0.304212 -0.625443 2.747208 186 179 186
0.304764 -0.624532 2.752184 186 180 186
0.303914 -0.620752 2.744512 186 180 187
0.196941 -0.396973 1.778485 187 180 187
0.228506 -0.443738 2.063533 186 181 186
0.249985 -0.483772 2.257504 186 181 186
0.250760 -0.483590 2.264504 186 181 187
0.250547 -0.481498 2.262575 186 181 187
0.249802 -0.478391 2.255850 186 181 187
0.249503 -0.476146 2.253155 186 181 187
0.184953 -0.350478 1.670227 186 181 187
0.251032 -0.447070 2.266956 187 180 187
0.251129 -0.445558 2.267834 187 180 186
0.389728 -0.681008 3.519463 186 181 186
0.563564 -0.882702 5.089296 186 180 187
0.557025 -0.857515 5.030247 186 180 187
0.557736 -0.854868 5.036667 188 179 187
0.555958 -0.833498 5.020614 189 179 187
1.582191 -2.212844 14.288063 189 179 187
0.292511 -0.395370 2.641540 189 180 183
0.241359 -0.303566 2.179609 181 176 179
0.240245 -0.300553 2.169544 177 173 176
0.244614 -0.299455 2.209000 184 180 181
0.246354 -0.299934 2.224716 173 170 171
0.289904 -0.351011 2.617997 154 151 152
0.269398 -0.320762 2.432818 40 42 50
0.270876 -0.320704 2.446160 20 22 30
0.264128 -0.298542 2.385226 57 60 66
0.264544 -0.297237 2.388982 52 55 64
0.270670 -0.298674 2.444303 8 8 26
0.271093 -0.297321 2.448117 3 4 20
0.264068 -0.286074 2.384680 0 8 18
0.267625 -0.284543 2.416803 2 11 21
0.265998 -0.281028 2.402107 0 8 17
0.264965 -0.276382 2.392778 2 9 17
0.263279 -0.251666 2.377558 48 58 79
0.263995 -0.250580 2.384023 71 81 95
0.265160 -0.249907 2.394540 114 128 140
0.265373 -0.246548 2.396466 170 184 202
0.263803 -0.243319 2.382286 164 174 195
0.273742 -0.248814 2.472039 56 64 89
0.273183 -0.246474 2.466996 54 61 82
0.275225 -0.246470 2.485435 45 52 64
0.275061 -0.244478 2.483953 49 53 61
0.267141 -0.232063 2.412430 121 118 124
0.266589 -0.229795 2.407443 126 121 128
0.263949 -0.218667 2.383603 112 106 116
0.263949 -0.216897 2.383608 116 110 120
0.263894 -0.215082 2.383113 107 101 111
0.264150 -0.213519 2.385426 98 92 102
0.271126 -0.215520 2.448416 97 91 101
0.270385 -0.211304 2.441723 127 119 132
0.268365 -0.207925 2.423486 144 137 149
0.266835 -0.203160 2.409668 116 122 126
0.262316 -0.197960 2.368858 73 82 85
0.262404 -0.196267 2.369658 57 61 65
0.261697 -0.193983 2.363273 46 46 51
0.260232 -0.191151 2.350037 71 69 75
0.259387 -0.188790 2.342410 105 101 107
0.262030 -0.188956 2.366277 103 94 103
0.263543 -0.188280 2.379941 103 91 101
0.262387 -0.185694 2.369504 110 94 105
0.259809 -0.182126 2.346218 120 104 115
0.261631 -0.181649 2.362676 127 114 124
