ply
format ascii 1.0
element vertex 1261
property float x
property float y
property float z
property uchar red
property uchar green
property uchar blue
end_header
0.336877 -0.690341 3.042191 186 179 186
1.476931 -2.957230 13.337506 187 180 187
0.419062 -0.810971 3.784366 188 179 186
0.418208 -0.806513 3.776653 189 179 187
0.336085 -0.641376 3.035034 189 179 187
0.362706 -0.682447 3.275437 189 179 186
0.362663 -0.679933 3.275048 187 179 186
0.363089 -0.678297 3.278895 187 179 187
0.421523 -0.747876 3.806591 187 179 187
0.397027 -0.701751 3.585376 187 179 187
0.396002 -0.697282 3.576115 187 180 186
0.395461 -0.693677 3.571233 187 180 186
0.395841 -0.691688 3.574660 187 180 186
0.395742 -0.688862 3.573771 187 180 186
0.395395 -0.685606 3.570639 187 180 186
0.394728 -0.681801 3.564615 187 180 186
0.393839 -0.677624 3.556588 187 180 186
0.396509 -0.668920 3.580700 186 180 187
0.363819 -0.604010 3.285491 186 180 187
0.364324 -0.602404 3.290048 186 180 185
0.347029 -0.559841 3.133865 186 181 183
0.347716 -0.558617 3.140069 186 181 183
0.350355 -0.560507 3.163903 186 181 183
0.349614 -0.556975 3.157206 186 181 183
0.699246 -1.076458 6.314581 186 181 185
0.471740 -0.666101 4.260072 190 180 188
0.471807 -0.663032 4.260681 190 180 188
0.471713 -0.659735 4.259829 190 180 188
0.470765 -0.655252 4.251271 190 180 188
0.468845 -0.649434 4.233927 190 180 187
0.464433 -0.630862 4.194088 189 180 185
0.471790 -0.637691 4.260528 189 180 183
0.278129 -0.301308 2.511663 78 72 75
0.279227 -0.300624 2.521576 99 92 95
0.278049 -0.297491 2.510940 126 119 123
0.274493 -0.291845 2.478828 148 141 144
0.266742 -0.281815 2.408829 155 148 152
0.261668 -0.274699 2.363008 151 145 150
0.260995 -0.272241 2.356930 146 142 147
0.258741 -0.268155 2.336577 120 117 122
0.267517 -0.271867 2.415828 15 16 21
0.267839 -0.270397 2.418734 2 5 9
0.267542 -0.255741 2.416053 4 13 19
0.267965 -0.254348 2.419874 2 12 16
0.266378 -0.251055 2.405538 1 12 14
0.267572 -0.250386 2.416324 1 12 12
0.258799 -0.238704 2.337100 33 45 42
0.270042 -0.245452 2.438631 68 82 79
0.280990 -0.253518 2.537500 74 89 88
0.285286 -0.255480 2.576294 72 89 91
0.260090 -0.231172 2.348760 68 87 91
0.260755 -0.230014 2.354763 63 82 89
0.261521 -0.228936 2.361682 60 78 88
0.261509 -0.227171 2.361572 64 78 92
0.262158 -0.225976 2.367433 67 80 96
0.262265 -0.224310 2.368402 50 62 78
0.261885 -0.222228 2.364970 45 55 71
0.261579 -0.220214 2.362208 62 70 86
0.261995 -0.218806 2.365958 68 75 91
0.262449 -0.217425 2.370058 87 91 109
0.264010 -0.216947 2.384156 130 132 151
0.269671 -0.216173 2.435281 182 183 199
0.271949 -0.214351 2.455853 173 173 183
0.270874 -0.211686 2.446139 179 180 185
0.273515 -0.211916 2.469997 180 182 183
0.272385 -0.209213 2.459789 174 174 176
0.271526 -0.206732 2.452035 168 163 169
0.270743 -0.204320 2.444960 154 146 154
0.270405 -0.202251 2.441909 131 123 131
0.271106 -0.200957 2.448239 115 109 116
0.271061 -0.199105 2.447832 116 109 119
0.271032 -0.197266 2.447568 126 119 129
0.270370 -0.194970 2.441589 129 121 132
0.270839 -0.193492 2.445829 125 116 127
0.270458 -0.191406 2.442384 124 115 127
0.268736 -0.188385 2.426836 124 116 128
0.264165 -0.178092 2.385553 127 119 134
0.263388 -0.175802 2.378538 127 119 135
0.263376 -0.174028 2.378434 128 120 135
0.262782 -0.171872 2.373064 130 122 136
0.263740 -0.170730 2.381723 130 122 137
0.264068 -0.169171 2.384680 130 123 137
0.262119 -0.164406 2.367078 130 123 137
0.262359 -0.162797 2.369249 130 123 137
0.262683 -0.161235 2.372170 130 123 137
0.262719 -0.159495 2.372498 130 123 137
0.261971 -0.157284 2.365744 122 116 130
0.261427 -0.155204 2.360831 120 113 127
0.261485 -0.153484 2.361351 120 114 128
0.261567 -0.151778 2.362092 122 115 129
0.261636 -0.150063 2.362716 124 116 131
0.261729 -0.148361 2.363561 125 117 132
0.261444 -0.146446 2.360986 127 118 133
0.261685 -0.144825 2.363160 127 119 132
0.261858 -0.143165 2.364721 125 116 127
0.262128 -0.141554 2.367159 125 115 125
0.262033 -0.139745 2.366305 126 118 124
0.262183 -0.138067 2.367659 126 120 123
0.261914 -0.136168 2.365232 126 121 123
0.261470 -0.134183 2.361220 127 123 124
0.260894 -0.132138 2.356018 129 126 128
0.261534 -0.130708 2.361799 132 130 134
0.261428 -0.128901 2.360838 129 128 135
0.261274 -0.127073 2.359448 125 124 132
0.261488 -0.125423 2.361385 137 136 144
0.261448 -0.123650 2.361020 148 147 154
0.261506 -0.121923 2.361545 139 139 142
0.261459 -0.120148 2.361124 134 134 133
0.261166 -0.118261 2.358471 133 131 126
0.261184 -0.116518 2.358639 109 106 101
0.261369 -0.114847 2.360307 81 78 79
0.261449 -0.113128 2.361034 56 54 60
0.261360 -0.111336 2.360223 32 31 37
0.261203 -0.109518 2.358809 19 18 23
0.261210 -0.107768 2.358870 11 11 14
0.261284 -0.106046 2.359540 5 6 6
0.261682 -0.104453 2.363137 2 4 2
0.261938 -0.102798 2.365442 1 5 3
0.262041 -0.101081 2.366378 1 7 4
0.262700 -0.099573 2.372328 1 9 6
0.263766 -0.098208 2.381956 2 11 10
0.263635 -0.096391 2.380772 3 14 14
0.263827 -0.094691 2.382500 4 14 15
0.263002 -0.092631 2.375051 3 13 15
0.262337 -0.090637 2.369053 2 12 15
0.261697 -0.088661 2.363273 2 11 16
0.261688 -0.086902 2.363189 1 6 11
0.261163 -0.084976 2.358444 0 1 6
0.255421 -0.072828 2.306591 0 0 6
0.255304 -0.064232 2.305541 0 0 3
0.254575 -0.062341 2.298951 0 0 3
0.254137 -0.060529 2.295002 0 0 4
0.254637 -0.058940 2.299513 0 0 4
0.256309 -0.057608 2.314615 0 0 3
0.257051 -0.056051 2.321315 0 1 3
0.254309 -0.053747 2.296548 0 0 3
0.256133 -0.052415 2.313025 0 0 3
0.258615 -0.040780 2.335437 0 0 0
0.258678 -0.039054 2.336002 0 0 0
0.262238 -0.037833 2.368158 0 0 0
0.257639 -0.014704 2.326621 1 0 5
0.300023 -0.007060 2.709376 0 1 6
0.320983 0.013977 2.898658 0 1 6
0.312181 0.019876 2.819164 0 1 6
0.312149 0.021967 2.818877 0 1 6
0.236665 0.103965 2.137216 0 1 6
0.254659 0.116995 2.299716 0 1 6
0.254534 0.118644 2.298581 0 1 6
0.254910 0.120529 2.301978 0 1 6
0.235819 0.124157 2.129574 0 0 8
0.235538 0.125589 2.127040 0 0 6
0.235413 0.127102 2.125914 0 1 6
0.235771 0.128876 2.129139 0 1 6
0.236171 0.130679 2.132760 0 1 6
0.235888 0.132104 2.130197 0 0 6
0.251617 0.144289 2.272245 0 0 7
0.235592 0.143000 2.127526 0 0 10
0.235675 0.144632 2.128278 0 0 10
0.276756 0.190263 2.499261 1 0 5
0.174804 0.141279 1.578578 0 2 1
0.175849 0.145662 1.588012 0 1 3
0.280160 0.292201 2.529998 1 0 5
0.343463 -0.701434 3.080994 188 179 187
0.344372 -0.698702 3.089150 186 180 187
3.363342 -6.711893 30.170477 186 180 187
1.477011 -2.937685 13.249360 187 180 187
0.414911 -0.797588 3.721915 189 179 187
0.413631 -0.792372 3.710434 189 179 187
0.254496 -0.479045 2.282923 189 179 187
0.361014 -0.674738 3.238435 189 179 187
0.360904 -0.672127 3.237445 187 179 187
0.361954 -0.671671 3.246865 187 180 187
0.361407 -0.668248 3.241960 186 180 187
0.343997 -0.617720 3.085782 189 179 187
0.400147 -0.702553 3.589475 187 180 187
0.398685 -0.697329 3.576356 186 180 187
0.398058 -0.693581 3.570736 186 180 187
0.398351 -0.691436 3.573359 186 180 187
0.398260 -0.688626 3.572550 186 180 187
0.397787 -0.685157 3.568301 186 180 187
0.397077 -0.681289 3.561936 186 180 187
0.396391 -0.677471 3.555781 186 180 187
0.394591 -0.671766 3.539638 186 180 187
0.394094 -0.668294 3.535179 186 180 187
0.400093 -0.670468 3.588987 186 181 187
0.400479 -0.668447 3.592450 186 181 187
0.359707 -0.595600 3.226708 186 181 187
0.360204 -0.594023 3.231165 186 181 187
0.360539 -0.592174 3.234176 186 181 187
0.348960 -0.568504 3.130301 186 181 185
0.350276 -0.568316 3.142114 186 181 183
0.349459 -0.564662 3.134787 186 182 183
0.349756 -0.562811 3.137447 186 182 183
0.349778 -0.560516 3.137644 186 182 183
0.349670 -0.558013 3.136677 186 182 183
0.349732 -0.553451 3.137228 186 181 183
0.698682 -1.073079 6.267451 186 181 185
0.699748 -1.070053 6.277014 186 180 185
0.701375 -1.067868 6.291605 187 179 186
0.475098 -0.669539 4.261813 190 180 188
0.475114 -0.666395 4.261954 190 180 188
0.475157 -0.663290 4.262344 190 180 188
0.475711 -0.660894 4.267314 190 180 188
0.475385 -0.657274 4.264389 190 180 188
0.473517 -0.651536 4.247632 190 180 187
0.405297 -0.498258 3.635669 185 180 186
0.404437 -0.494506 3.627953 185 180 186
0.282118 -0.309231 2.530706 140 136 137
0.279228 -0.300482 2.504780 103 95 97
0.279310 -0.298710 2.505519 116 107 110
0.279730 -0.297295 2.509289 135 126 129
0.262980 -0.274237 2.359035 155 148 152
0.261140 -0.270578 2.342527 154 148 152
0.261977 -0.269700 2.350037 145 140 144
0.259962 -0.265893 2.331962 118 115 118
0.262159 -0.266393 2.351665 78 77 81
0.265244 -0.267760 2.379337 41 41 45
0.269083 -0.269843 2.413779 17 19 22
0.266089 -0.252658 2.386923 17 26 32
0.265864 -0.250672 2.384903 13 23 27
0.264756 -0.247864 2.374965 7 18 20
0.259610 -0.239587 2.328805 4 14 11
0.259879 -0.238103 2.331212 17 29 24
0.276017 -0.245533 2.475983 72 89 91
0.262126 -0.229683 2.351370 90 110 118
0.262565 -0.228318 2.355305 99 118 130
0.262907 -0.226863 2.358375 108 124 139
0.262779 -0.225002 2.357225 123 138 153
0.264388 -0.224618 2.371660 105 117 133
0.263074 -0.219996 2.359873 87 96 113
0.262272 -0.217578 2.352684 101 108 126
0.266137 -0.215465 2.387350 169 170 191
0.271768 -0.216402 2.437860 173 172 190
0.275468 -0.217513 2.471050 170 169 183
0.276751 -0.216682 2.482565 172 172 180
0.275726 -0.214043 2.473373 177 178 182
0.275501 -0.212032 2.471350 180 182 181
0.273968 -0.209027 2.457597 179 179 179
0.272913 -0.206404 2.448136 160 154 158
0.272488 -0.204266 2.444321 147 138 145
0.272795 -0.202679 2.447079 129 119 127
0.274205 -0.201899 2.459721 123 113 121
0.273031 -0.199216 2.449196 134 124 133
0.272358 -0.196910 2.443156 152 142 150
0.272573 -0.195250 2.445086 158 148 156
0.272717 -0.193536 2.446379 153 143 152
0.271849 -0.191108 2.438588 149 139 148
0.270467 -0.188335 2.426193 147 137 148
0.266216 -0.180053 2.388063 139 128 141
0.265719 -0.177947 2.383603 135 124 138
0.265284 -0.175888 2.379704 133 122 135
0.264886 -0.173859 2.376132 131 120 134
0.265187 -0.170523 2.378834 127 116 129
0.264294 -0.168187 2.370817 126 116 129
0.263935 -0.166200 2.367594 126 115 129
0.263702 -0.164297 2.365508 126 115 129
0.263967 -0.162703 2.367886 126 115 129
0.264187 -0.161078 2.369858 126 115 129
0.265284 -0.159980 2.379704 126 115 128
0.264461 -0.157721 2.372313 132 121 135
0.264070 -0.155729 2.368810 134 123 137
0.264057 -0.153962 2.368696 134 123 137
0.264323 -0.152356 2.371082 134 124 137
0.264885 -0.150915 2.376122 135 124 138
0.264968 -0.149196 2.376867 136 125 139
0.264779 -0.147326 2.375172 136 125 139
0.264262 -0.145277 2.370529 136 125 139
0.264096 -0.143427 2.369047 137 126 138
0.264239 -0.141743 2.370325 138 126 137
0.264530 -0.140137 2.372936 138 128 135
0.264162 -0.138182 2.369634 136 127 131
0.264029 -0.136353 2.368445 133 126 127
0.263445 -0.134296 2.363199 133 127 127
0.263620 -0.132629 2.364774 135 131 131
0.264521 -0.131320 2.372855 137 134 138
0.263671 -0.129141 2.365232 129 128 135
0.263513 -0.127308 2.363811 111 110 120
0.263875 -0.125725 2.367063 102 100 113
0.263505 -0.123792 2.363737 99 97 107
0.263401 -0.121989 2.362809 79 78 84
0.263296 -0.120185 2.361863 63 62 63
0.263104 -0.118345 2.360143 58 55 50
0.263364 -0.116707 2.362477 38 36 31
0.263562 -0.115039 2.364256 28 28 28
0.263654 -0.113322 2.365077 18 20 27
0.263791 -0.111624 2.366308 5 7 14
0.263497 -0.109743 2.363671 1 1 7
0.264303 -0.108318 2.370902 0 1 5
0.265224 -0.106929 2.379165 0 2 3
0.265434 -0.105245 2.381049 3 7 7
0.265763 -0.103604 2.383999 7 14 13
0.266062 -0.101948 2.386678 6 14 14
0.266489 -0.100336 2.390513 5 13 15
0.266588 -0.098597 2.391397 5 15 17
0.266542 -0.096804 2.390988 6 15 20
0.266586 -0.095044 2.391377 7 16 20
0.265991 -0.093059 2.386040 7 16 20
0.265633 -0.091164 2.382829 6 15 19
0.264963 -0.089169 2.376824 5 13 18
0.263686 -0.086982 2.365364 2 8 12
0.261734 -0.072387 2.347853 0 0 4
0.263349 -0.071079 2.362345 0 0 4
0.263106 -0.069260 2.360163 1 0 4
0.256162 -0.064019 2.297875 1 0 4
0.257127 -0.062547 2.306525 1 0 4
0.257595 -0.060944 2.310731 0 0 4
0.258064 -0.059336 2.314933 0 0 4
0.257480 -0.054055 2.309694 0 1 3
0.261705 -0.042736 2.347591 0 2 1
0.260490 -0.040802 2.336700 0 1 0
0.259586 -0.038930 2.328586 1 1 0
0.259119 -0.021595 2.324399 0 2 0
0.297768 0.002960 2.671098 0 1 6
0.319552 0.013822 2.866503 0 0 6
0.310125 0.019613 2.781941 0 1 5
0.309617 0.021644 2.777386 0 1 5
0.177301 0.057285 1.590459 0 0 11
0.252899 0.096876 2.268604 0 1 6
0.242552 0.102610 2.175789 0 1 6
0.240702 0.103430 2.159188 0 1 6
0.235589 0.140476 2.113322 0 0 9
0.176978 0.145621 1.587563 0 1 3
0.239525 0.225812 2.148636 0 0 4
0.279318 0.289382 2.505594 1 0 5
0.347169 -0.704311 3.093628 188 179 187
0.346440 -0.698246 3.087132 186 180 187
3.570829 -7.102423 31.819696 186 181 187
3.390024 -6.720361 30.208542 186 180 187
0.251086 -0.487779 2.237427 189 179 187
0.354762 -0.686841 3.161289 189 179 187
0.462216 -0.888760 4.118810 189 179 187
0.460557 -0.882521 4.104027 189 179 187
0.409680 -0.779608 3.650664 189 179 187
0.397471 -0.751113 3.541871 189 179 187
0.254337 -0.475578 2.266400 189 179 187
0.357046 -0.660542 3.181644 187 179 187
0.352923 -0.636562 3.144900 186 180 187
0.353633 -0.635502 3.151226 187 179 187
0.353171 -0.632334 3.147111 188 179 187
0.413737 -0.724343 3.686814 187 179 187
0.401936 -0.701024 3.581660 187 180 187
0.400673 -0.696169 3.570406 186 180 187
0.400360 -0.692974 3.567611 186 181 187
0.400614 -0.690762 3.569872 186 181 187
0.400242 -0.687472 3.566560 186 181 187
0.400136 -0.684642 3.565619 186 181 187
0.399610 -0.681097 3.560934 186 181 187
0.399019 -0.677448 3.555665 186 181 187
0.397005 -0.671401 3.537714 186 181 187
0.396338 -0.667649 3.531769 186 181 187
0.397193 -0.666461 3.539390 186 181 187
0.400442 -0.669262 3.568343 186 181 187
0.402243 -0.669609 3.584389 186 181 187
0.402144 -0.666783 3.583506 186 181 187
0.355523 -0.584776 3.168070 186 181 187
0.355679 -0.582679 3.169461 186 181 187
0.355523 -0.580070 3.168070 186 181 187
0.350447 -0.567148 3.122833 186 181 185
0.352313 -0.567837 3.139467 186 181 183
0.352171 -0.565277 3.138202 186 182 183
0.352159 -0.562927 3.138096 186 182 183
0.352066 -0.560447 3.137261 186 182 183
0.351420 -0.557093 3.131505 186 182 183
0.352506 -0.556481 3.141182 186 181 183
0.700873 -1.064679 6.245488 186 180 185
0.702567 -1.062602 6.260584 188 179 186
0.975667 -1.385246 8.694181 189 179 187
0.477865 -0.668981 4.258259 190 180 188
0.477510 -0.665323 4.255094 190 180 188
0.477769 -0.662522 4.257409 190 180 188
0.478097 -0.659812 4.260329 190 180 188
0.477747 -0.656167 4.257207 190 180 188
0.477170 -0.652217 4.252071 190 180 187
0.474372 -0.635833 4.227136 189 180 185
0.408134 -0.498425 3.636891 185 180 186
0.359557 -0.420063 3.204018 186 176 184
0.362747 -0.421388 3.232441 185 175 183
0.280223 -0.295847 2.497066 146 137 140
0.279369 -0.293097 2.489461 157 148 151
0.263860 -0.273333 2.351262 160 153 157
0.261917 -0.267853 2.333948 162 157 161
0.260859 -0.265045 2.324519 148 145 148
0.261813 -0.264281 2.333020 119 117 121
0.268014 -0.266993 2.388279 56 58 62
0.271560 -0.268727 2.419874 29 34 37
0.270492 -0.265880 2.410358 11 17 20
0.277179 -0.270618 2.469943 4 11 13
0.276055 -0.267695 2.459933 6 13 15
0.274972 -0.264824 2.450275 12 20 23
0.271740 -0.258114 2.421479 24 31 37
0.265025 -0.249982 2.361645 27 35 41
0.264698 -0.247921 2.358729 25 34 39
0.264688 -0.246160 2.358639 20 30 33
0.263993 -0.243766 2.352445 14 24 25
0.260751 -0.239047 2.323557 12 22 21
0.274659 -0.244526 2.447491 50 63 64
0.274400 -0.242479 2.445181 58 73 77
0.274595 -0.240834 2.446922 70 86 94
0.265257 -0.229132 2.363710 89 106 119
0.265141 -0.227277 2.362676 118 133 148
0.265689 -0.225989 2.367562 138 151 166
0.277948 -0.232736 2.476797 100 111 126
0.275347 -0.223268 2.453616 157 160 179
0.273784 -0.220189 2.439690 174 175 195
0.274647 -0.219065 2.447382 166 167 186
0.274974 -0.217506 2.450295 165 164 181
0.275260 -0.215910 2.452846 171 170 183
0.276635 -0.215158 2.465097 169 169 177
0.276170 -0.212968 2.460958 158 159 163
0.275741 -0.210812 2.457128 151 151 152
0.274616 -0.208134 2.447103 150 148 149
0.274176 -0.205986 2.443182 128 122 125
0.275709 -0.205313 2.456849 128 120 125
0.275099 -0.203038 2.451410 130 120 128
0.275051 -0.201182 2.450986 140 130 138
0.274595 -0.199031 2.446922 161 151 159
0.273828 -0.196663 2.440083 179 169 177
0.273486 -0.194607 2.437035 182 172 180
0.273805 -0.193022 2.439883 176 166 173
0.272599 -0.190367 2.429133 172 162 170
0.271733 -0.187963 2.421412 171 161 170
0.271776 -0.186195 2.421797 168 158 167
0.268010 -0.180067 2.388243 160 150 160
0.266030 -0.175215 2.370595 152 142 153
0.266907 -0.174026 2.378413 150 140 151
0.267856 -0.172871 2.386864 150 140 151
0.266799 -0.170424 2.377450 150 140 151
0.266299 -0.168342 2.372997 150 140 151
0.265467 -0.164301 2.365577 150 140 150
0.265964 -0.162849 2.370011 149 139 150
0.265852 -0.161021 2.369009 149 139 150
0.266594 -0.159705 2.375618 149 139 150
0.266826 -0.158078 2.377687 155 145 156
0.266505 -0.156124 2.374832 157 147 158
0.266611 -0.154422 2.375773 156 146 157
0.267260 -0.153029 2.381559 155 145 156
0.267052 -0.151142 2.379704 155 145 155
0.267476 -0.149612 2.383485 153 143 154
0.267627 -0.147925 2.384826 153 143 154
0.266030 -0.145281 2.370595 152 142 153
0.266000 -0.143504 2.370325 154 144 153
0.265946 -0.141715 2.369852 154 144 152
0.265551 -0.139747 2.366328 151 142 148
0.265597 -0.138013 2.366742 147 138 142
0.265052 -0.135975 2.361881 143 134 136
0.265104 -0.134247 2.362345 141 135 135
0.265122 -0.132502 2.362505 144 139 140
0.265785 -0.131074 2.368411 146 144 147
0.265040 -0.128952 2.361774 119 118 125
0.265259 -0.127303 2.363730 71 70 80
0.265353 -0.125592 2.364563 36 35 45
0.265491 -0.123900 2.365792 25 24 33
0.264648 -0.121755 2.358284 15 14 21
0.264766 -0.120057 2.359336 8 7 9
0.264704 -0.118277 2.358781 8 7 5
0.264847 -0.116587 2.360053 5 4 2
0.264903 -0.114859 2.360550 3 3 7
0.264994 -0.113144 2.361368 2 3 13
0.265612 -0.111650 2.366871 0 2 12
0.266418 -0.110225 2.374050 0 2 9
0.267635 -0.108958 2.384903 0 3 8
0.267539 -0.107148 2.384042 6 12 14
0.267889 -0.105515 2.387164 15 23 24
0.267987 -0.103780 2.388037 18 27 28
0.270190 -0.101056 2.407666 11 21 23
0.270559 -0.099403 2.410956 10 20 24
0.269125 -0.097095 2.398180 9 20 24
0.270001 -0.095624 2.405983 9 19 24
0.268235 -0.093223 2.390242 9 19 24
0.267115 -0.091066 2.380264 9 20 24
0.265730 -0.088835 2.367925 10 19 24
0.264896 -0.071023 2.360490 1 0 5
0.262356 -0.068606 2.337857 1 0 5
0.260521 -0.066402 2.321510 1 0 5
0.259000 -0.064300 2.307953 1 0 5
0.258504 -0.062465 2.303534 1 0 5
0.259215 -0.060922 2.309867 0 0 5
0.259096 -0.059179 2.308807 0 0 4
0.259236 -0.055779 2.310057 0 1 3
0.261075 -0.038895 2.326446 0 1 0
0.317291 -0.022068 2.827387 0 1 1
0.318568 0.013688 2.838760 0 0 7
0.308129 0.019358 2.745745 0 1 5
0.307148 0.021329 2.736998 0 1 5
0.177149 0.056857 1.578578 0 0 8
0.252640 0.094464 2.251281 0 0 6
0.252495 0.096081 2.249982 0 1 6
0.236709 0.140210 2.109315 0 0 8
0.273396 0.185465 2.436239 1 0 5
0.273503 0.187348 2.437187 0 0 3
0.239137 0.220789 2.130954 0 0 2
0.239882 0.223064 2.137588 0 0 3
0.239526 0.224318 2.134415 0 0 4
0.280114 0.288286 2.496103 1 0 5
0.349467 -0.704311 3.093628 188 179 187
0.348246 -0.697270 3.082816 186 180 187
3.521375 -6.958006 31.172695 186 181 187
3.426047 -6.747116 30.328804 186 180 187
1.506651 -2.947323 13.337506 187 179 187
0.354178 -0.681202 3.135334 189 179 187
0.406399 -0.768278 3.597611 189 179 187
0.402189 -0.757675 3.560342 189 179 187
0.398668 -0.748422 3.529178 189 179 187
0.254383 -0.474209 2.251903 189 179 187
0.254388 -0.472545 2.251947 189 179 187
0.355285 -0.652961 3.145130 187 179 187
0.200444 -0.363114 1.774411 186 181 187
0.353539 -0.633480 3.129676 186 180 187
0.354066 -0.632096 3.134338 186 180 187
0.354183 -0.629976 3.135377 187 179 187
0.403633 -0.699354 3.573129 187 180 187
0.402731 -0.695143 3.565145 186 180 187
0.402536 -0.692160 3.563418 186 181 187
0.402425 -0.689323 3.562436 186 181 187
0.402076 -0.686082 3.559349 186 181 187
0.402440 -0.684056 3.562569 186 181 187
0.402221 -0.681039 3.560631 186 181 187
0.401516 -0.677205 3.554389 186 181 187
0.399241 -0.670742 3.534246 186 181 187
0.399346 -0.668294 3.535179 186 181 187
0.399560 -0.666025 3.537077 186 181 187
0.402618 -0.668475 3.564148 186 181 187
0.404064 -0.668218 3.576940 186 181 187
0.402568 -0.663098 3.563705 186 181 187
0.352766 -0.576426 3.122833 186 181 187
0.352592 -0.573823 3.121290 186 181 187
0.351676 -0.570020 3.113183 186 181 187
0.351417 -0.567290 3.110894 186 181 185
0.352067 -0.566024 3.116646 186 181 185
0.352625 -0.564603 3.121586 186 181 183
0.352778 -0.562528 3.122938 186 182 183
0.352946 -0.560475 3.124424 186 182 183
0.352640 -0.557670 3.121716 186 182 183
0.352534 -0.555185 3.120782 186 182 183
0.946191 -1.340784 8.376077 189 179 187
0.481933 -0.670240 4.266274 190 180 188
0.482185 -0.667419 4.268503 190 180 188
0.481960 -0.663939 4.266510 190 180 188
0.481305 -0.659872 4.260715 190 180 188
0.480816 -0.656040 4.256384 190 180 188
0.480262 -0.652126 4.251482 190 180 187
0.479623 -0.648105 4.245826 190 181 186
0.357594 -0.415022 3.165568 186 176 184
0.360279 -0.415770 3.189344 186 176 184
0.284225 -0.307444 2.516076 150 147 148
0.283529 -0.304826 2.509914 145 141 142
0.280297 -0.295823 2.481305 146 137 140
0.280782 -0.294489 2.485603 156 147 150
0.280548 -0.292399 2.483530 165 156 159
0.262993 -0.267185 2.328127 166 161 164
0.263240 -0.263974 2.330309 154 152 156
0.273457 -0.270623 2.420753 109 111 114
0.272204 -0.267594 2.409668 73 76 79
0.275596 -0.269116 2.439690 37 41 44
0.276683 -0.268358 2.449314 12 16 18
0.276229 -0.266102 2.445294 5 10 12
0.276290 -0.264344 2.445837 8 15 18
0.275889 -0.262146 2.442285 14 21 24
0.275670 -0.258313 2.440349 27 35 40
0.278878 -0.259485 2.468747 30 39 43
0.275889 -0.251262 2.442285 30 39 39
0.276205 -0.249734 2.445086 27 36 36
0.275557 -0.243712 2.439343 32 44 46
0.274403 -0.240887 2.429133 48 61 66
0.274872 -0.239492 2.433286 61 75 84
0.275459 -0.238192 2.438483 61 77 88
0.276108 -0.236937 2.444221 61 76 89
0.275648 -0.225667 2.440148 128 134 150
0.275566 -0.223789 2.439428 143 146 163
0.275070 -0.221577 2.435034 158 160 179
0.275711 -0.220280 2.440705 155 155 174
0.276211 -0.218863 2.445132 149 149 167
0.275964 -0.216853 2.442946 155 154 169
0.276098 -0.215144 2.444138 165 164 176
0.276799 -0.213870 2.450340 151 151 158
0.276267 -0.211642 2.445633 117 118 121
0.276308 -0.209857 2.445996 95 95 95
0.275424 -0.207374 2.438170 93 92 91
0.277183 -0.206876 2.453738 101 95 97
0.277417 -0.205227 2.455811 121 112 117
0.276278 -0.202567 2.445728 146 136 143
0.276550 -0.200948 2.448136 166 157 164
0.276102 -0.198807 2.444169 183 174 181
0.275212 -0.196357 2.436289 192 182 190
0.273996 -0.193687 2.425524 190 180 188
0.274056 -0.191928 2.426062 182 173 178
0.273247 -0.189565 2.418898 184 175 180
0.272254 -0.187086 2.410102 184 174 182
0.270820 -0.184320 2.397409 183 174 181
0.270607 -0.182395 2.395524 183 173 180
0.269505 -0.179881 2.385772 181 171 179
0.268372 -0.177360 2.375740 180 170 178
0.267725 -0.175172 2.370011 179 169 177
0.268595 -0.173975 2.377713 179 169 177
0.268301 -0.172020 2.375111 180 170 178
0.268162 -0.170168 2.373884 180 170 178
0.268036 -0.168326 2.372772 180 170 178
0.268150 -0.166634 2.373779 180 170 178
0.268023 -0.164793 2.372654 180 170 178
0.268020 -0.163029 2.372628 180 170 178
0.268018 -0.161265 2.372604 180 170 178
0.268327 -0.159687 2.375345 180 170 178
0.268567 -0.158064 2.377469 180 170 178
0.269066 -0.156588 2.381884 179 169 177
0.269108 -0.154843 2.382261 178 168 176
0.268897 -0.152954 2.380390 176 166 174
0.268784 -0.151122 2.379387 174 164 172
0.268820 -0.149374 2.379704 172 162 170
0.268654 -0.147516 2.378237 170 160 168
0.267691 -0.145227 2.369717 169 159 167
0.267327 -0.143272 2.366487 167 157 166
0.267052 -0.141369 2.364058 165 155 163
0.266644 -0.139399 2.360445 161 152 158
0.266289 -0.137463 2.357302 157 148 151
0.266151 -0.135642 2.356084 153 144 146
0.266197 -0.133914 2.356486 153 144 145
0.265990 -0.132061 2.354654 156 149 151
0.266514 -0.130569 2.359295 161 156 159
0.266635 -0.128875 2.360365 128 125 131
0.266597 -0.127104 2.360027 63 62 70
0.266597 -0.125351 2.360027 14 14 22
0.266521 -0.123563 2.359355 3 3 11
0.266501 -0.121801 2.359174 3 3 9
0.265938 -0.119795 2.354195 0 1 5
0.265815 -0.117992 2.353102 1 1 3
0.266136 -0.116385 2.355951 4 5 7
0.266597 -0.114833 2.360027 2 2 10
0.266908 -0.113212 2.362778 1 4 16
0.267487 -0.111699 2.367906 3 9 20
0.269604 -0.110810 2.386648 2 8 17
0.269788 -0.109112 2.388279 4 10 16
0.270783 -0.107734 2.397084 13 22 25
0.272386 -0.106581 2.411278 22 31 33
0.273429 -0.105191 2.420507 19 29 31
0.272602 -0.103080 2.413184 16 27 29
0.272844 -0.101378 2.415329 14 27 28
0.273380 -0.099779 2.420077 12 25 28
0.273318 -0.097960 2.419529 10 23 27
0.272471 -0.095864 2.412026 9 22 25
0.270869 -0.093520 2.397845 9 22 26
0.264650 -0.070491 2.342790 1 0 7
0.262477 -0.068186 2.323557 1 0 7
0.263122 -0.066624 2.329268 1 0 7
0.262775 -0.064808 2.326194 1 0 7
0.261353 -0.062739 2.313603 1 0 7
0.260116 -0.060731 2.302652 1 0 7
0.260736 -0.059162 2.308146 0 0 6
0.261216 -0.057553 2.312390 0 0 5
0.269259 -0.048702 2.383590 0 1 5
0.268770 -0.046847 2.379267 0 1 4
0.263886 -0.039055 2.336025 0 2 0
0.270041 -0.038190 2.390513 0 1 0
0.263678 -0.025154 2.334185 1 1 0
0.318198 -0.021986 2.816819 0 1 1
0.314840 0.013439 2.787097 0 0 7
0.305347 0.019057 2.703058 0 1 5
0.304749 0.021023 2.697768 0 1 5
0.259305 0.048579 2.295474 0 1 6
0.259718 0.050364 2.299131 0 1 6
0.251126 0.089978 2.223072 0 1 6
0.252011 0.091952 2.230906 0 1 6
0.253421 0.094133 2.243387 0 1 6
0.253616 0.095873 2.245111 0 1 6
0.253412 0.102461 2.243311 0 1 6
0.253825 0.104297 2.246962 0 1 6
0.253950 0.106018 2.248074 0 1 6
0.254404 0.107881 2.252095 0 1 6
0.251782 0.113391 2.228878 0 1 5
0.246524 0.127233 2.182336 0 1 4
0.247802 0.129522 2.193647 0 1 5
0.271878 0.181435 2.406776 0 0 5
0.272017 0.183316 2.408005 0 0 5
0.272524 0.185450 2.412494 0 0 5
0.288525 0.205824 2.554145 0 0 3
0.217532 0.156610 1.925683 0 0 3
0.215579 0.156622 1.908396 0 0 2
0.271904 0.213633 2.407008 0 2 0
0.272612 0.215982 2.413274 0 2 1
0.178322 0.144796 1.578578 0 1 3
0.279326 0.285585 2.472713 1 0 6
0.351765 -0.704311 3.093628 187 179 187
0.475384 -0.948718 4.180809 186 180 187
0.350311 -0.696823 3.080842 186 180 187
3.383090 -6.641096 29.752897 186 181 187
3.346780 -6.547956 29.433567 186 180 187
1.519084 -2.952233 13.359726 187 179 187
0.352899 -0.674307 3.103600 189 179 187
0.470971 -0.893763 4.141997 189 179 187
0.399882 -0.748408 3.516797 189 179 187
0.398581 -0.743370 3.505358 189 179 187
0.348649 -0.647967 3.066226 189 179 187
0.256147 -0.474379 2.252712 189 179 187
0.255978 -0.472394 2.251225 189 179 187
0.355613 -0.649295 3.127473 187 179 187
0.355677 -0.647088 3.128031 187 180 187
0.201010 -0.361761 1.767798 186 181 187
0.352633 -0.627729 3.101262 186 180 187
0.354250 -0.628293 3.115480 187 179 187
0.404673 -0.696576 3.558938 187 180 187
0.401559 -0.688593 3.531551 186 180 187
0.401466 -0.685811 3.530732 186 181 187
0.401275 -0.682862 3.529047 186 181 187
0.401321 -0.680319 3.529453 186 181 187
0.401820 -0.678541 3.533844 186 181 187
0.401800 -0.675881 3.533664 186 181 187
0.400761 -0.671516 3.524525 186 181 187
0.399261 -0.666395 3.511337 186 181 187
0.399244 -0.663759 3.511189 186 181 187
0.398426 -0.659795 3.503991 186 181 187
0.400825 -0.661150 3.525089 186 181 187
0.402175 -0.660749 3.536961 186 181 187
0.398331 -0.651832 3.503156 186 181 187
0.397821 -0.648399 3.498675 186 181 187
0.351847 -0.568870 3.094351 186 181 187
0.351464 -0.565956 3.090986 186 181 187
0.352259 -0.564934 3.097974 186 181 185
0.352655 -0.563266 3.101459 186 181 185
0.353104 -0.561676 3.105402 186 181 183
0.351705 -0.557153 3.093100 186 182 183
0.351602 -0.554694 3.092201 186 182 183
0.351654 -0.552479 3.092655 186 182 183
0.350658 -0.548623 3.083894 186 182 183
0.484939 -0.663679 4.264844 190 180 188
0.483636 -0.655578 4.253385 190 180 188
0.280069 -0.291822 2.463094 164 155 158
0.278512 -0.288381 2.449401 172 163 166
0.266854 -0.272823 2.346871 169 163 165
0.267658 -0.264902 2.353940 168 167 170
0.265992 -0.261516 2.339287 148 149 151
0.276953 -0.270484 2.435691 115 118 119
0.277071 -0.268789 2.436725 76 81 81
0.276937 -0.266850 2.435549 42 48 49
0.276421 -0.264547 2.431013 26 31 33
0.277076 -0.263364 2.436769 23 27 30
0.277241 -0.261710 2.438223 23 28 32
0.277458 -0.260103 2.440134 25 30 34
0.277553 -0.258378 2.440964 28 34 38
0.277553 -0.256565 2.440964 33 39 45
0.277867 -0.253225 2.443729 44 51 54
0.277381 -0.250970 2.439455 46 51 53
0.276857 -0.248687 2.434843 42 49 49
0.277965 -0.247867 2.444587 40 48 49
0.278517 -0.246540 2.449440 38 46 49
0.277047 -0.243429 2.436514 39 48 54
0.277532 -0.242042 2.440783 47 57 67
0.276898 -0.239681 2.435208 56 68 79
0.276674 -0.237680 2.433238 58 71 84
0.276627 -0.235831 2.432818 54 68 81
0.276766 -0.234143 2.434048 46 59 72
0.276208 -0.228257 2.429133 97 106 118
0.275400 -0.225791 2.422033 119 126 140
0.276673 -0.223220 2.433228 136 138 155
0.277532 -0.222100 2.440783 156 156 174
0.278253 -0.220859 2.447118 144 143 161
0.278324 -0.219097 2.447742 143 141 157
0.279824 -0.218450 2.460939 152 150 164
0.280801 -0.217379 2.469528 157 155 166
0.280962 -0.215668 2.470945 135 134 140
0.281321 -0.214106 2.474100 96 96 98
0.281986 -0.212770 2.479951 76 76 76
0.280715 -0.209978 2.468777 80 78 79
0.280562 -0.208030 2.467428 121 115 118
0.279595 -0.205487 2.458927 147 138 143
0.278704 -0.203011 2.451084 173 164 169
0.279077 -0.201460 2.454366 186 177 182
0.278019 -0.198880 2.445061 188 179 184
0.279069 -0.197808 2.454296 188 179 184
0.277843 -0.195124 2.443514 186 177 182
0.268087 -0.172511 2.357714 191 182 184
0.268189 -0.170825 2.358609 187 178 182
0.268026 -0.168970 2.357177 186 177 182
0.268147 -0.167295 2.358244 186 177 182
0.268048 -0.165482 2.357371 186 177 182
0.267997 -0.163701 2.356925 186 177 182
0.268072 -0.161995 2.357580 186 177 182
0.268342 -0.160406 2.359961 186 177 182
0.268819 -0.158935 2.364156 186 177 182
0.269115 -0.157351 2.366753 189 180 185
0.270129 -0.156180 2.375675 189 180 185
0.270488 -0.154621 2.378834 186 177 182
0.270312 -0.152754 2.377285 184 175 180
0.270159 -0.150903 2.375937 181 172 177
0.269922 -0.149007 2.373854 178 169 174
0.269841 -0.147200 2.373138 176 167 172
0.269173 -0.145077 2.367267 175 166 171
0.268782 -0.143111 2.363830 171 161 168
0.268567 -0.141242 2.361941 168 158 166
0.268214 -0.139304 2.358835 165 156 162
0.267778 -0.137328 2.354994 161 152 156
0.267197 -0.135285 2.349890 159 150 152
0.267118 -0.133500 2.349191 161 152 153
0.266558 -0.131479 2.344266 165 158 159
0.267844 -0.130364 2.355583 170 165 166
0.268010 -0.128694 2.357038 156 153 156
0.268446 -0.127149 2.360869 89 88 92
0.268504 -0.125423 2.361382 20 20 25
0.268278 -0.123565 2.359400 0 0 7
0.267999 -0.121686 2.356944 0 2 8
0.268262 -0.120053 2.359256 0 1 8
0.268291 -0.118313 2.359513 1 1 8
0.268268 -0.116551 2.359306 1 2 10
0.268914 -0.115075 2.364988 1 5 17
0.269200 -0.113438 2.367501 7 13 28
0.271064 -0.112453 2.383898 13 21 34
0.272901 -0.111433 2.400053 12 20 31
0.271891 -0.109244 2.391168 13 21 29
0.272312 -0.107634 2.394871 19 29 34
0.275097 -0.106938 2.419362 22 33 37
0.273965 -0.104708 2.409407 14 26 29
0.274232 -0.103019 2.411757 14 27 30
0.274589 -0.101360 2.414898 16 30 32
0.276783 -0.100361 2.434189 13 27 30
0.275270 -0.098015 2.420883 11 25 28
0.274394 -0.095910 2.413184 10 24 27
0.270351 -0.092731 2.377626 9 23 26
0.270955 -0.091168 2.382936 11 25 28
0.267413 -0.086483 2.351788 8 18 23
0.264766 -0.071790 2.328505 1 1 10
0.264236 -0.069921 2.323850 1 0 9
0.264394 -0.068235 2.325241 1 0 9
0.264714 -0.064860 2.328054 1 0 9
0.262903 -0.062699 2.312128 1 1 9
0.262832 -0.060965 2.311501 1 0 9
0.262645 -0.059205 2.309853 0 0 8
0.270979 -0.048693 2.383146 0 1 5
0.271153 -0.046953 2.384680 0 1 5
0.265214 -0.038995 2.332449 0 2 0
0.272044 -0.038222 2.392515 0 1 0
0.273286 -0.036611 2.403438 0 1 0
0.263005 -0.024926 2.313025 1 1 0
0.293148 -0.006718 2.578115 0 1 6
0.312320 0.015284 2.746730 0 1 6
0.303211 0.018800 2.666614 0 1 5
0.302952 0.020763 2.664336 0 1 5
0.258299 0.048074 2.271632 0 1 6
0.259205 0.049936 2.279599 0 1 6
0.255985 0.082759 2.251281 0 1 6
0.252109 0.089741 2.217198 0 1 6
0.252240 0.091435 2.218346 0 1 6
0.252829 0.093300 2.223526 0 1 6
0.253198 0.095090 2.226776 0 1 6
0.252561 0.096501 2.221169 0 1 6
0.253624 0.101877 2.230520 0 1 6
0.253610 0.103528 2.230396 0 1 6
0.255182 0.105837 2.244225 0 1 6
0.254823 0.107353 2.241066 0 1 6
0.255160 0.109161 2.244031 0 1 6
0.257621 0.111897 2.265667 0 1 6
0.244814 0.123926 2.153039 0 1 3
0.245788 0.126024 2.161607 0 1 3
0.246899 0.128207 2.171379 0 1 5
0.247082 0.129916 2.172981 0 1 5
0.247063 0.131520 2.172816 0 1 6
0.247003 0.133101 2.172293 0 1 6
0.246817 0.136226 2.170657 0 1 6
0.270770 0.177746 2.381308 0 1 6
0.270512 0.179344 2.379042 0 1 6
0.270722 0.181251 2.380887 0 1 6
0.271240 0.183370 2.385442 0 1 6
0.288545 0.204493 2.537633 0 1 5
0.244937 0.179988 2.154121 0 2 0
0.245006 0.181640 2.154732 0 2 0
0.270500 0.211142 2.378938 0 2 0
0.271104 0.213385 2.384252 0 2 1
0.353452 -0.703097 3.088296 188 179 187
0.477703 -0.947159 4.173936 186 180 187
0.349743 -0.691178 3.055882 186 180 187
3.375926 -6.584023 29.497204 186 181 187
3.353326 -6.518184 29.299740 186 180 187
1.528776 -2.951786 13.357703 187 179 187
0.396295 -0.734310 3.462636 189 179 187
0.257784 -0.475984 2.252389 189 179 187
0.257737 -0.474225 2.251981 189 179 187
0.257594 -0.472291 2.250733 189 179 187
0.257936 -0.471244 2.253722 189 179 187
0.257795 -0.469313 2.252490 189 179 187
0.257789 -0.467629 2.252439 187 179 187
0.201458 -0.358906 1.760238 186 181 187
0.407076 -0.696164 3.556833 187 180 187
0.401391 -0.681233 3.507164 186 181 187
0.401563 -0.678918 3.508663 186 181 187
0.402110 -0.677233 3.513443 186 181 187
0.402980 -0.676083 3.521043 186 181 187
0.401814 -0.671519 3.510858 186 181 187
0.399980 -0.665858 3.494829 186 181 187
0.397356 -0.658911 3.471903 186 181 187
0.390380 -0.634676 3.410955 186 181 187
0.353054 -0.567118 3.084816 186 181 187
0.353272 -0.565175 3.086721 186 181 187
0.354205 -0.564368 3.094868 186 181 185
0.354785 -0.562990 3.099936 186 181 185
0.354234 -0.559817 3.095125 186 181 183
0.350515 -0.551665 3.062633 186 182 183
0.349911 -0.548443 3.057351 186 182 183
0.350589 -0.547230 3.063273 186 182 183
0.351292 -0.546048 3.069422 186 182 183
25.827162 -35.620056 225.665237 189 179 187
0.488756 -0.664562 4.270513 190 180 188
0.318893 -0.381859 2.786332 185 180 186
0.318718 -0.379581 2.784806 185 180 186
0.318510 -0.377266 2.782990 185 180 186
0.317899 -0.372416 2.777647 185 180 186
0.273411 -0.279487 2.388931 176 167 170
0.275922 -0.267728 2.410876 148 150 151
0.277237 -0.267204 2.422360 121 125 125
0.276534 -0.264732 2.416217 94 99 99
0.277028 -0.263407 2.420537 74 78 79
0.277053 -0.261633 2.420753 63 66 69
0.277053 -0.259835 2.420753 57 60 64
0.277053 -0.258037 2.420753 51 54 58
0.277292 -0.256460 2.422842 48 52 56
0.278944 -0.254367 2.437280 57 61 65
0.278417 -0.252079 2.432670 64 68 72
0.276913 -0.248921 2.419529 71 75 78
0.277108 -0.247298 2.421234 80 84 88
0.276576 -0.245028 2.416584 87 91 95
0.276662 -0.243309 2.417341 83 88 93
0.277356 -0.242119 2.423404 66 73 80
0.277852 -0.240748 2.427732 51 60 70
0.278751 -0.239718 2.435589 47 57 69
0.277597 -0.236924 2.425505 50 61 75
0.278308 -0.235725 2.431718 54 66 79
0.280561 -0.235813 2.451410 55 66 77
0.279752 -0.233317 2.444342 51 60 71
0.276979 -0.227409 2.420110 114 121 134
0.277172 -0.225769 2.421797 129 134 148
0.282476 -0.222756 2.468140 164 163 179
0.282809 -0.221183 2.471050 163 161 174
0.282879 -0.219402 2.471659 166 164 177
0.282743 -0.217461 2.470470 167 165 175
0.284828 -0.217217 2.488688 151 150 155
0.283658 -0.214484 2.478469 129 129 131
0.283846 -0.212784 2.480112 126 125 125
0.282488 -0.209932 2.468242 138 136 137
0.282264 -0.207934 2.466285 167 161 163
0.282474 -0.206255 2.468123 184 175 180
0.281000 -0.203355 2.455240 193 184 189
0.275983 -0.187187 2.411405 186 177 178
0.273793 -0.183924 2.392270 186 177 178
0.286812 -0.187086 2.506024 185 177 175
0.269838 -0.170760 2.357714 185 177 177
0.269747 -0.168952 2.356918 186 177 177
0.269759 -0.167209 2.357026 186 177 177
0.269662 -0.165398 2.356175 186 177 177
0.269560 -0.163586 2.355283 186 177 177
0.269852 -0.162012 2.357833 186 177 177
0.270312 -0.160534 2.361851 186 177 177
0.271470 -0.159460 2.371975 186 177 177
0.272142 -0.158089 2.377842 186 177 178
0.272404 -0.156473 2.380135 185 176 177
0.272687 -0.154866 2.382603 183 174 175
0.272905 -0.153218 2.384511 180 171 172
0.272725 -0.151347 2.382936 177 168 169
0.272495 -0.149451 2.380930 174 165 166
0.272198 -0.147522 2.378336 172 163 164
0.271265 -0.145256 2.370184 170 161 164
0.270760 -0.143228 2.365768 168 159 164
0.270444 -0.141306 2.363008 168 158 164
0.270254 -0.139452 2.361346 166 157 161
0.269926 -0.137532 2.358485 163 154 157
0.269199 -0.135414 2.352129 162 153 154
0.267609 -0.132877 2.338236 163 154 155
0.268127 -0.131395 2.342766 167 160 161
0.269368 -0.130255 2.353608 171 167 166
0.269707 -0.128668 2.356573 161 158 159
0.270011 -0.127061 2.359222 108 107 109
0.270466 -0.125519 2.363199 40 41 44
0.270232 -0.123657 2.361156 6 6 11
0.270415 -0.121986 2.362755 0 0 8
0.270316 -0.120187 2.361892 0 2 12
0.270107 -0.118341 2.360068 1 2 14
0.270472 -0.116745 2.363252 0 1 14
0.270993 -0.115212 2.367805 0 4 21
0.274165 -0.113002 2.395524 16 25 40
0.274684 -0.111433 2.400053 19 29 42
0.275819 -0.110103 2.409970 19 31 40
0.274215 -0.107683 2.395955 21 33 39
0.275636 -0.106452 2.408369 20 32 38
0.275708 -0.104691 2.409003 14 28 32
0.276859 -0.103331 2.419058 15 29 32
0.277706 -0.101845 2.426460 16 31 34
0.277209 -0.099863 2.422115 14 29 32
0.277691 -0.098235 2.426333 12 27 30
0.276714 -0.096094 2.417793 11 25 28
0.274465 -0.093531 2.398139 10 24 27
0.271836 -0.090871 2.375172 10 25 28
0.266946 -0.073644 2.332449 0 1 12
0.266443 -0.070047 2.328054 1 1 12
0.266620 -0.068363 2.329597 1 1 12
0.268086 -0.066999 2.342410 1 1 12
0.265969 -0.064744 2.323911 1 1 12
0.265365 -0.062875 2.318630 0 1 12
0.264160 -0.060875 2.308106 0 1 12
0.269472 -0.056853 2.354519 0 0 6
0.266670 -0.040685 2.330033 0 1 1
0.266987 -0.039001 2.332799 0 2 1
0.265709 -0.031916 2.321635 1 1 3
0.267136 -0.028620 2.334107 1 1 3
0.260418 -0.022830 2.275408 0 1 1
0.310142 0.015079 2.709868 0 1 5
0.301884 0.018596 2.637715 0 1 5
0.301023 0.020497 2.630189 0 1 5
0.258819 0.049538 2.261439 0 1 6
0.257501 0.081038 2.249915 0 1 6
0.256674 0.105765 2.242690 0 1 6
0.255824 0.107075 2.235269 0 1 6
0.255363 0.108539 2.231236 0 1 6
0.257259 0.111014 2.247800 0 1 6
0.257444 0.112765 2.249418 0 1 6
0.245841 0.125233 2.148041 0 1 5
0.246067 0.126946 2.150016 0 1 6
0.246403 0.128718 2.152948 0 1 6
0.246634 0.130439 2.154968 0 1 6
0.246562 0.132002 2.154342 0 1 6
0.246033 0.133315 2.149717 0 1 6
0.245889 0.134833 2.148460 0 1 6
0.245425 0.136171 2.144403 0 1 6
0.245508 0.137810 2.145127 0 1 6
0.245528 0.139415 2.145308 0 1 6
0.245161 0.140798 2.142101 0 1 6
0.269643 0.175858 2.356013 0 1 6
0.269646 0.177610 2.356035 0 1 6
0.269716 0.179406 2.356648 0 1 6
0.270129 0.181434 2.360256 0 1 6
0.245517 0.179244 2.145212 0 1 0
0.246231 0.181363 2.151449 0 2 0
0.269076 0.208668 2.351058 0 2 0
0.269372 0.210645 2.353644 0 1 1
0.269970 0.212865 2.358870 0 1 1
0.275416 0.277932 2.406455 0 0 6
0.355363 -0.702340 3.084972 187 179 187
0.478990 -0.943587 4.158196 186 180 187
0.349914 -0.687057 3.037662 186 180 187
3.367500 -6.525242 29.233860 186 181 187
3.353308 -6.476119 29.110651 186 180 187
1.531940 -2.938823 13.299039 187 179 187
0.258383 -0.489008 2.243066 189 179 187
0.259410 -0.475898 2.251981 189 179 187
0.259387 -0.474184 2.251787 189 179 187
0.259258 -0.472275 2.250660 189 179 187
0.259619 -0.471260 2.253800 189 179 187
0.259387 -0.469166 2.251787 188 179 187
0.259292 -0.467322 2.250960 187 179 187
0.202622 -0.358654 1.758999 186 181 187
0.409139 -0.695181 3.551810 187 180 187
0.409415 -0.693010 3.554205 186 180 187
0.404928 -0.680193 3.515255 186 181 187
0.405521 -0.678574 3.520399 186 181 187
0.405749 -0.676340 3.522381 186 181 187
0.356426 -0.566543 3.094194 186 181 187
0.358193 -0.567043 3.109537 186 181 185
0.359008 -0.566018 3.116610 186 181 185
0.359458 -0.564410 3.120518 186 181 183
0.347980 -0.541900 3.020879 186 182 183
0.347570 -0.539019 3.017313 186 182 183
35.190212 -48.447254 305.492371 189 179 187
0.492323 -0.668269 4.273940 190 180 188
0.492277 -0.665033 4.273540 190 180 188
0.492620 -0.662320 4.276522 190 180 188
0.491857 -0.658123 4.269897 190 180 188
20.414211 -25.340467 177.219360 189 179 187
19.598919 -24.202053 170.141647 189 179 187
0.321085 -0.382004 2.787392 185 180 186
0.320930 -0.379751 2.786053 185 180 186
0.320551 -0.377235 2.782757 185 180 186
0.262671 -0.293876 2.280291 188 178 185
0.288322 -0.315138 2.502974 184 179 183
0.277296 -0.292359 2.407257 165 159 161
0.274570 -0.287714 2.383590 163 155 157
0.272290 -0.276546 2.363796 174 165 168
0.271479 -0.273972 2.356758 174 165 168
0.271744 -0.272487 2.359057 174 166 169
0.272184 -0.271173 2.362875 175 169 171
0.274743 -0.268409 2.385096 176 175 175
0.276940 -0.266983 2.404164 174 175 174
0.276881 -0.265140 2.403649 160 163 162
0.277905 -0.264329 2.412542 139 143 143
0.275824 -0.260572 2.394479 124 126 128
0.278578 -0.261377 2.418389 115 116 119
0.277617 -0.258685 2.410040 106 107 110
0.277574 -0.256855 2.409668 95 97 101
0.282873 -0.258111 2.455671 88 90 95
0.280824 -0.252620 2.437886 99 101 106
0.275661 -0.244420 2.393065 126 128 133
0.275771 -0.242740 2.394019 133 135 141
0.276130 -0.241275 2.397134 127 130 137
0.277108 -0.240343 2.405627 107 112 121
0.278815 -0.240025 2.420443 85 92 103
0.278884 -0.238286 2.421041 73 81 94
0.278784 -0.236403 2.420173 70 78 93
0.278103 -0.234032 2.414259 75 83 97
0.280064 -0.233877 2.431288 89 98 109
0.278953 -0.231151 2.421642 97 105 115
0.277713 -0.226542 2.410876 137 142 154
0.277521 -0.224595 2.409209 138 141 153
0.278431 -0.223536 2.417104 140 142 155
0.283516 -0.220306 2.461249 178 174 187
0.283431 -0.218413 2.460515 177 174 184
0.282912 -0.216189 2.456012 178 175 184
0.284634 -0.215669 2.470954 176 173 180
0.284485 -0.213722 2.469663 175 173 176
0.284463 -0.211871 2.469477 181 179 180
0.283780 -0.209532 2.463543 191 187 188
0.284137 -0.207964 2.466645 190 184 186
0.284411 -0.206331 2.469022 195 186 189
0.282197 -0.202905 2.449805 192 183 186
0.282451 -0.201266 2.452010 184 175 178
0.282488 -0.199471 2.452324 179 170 173
0.271525 -0.170720 2.357160 186 178 175
0.271162 -0.168743 2.354008 186 178 176
0.271300 -0.167080 2.355204 186 178 176
0.271156 -0.165243 2.353956 186 178 176
0.271253 -0.163552 2.354794 186 178 176
0.271831 -0.162148 2.359809 186 178 176
0.272593 -0.160845 2.366427 186 178 176
0.273567 -0.159656 2.374879 186 178 176
0.274430 -0.158390 2.382378 184 176 174
0.274745 -0.156800 2.385112 182 174 172
0.274780 -0.155049 2.385417 180 172 170
0.274944 -0.153368 2.386837 177 169 167
0.274794 -0.151512 2.385531 174 166 164
0.274767 -0.149726 2.385304 172 164 162
0.273938 -0.147508 2.378107 170 162 160
0.272784 -0.145128 2.368090 169 161 159
0.272468 -0.143202 2.365342 167 158 160
0.272217 -0.141315 2.363161 167 158 161
0.272030 -0.139464 2.361541 166 156 160
0.271270 -0.137325 2.354945 164 153 157
0.270453 -0.135168 2.347853 161 151 153
0.269572 -0.131251 2.340200 162 156 154
0.271206 -0.130297 2.354384 164 160 157
0.271088 -0.128493 2.353365 155 153 150
0.271428 -0.126904 2.356313 124 123 121
0.271916 -0.125379 2.360553 67 68 69
0.272194 -0.123752 2.362963 16 18 22
0.272513 -0.122140 2.365734 0 2 9
0.272145 -0.120220 2.362540 2 5 16
0.271799 -0.118314 2.359532 3 6 21
0.271948 -0.116626 2.360831 1 3 21
0.274563 -0.115977 2.383533 0 6 24
0.275325 -0.114523 2.390148 3 13 31
0.275842 -0.112959 2.394629 14 25 41
0.276835 -0.111581 2.403250 25 36 51
0.275533 -0.109280 2.391948 28 41 51
0.276790 -0.107993 2.402859 25 39 46
0.276337 -0.106035 2.398926 21 36 42
0.276249 -0.104220 2.398170 21 37 41
0.278179 -0.103154 2.414921 18 35 38
0.278691 -0.101547 2.419362 16 33 36
0.279172 -0.099922 2.423540 15 32 36
0.278427 -0.097860 2.417074 14 31 35
0.276406 -0.095368 2.399530 13 30 33
0.274122 -0.092812 2.379704 11 28 30
0.271856 -0.090292 2.360027 9 26 29
0.272241 -0.088664 2.363376 9 25 29
0.265834 -0.072865 2.307752 0 2 14
0.268043 -0.070013 2.326928 0 2 14
0.268316 -0.068355 2.329298 0 1 14
0.268793 -0.066743 2.333438 0 1 14
0.267252 -0.064637 2.320061 1 2 14
0.266169 -0.062659 2.310657 0 2 14
0.274495 -0.052229 2.382936 0 0 7
0.274163 -0.048630 2.380058 0 0 6
0.274277 -0.046882 2.381049 0 1 5
0.274625 -0.045170 2.384070 0 1 4
0.274401 -0.043364 2.382127 0 1 3
0.274060 -0.041543 2.379165 0 1 2
0.268643 -0.038990 2.332140 0 1 1
0.268399 -0.028570 2.330021 1 1 3
0.262427 -0.024550 2.278175 1 1 1
0.259596 -0.022612 2.253595 0 1 1
0.325523 -0.022057 2.825921 0 1 3
0.307445 0.012869 2.668981 0 1 5
0.299569 0.018335 2.600610 0 1 5
0.298740 0.020210 2.593417 0 1 5
0.258674 0.049191 2.245596 0 1 6
0.256960 0.078689 2.230717 0 1 6
0.253469 0.090695 2.200406 0 1 6
0.254621 0.092749 2.210408 0 1 6
0.253856 0.094108 2.203766 0 1 6
0.257619 0.103808 2.236436 0 1 6
0.257061 0.105241 2.231595 0 1 6
0.256173 0.106530 2.223885 0 1 6
0.255390 0.107850 2.217083 0 1 6
0.256275 0.109877 2.224764 0 1 6
0.256889 0.111797 2.230099 0 1 6
0.245791 0.124400 2.133752 0 1 5
0.246206 0.127786 2.137354 0 1 6
0.246118 0.129327 2.136595 0 1 6
0.246326 0.131025 2.138397 0 1 6
0.245374 0.132100 2.130134 0 1 6
0.245356 0.133673 2.129977 0 1 6
0.245288 0.135217 2.129386 0 1 6
0.245510 0.136923 2.131320 0 1 6
0.245661 0.138591 2.132627 0 1 6
0.245518 0.140094 2.131384 0 1 6
0.265004 0.159756 2.300549 0 1 6
0.268699 0.174112 2.332623 0 1 6
0.268823 0.175926 2.333700 0 1 6
0.268892 0.177705 2.334299 0 1 6
0.269486 0.179835 2.339456 0 1 6
0.247378 0.181033 2.147530 0 2 0
0.357655 -0.702340 3.084972 188 179 187
0.351717 -0.686172 3.033752 186 180 187
3.345246 -6.440589 28.854605 186 181 187
3.335245 -6.399967 28.768343 186 180 187
1.544810 -2.944525 13.324842 187 179 187
0.261220 -0.476149 2.253169 189 179 187
0.261220 -0.474475 2.253169 189 179 187
0.261091 -0.472568 2.252056 189 179 187
0.261423 -0.471493 2.254915 189 179 187
0.261022 -0.469099 2.251463 188 179 187
0.260801 -0.467031 2.249557 187 179 187
0.730420 -1.303322 6.300277 187 180 187
0.205369 -0.363819 1.771424 186 181 187
0.205257 -0.362305 1.770460 186 181 187
0.410160 -0.692451 3.537861 187 180 187
0.412767 -0.694207 3.560342 186 180 187
0.413233 -0.692343 3.564361 186 181 187
0.413233 -0.689695 3.564361 186 181 187
0.408343 -0.678919 3.522187 186 181 187
0.409154 -0.677645 3.529178 186 181 187
0.408171 -0.673402 3.520702 186 181 187
0.361341 -0.577621 3.116765 186 181 187
0.365154 -0.579037 3.149654 186 181 187
0.363798 -0.574557 3.137963 186 181 186
0.361605 -0.568776 3.119043 186 181 185
0.361605 -0.566460 3.119043 186 181 185
0.362789 -0.565990 3.129257 186 181 183
0.362087 -0.562575 3.123202 186 182 183
0.344660 -0.531082 2.972883 186 182 183
0.495357 -0.671253 4.272726 189 179 187
0.495399 -0.668137 4.273095 189 179 187
0.494984 -0.664406 4.269513 189 179 187
0.495111 -0.661405 4.270612 189 179 187
0.494238 -0.657072 4.263079 189 179 187
0.494777 -0.641938 4.267726 189 180 184
0.497061 -0.641717 4.287428 189 180 183
3.558658 -4.548711 30.695408 189 180 183
3.945255 -4.967034 34.030022 189 180 183
3.915081 -4.903962 33.769749 189 179 184
0.279684 -0.341368 2.412430 189 179 187
0.322445 -0.379099 2.781269 185 180 186
0.321863 -0.376352 2.776246 185 180 186
0.280385 -0.322463 2.418477 185 179 185
0.265758 -0.295426 2.292315 188 178 185
0.289256 -0.314134 2.494993 186 181 185
0.277031 -0.290208 2.389544 167 162 163
0.269771 -0.272233 2.326928 173 164 167
0.270688 -0.271423 2.334832 174 165 168
0.272717 -0.271711 2.352335 177 168 171
0.272875 -0.270120 2.353696 176 169 171
0.287087 -0.280510 2.476282 176 174 175
0.285366 -0.277000 2.461443 178 176 177
0.282583 -0.272489 2.437439 183 182 182
0.281968 -0.270088 2.432130 186 187 187
0.276593 -0.263168 2.385772 179 182 181
0.273844 -0.258798 2.362055 164 167 166
0.280488 -0.257888 2.419362 136 137 140
0.283695 -0.259020 2.447025 131 131 136
0.284101 -0.257570 2.450529 130 131 135
