ply
format ascii 1.0
element vertex 1336
property float x
property float y
property float z
property uchar red
property uchar green
property uchar blue
end_header
0.262487 0.059486 1.930200 0 2 9
0.262660 0.060960 1.931476 0 2 9
0.262066 0.062254 1.927107 0 2 9
0.261976 0.063663 1.926446 0 2 9
0.261874 0.065069 1.925699 0 2 9
0.261658 0.066444 1.924108 0 2 9
0.261590 0.067856 1.923609 0 2 9
0.261685 0.069310 1.924305 0 2 9
0.261932 0.070806 1.926123 0 2 9
0.264260 0.072879 1.943240 0 2 9
0.265296 0.074614 1.950861 0 2 9
0.263969 0.075682 1.941102 0 2 9
0.262466 0.076685 1.930049 0 2 9
0.262291 0.078066 1.928763 0 2 9
0.261863 0.079369 1.925615 0 2 9
0.261609 0.080721 1.923745 0 2 9
0.259800 0.084420 1.910444 0 2 9
0.260149 0.085954 1.913009 0 2 9
0.260575 0.087518 1.916144 0 2 9
0.260212 0.088817 1.913471 0 2 9
0.260212 0.090239 1.913471 0 2 9
0.259950 0.091568 1.911545 0 2 9
0.260735 0.093268 1.917316 0 2 9
0.261098 0.094824 1.919989 0 2 9
0.262140 0.096635 1.927652 0 2 9
0.261795 0.097937 1.925112 0 2 9
0.261769 0.099357 1.924921 0 2 8
0.261293 0.100604 1.921424 0 2 7
0.261600 0.102151 1.923683 0 2 7
0.261664 0.103605 1.924148 0 2 7
0.262042 0.105186 1.926932 0 2 7
0.261500 0.106397 1.922948 0 2 7
0.261267 0.107729 1.921231 0 2 7
0.260555 0.108858 1.915993 0 2 7
0.260812 0.110391 1.917889 0 2 7
0.261069 0.111925 1.919773 0 2 8
0.261187 0.113403 1.920646 0 2 9
0.260862 0.114686 1.918257 0 2 9
0.260047 0.115748 1.912261 0 2 9
0.261103 0.117644 1.920025 0 2 9
0.260314 0.118711 1.914227 0 2 9
0.258201 0.119158 1.898688 0 2 9
0.258880 0.120885 1.903676 0 2 9
0.259105 0.122405 1.905333 0 2 8
0.259571 0.124043 1.908759 1 2 7
0.259983 0.125660 1.911793 1 2 7
0.260643 0.127403 1.916646 1 2 7
0.261394 0.129197 1.922166 1 2 7
0.260878 0.130367 1.918372 1 2 7
0.260425 0.131563 1.915040 1 2 7
0.260314 0.132929 1.914227 1 2 7
0.261021 0.134716 1.919420 1 2 7
0.261582 0.136434 1.923552 1 2 7
0.261743 0.137947 1.924729 1 2 7
0.261325 0.139155 1.921661 1 2 7
0.261368 0.140605 1.921975 1 2 7
0.260567 0.141597 1.916082 1 2 7
0.260556 0.143015 1.916003 1 2 7
0.260715 0.144526 1.917170 1 2 7
0.260288 0.145711 1.914035 1 2 7
0.260250 0.147111 1.913756 1 2 7
0.260373 0.148603 1.914657 1 2 7
0.260542 0.150122 1.915897 1 2 7
0.261480 0.152091 1.922795 1 2 7
0.260912 0.156036 1.918624 1 2 7
0.259198 0.156426 1.906016 1 2 7
0.259664 0.158126 1.909444 0 2 8
0.259553 0.159476 1.908631 0 3 10
0.257582 0.159672 1.894132 0 3 10
0.256828 0.160608 1.888591 0 3 10
0.252281 0.161898 1.855155 1 6 12
0.256140 0.171369 1.883528 0 3 10
0.255398 0.172268 1.878072 0 3 10
0.256002 0.174074 1.882514 0 3 10
0.256625 0.175899 1.887093 0 2 10
0.257373 0.177818 1.892599 0 2 10
0.257292 0.179167 1.892000 0 3 10
0.257658 0.180829 1.894696 1 7 13
0.257644 0.182226 1.894587 0 7 13
0.256854 0.183070 1.888778 0 6 12
0.256604 0.184294 1.886944 0 6 12
0.256410 0.185555 1.885514 1 6 12
0.256741 0.187197 1.887953 1 6 12
0.258750 0.190075 1.902721 1 6 12
0.257268 0.191797 1.891828 0 2 7
0.257475 0.206015 1.893350 1 2 7
0.255436 0.207174 1.878357 1 2 7
0.252530 0.206195 1.856982 1 2 7
0.251974 0.207118 1.852895 1 2 7
0.249308 0.207650 1.833293 1 2 7
0.445497 -0.741772 3.258172 201 193 191
0.310633 -0.515530 2.271836 201 193 191
0.255941 -0.421982 1.871843 201 193 191
0.255813 -0.420381 1.870907 201 193 191
0.257616 -0.421945 1.884094 201 193 191
0.257616 -0.420546 1.884094 201 193 191
0.257616 -0.419146 1.884094 201 193 191
0.380077 -0.616327 2.779720 201 193 190
0.381086 -0.615893 2.787097 201 193 190
0.387900 -0.622692 2.836935 201 193 190
0.422241 -0.673232 3.088093 201 193 190
0.377067 -0.599156 2.757705 201 193 190
0.279990 -0.437297 2.047728 201 193 190
0.280237 -0.436161 2.049536 201 193 190
3.909283 -6.041929 28.590822 201 193 190
3.884054 -5.981837 28.406309 201 193 190
1.738832 -2.659086 12.717075 201 193 190
1.757882 -2.678668 12.856394 201 193 191
1.743715 -2.647609 12.752786 201 193 191
1.722607 -2.606201 12.598413 201 193 191
1.724421 -2.599578 12.611679 201 193 191
1.718153 -2.580794 12.565832 201 193 191
1.726835 -2.584456 12.629333 201 193 191
1.714770 -2.557084 12.541096 201 193 191
0.255692 -0.378513 1.870023 201 193 191
0.280666 -0.407859 2.052670 201 193 191
0.281742 -0.407893 2.060544 201 193 191
0.282731 -0.407788 2.067771 201 193 191
0.244001 -0.343974 1.784517 201 193 191
0.378922 -0.521825 2.771270 201 193 190
0.380381 -0.521768 2.781941 201 193 190
0.334845 -0.424747 2.448915 201 193 191
0.333788 -0.421593 2.441184 201 193 191
0.294829 -0.345158 2.156256 201 193 191
0.318276 -0.355317 2.327732 201 193 190
0.317724 -0.352976 2.323700 201 193 190
0.316584 -0.349989 2.315357 201 193 190
0.315120 -0.341524 2.304656 201 193 190
0.314934 -0.339611 2.303293 201 193 190
0.312369 -0.328360 2.284532 201 193 190
0.312634 -0.326941 2.286472 201 193 190
0.312117 -0.324704 2.282689 201 193 190
0.312200 -0.323095 2.283294 201 193 190
0.312857 -0.311878 2.288102 198 190 187
0.313552 -0.310867 2.293182 197 189 186
0.311446 -0.305396 2.277783 196 188 185
0.313168 -0.291773 2.290375 181 173 171
0.315329 -0.290361 2.306183 180 172 170
0.316161 -0.289409 2.312263 178 170 168
0.315770 -0.285621 2.309406 167 159 157
0.310566 -0.272478 2.271346 158 150 147
0.312707 -0.272658 2.287004 164 156 153
0.312276 -0.270586 2.283852 161 151 149
0.313849 -0.270244 2.295354 154 144 142
0.313746 -0.268451 2.294603 150 141 138
0.314031 -0.266989 2.296692 149 142 139
0.312224 -0.263756 2.283469 146 141 137
0.313560 -0.263182 2.293241 144 139 136
0.313369 -0.261320 2.291850 147 144 141
0.314539 -0.260586 2.300403 151 150 146
0.316082 -0.260147 2.311688 157 155 151
0.316833 -0.259045 2.317183 163 159 156
0.316286 -0.256879 2.313182 166 162 159
0.316299 -0.255172 2.313279 168 164 161
0.316136 -0.253323 2.312085 168 163 160
0.315444 -0.251054 2.307021 168 161 158
0.317230 -0.250753 2.320085 171 163 160
0.316431 -0.248402 2.314244 176 168 165
0.315803 -0.246193 2.309646 177 169 166
0.315612 -0.244330 2.308254 175 167 164
0.318460 -0.243075 2.329078 162 154 151
0.318166 -0.241122 2.326928 137 129 126
0.316348 -0.238026 2.313635 107 99 96
0.310169 -0.230007 2.268446 150 142 139
0.312169 -0.229794 2.283072 180 172 169
0.315062 -0.228501 2.304230 150 142 139
0.317276 -0.224936 2.320420 159 151 148
0.317475 -0.223352 2.321875 165 157 154
0.318012 -0.222003 2.325803 173 165 163
0.318999 -0.220959 2.333020 181 173 170
0.319246 -0.219396 2.334832 186 178 174
0.319867 -0.218085 2.339373 190 183 178
0.315450 -0.213360 2.307068 194 186 183
0.314876 -0.211261 2.302872 195 189 188
0.314757 -0.207761 2.301996 185 190 189
0.317722 -0.207992 2.323679 104 115 110
0.316110 -0.162290 2.311896 9 16 28
0.312403 -0.153599 2.284782 19 34 50
0.313728 -0.152546 2.294471 23 40 56
0.309849 -0.148977 2.266104 27 45 60
0.309630 -0.147189 2.264504 29 48 63
0.307587 -0.144547 2.249557 29 49 64
0.305782 -0.142038 2.236356 27 49 63
0.307619 -0.141220 2.249792 27 49 63
0.306514 -0.139048 2.241715 28 50 64
0.303722 -0.136131 2.221293 31 53 67
0.304423 -0.134792 2.226422 33 55 69
0.303552 -0.132757 2.220051 33 55 69
0.301641 -0.127005 2.206074 29 52 66
0.302500 -0.125724 2.212352 27 50 64
0.304230 -0.124790 2.225010 26 47 60
0.306822 -0.124187 2.243965 26 45 58
0.296646 -0.113622 2.169544 15 32 40
0.298791 -0.112821 2.185233 12 26 35
0.298875 -0.111228 2.185841 6 21 29
0.302790 -0.111041 2.214477 0 15 23
0.302976 -0.109463 2.215837 0 10 16
0.302714 -0.107724 2.213921 0 5 7
0.303909 -0.106498 2.222661 0 4 7
0.301802 -0.104121 2.207253 0 4 7
0.301214 -0.102281 2.202951 0 4 7
0.301624 -0.100782 2.205949 0 4 7
0.299734 -0.098522 2.192126 0 3 6
0.304713 -0.093538 2.228544 0 1 5
0.293649 -0.086951 2.147623 0 1 5
0.305540 -0.087152 2.234589 0 1 5
0.304590 -0.085227 2.227639 0 1 5
0.305103 -0.078741 2.231392 1 1 9
0.305092 -0.077080 2.231309 1 1 9
0.288452 -0.063475 2.109616 0 4 10
0.287695 -0.053931 2.104080 0 11 25
0.286827 -0.052210 2.097729 0 15 28
0.286589 -0.050610 2.095993 0 16 29
0.290832 -0.049780 2.127024 0 15 28
0.289213 -0.035363 2.115180 1 1 4
0.290559 -0.032370 2.125027 1 1 1
0.294521 -0.026412 2.154004 0 0 0
0.283372 -0.020794 2.072461 0 0 0
0.284030 -0.019299 2.077273 0 0 0
0.282471 -0.017659 2.065873 0 0 0
0.282308 -0.016115 2.064681 0 0 2
0.281781 -0.013024 2.060822 1 0 5
0.268794 -0.009503 1.965846 0 0 7
0.262694 -0.007861 1.921231 0 0 6
0.268926 -0.003664 1.966810 0 3 8
0.280250 0.002271 2.049630 0 3 10
0.281593 0.003812 2.059450 0 3 10
0.282701 0.006898 2.067553 0 3 10
0.284133 0.008476 2.078030 0 3 10
0.268967 0.009485 1.967107 0 2 7
0.268662 0.010934 1.964882 1 2 7
0.268247 0.012374 1.961846 1 2 7
0.267147 0.015226 1.953796 1 2 7
0.266713 0.018099 1.950628 1 2 7
0.266503 0.019532 1.949086 1 2 7
0.266412 0.020973 1.948427 0 2 8
0.267027 0.022472 1.952920 0 2 9
0.266407 0.023867 1.948390 0 2 9
0.266424 0.025316 1.948513 0 2 9
0.266029 0.026723 1.945619 0 2 9
0.265551 0.028118 1.942124 0 2 9
0.265420 0.029546 1.941172 0 2 9
0.265472 0.030994 1.941549 0 2 9
0.265903 0.032488 1.944701 0 2 9
0.265736 0.033912 1.943477 0 2 9
0.265274 0.035294 1.940101 0 2 9
0.264861 0.036678 1.937083 0 2 9
0.265203 0.038166 1.939585 0 2 9
0.265441 0.039642 1.941325 0 2 9
0.265648 0.041116 1.942834 0 2 9
0.266313 0.042665 1.947702 0 2 9
0.266504 0.044144 1.949093 0 2 9
0.266546 0.045599 1.949400 0 2 9
0.266378 0.047017 1.948175 0 2 9
0.266918 0.048562 1.952127 0 2 9
0.266081 0.049855 1.946004 0 2 9
0.261138 0.054603 1.909850 0 2 9
0.261808 0.056166 1.914749 0 2 9
0.264026 0.058076 1.930974 0 2 9
0.264895 0.059706 1.937327 0 2 9
0.264377 0.061026 1.933541 0 2 9
0.264020 0.062377 1.930929 0 2 9
0.262936 0.063550 1.923000 0 2 9
0.262596 0.064894 1.920514 0 2 9
0.261831 0.066127 1.914919 0 2 9
0.261424 0.067445 1.911945 0 2 9
0.261689 0.068935 1.913884 0 2 9
0.265600 0.071408 1.942484 0 2 9
0.265518 0.072828 1.941885 0 2 9
0.266407 0.074519 1.948390 0 2 9
0.266127 0.075886 1.946336 0 2 9
0.263497 0.076568 1.927107 0 2 9
0.263181 0.077906 1.924795 0 2 9
0.258121 0.080614 1.887790 0 2 9
0.260163 0.082665 1.902721 0 2 9
0.260281 0.084117 1.903581 0 2 9
0.260689 0.085665 1.906569 0 2 9
0.260943 0.087166 1.908423 0 2 9
0.261185 0.088665 1.910195 0 1 9
0.260713 0.089921 1.906742 0 1 9
0.260506 0.091265 1.905232 0 1 8
0.261133 0.092903 1.909817 0 2 7
0.261969 0.094624 1.915926 0 2 7
0.262833 0.096364 1.922245 0 2 7
0.262763 0.097766 1.921737 0 2 7
0.262665 0.099156 1.921018 0 2 7
0.262401 0.100482 1.919087 0 2 6
0.262665 0.102010 1.921018 0 2 6
0.262986 0.103563 1.923370 0 2 5
0.263332 0.105130 1.925900 0 2 4
0.262618 0.106271 1.920673 0 2 4
0.260864 0.106979 1.907851 0 2 3
0.260575 0.108276 1.905735 0 2 4
0.261701 0.110165 1.913966 0 2 4
0.260851 0.114058 1.907750 0 2 9
0.261736 0.115867 1.914227 0 2 9
0.261936 0.117379 1.915690 0 2 9
0.259752 0.117811 1.899716 0 2 9
0.258890 0.118826 1.893412 0 2 9
0.259431 0.120484 1.897371 0 2 9
0.259498 0.121925 1.897856 0 2 8
0.259882 0.123517 1.900664 0 2 7
0.261151 0.125539 1.909945 0 2 7
0.261582 0.127167 1.913096 0 2 7
0.262295 0.128939 1.918316 0 2 7
0.261611 0.130023 1.913314 0 2 7
0.260662 0.130968 1.906371 0 2 7
0.260782 0.132444 1.907246 0 2 7
0.261300 0.134127 1.911034 0 2 7
0.262889 0.136371 1.922658 0 2 7
0.262541 0.137617 1.920116 0 2 7
0.261924 0.138716 1.915599 1 2 7
0.261750 0.140046 1.914329 1 2 7
0.261383 0.141269 1.911645 1 2 7
0.261024 0.142493 1.909019 1 2 7
0.261403 0.144120 1.911793 1 2 7
0.261252 0.145456 1.910689 1 2 7
0.261138 0.146811 1.909850 1 2 7
0.261102 0.148209 1.909586 1 2 7
0.261866 0.150065 1.915175 1 2 7
0.261836 0.151471 1.914958 1 2 7
0.262137 0.155917 1.917156 1 2 7
0.260152 0.156149 1.902640 0 2 7
0.260354 0.157685 1.904117 0 2 8
0.260152 0.158976 1.902640 0 3 10
0.259150 0.159771 1.895311 0 3 10
0.257886 0.160393 1.886068 0 3 10
0.253239 0.161630 1.852080 0 5 11
0.253038 0.162876 1.850615 1 6 12
0.257792 0.171538 1.885382 0 3 10
0.257040 0.172433 1.879878 0 3 10
0.257659 0.174249 1.884410 0 3 10
0.257869 0.175792 1.885946 0 2 10
0.258509 0.177632 1.890625 1 2 10
0.258760 0.179210 1.892462 0 3 10
0.258650 0.180539 1.891658 1 7 13
0.258446 0.181801 1.890163 0 7 13
0.257832 0.182770 1.885676 0 7 13
0.258384 0.184564 1.889709 0 7 13
0.258309 0.185914 1.889164 0 7 13
0.258392 0.187377 1.889767 0 7 13
0.258758 0.189048 1.892446 1 7 13
0.259065 0.192087 1.894689 0 3 7
0.258880 0.193356 1.893337 0 2 7
0.256245 0.201132 1.874065 1 1 7
0.258398 0.205629 1.889810 1 2 7
0.255979 0.206486 1.872120 1 2 7
0.254012 0.206279 1.857738 1 2 7
0.252185 0.206165 1.844372 1 2 7
0.252784 0.208028 1.848753 1 2 7
0.251799 0.208585 1.841548 1 2 7
0.251148 0.209410 1.836789 1 2 7
0.253301 0.212582 1.852538 1 2 7
0.447917 -0.741772 3.258172 201 193 191
0.312320 -0.515530 2.271836 201 193 191
0.257331 -0.421982 1.871843 201 193 191
0.257203 -0.420381 1.870907 201 193 191
0.259016 -0.421945 1.884094 201 193 191
0.259016 -0.420546 1.884094 201 193 191
0.259016 -0.419146 1.884094 201 193 191
0.382750 -0.615241 2.784148 201 193 190
0.384059 -0.615270 2.793670 201 193 190
0.389446 -0.621796 2.832856 201 193 190
0.418632 -0.666132 3.045152 201 193 190
0.422048 -0.669288 3.070003 201 193 190
0.378563 -0.598283 2.753687 201 193 190
0.281760 -0.436161 2.049536 201 193 190
0.281918 -0.434883 2.050688 201 193 190
3.930519 -6.041929 28.590822 201 193 190
3.909839 -5.989015 28.440397 201 193 190
1.749511 -2.660962 12.726045 201 193 190
1.757899 -2.664221 12.787055 201 193 191
1.764217 -2.664265 12.833014 201 193 191
1.736570 -2.613130 12.631907 201 193 191
1.730933 -2.595297 12.590907 201 193 191
1.721048 -2.571176 12.519001 201 193 191
1.734222 -2.581487 12.614827 201 193 191
1.719998 -2.551021 12.511361 201 193 191
0.257331 -0.378881 1.871843 201 193 191
0.281233 -0.406476 2.045708 201 193 191
0.282263 -0.406440 2.053201 201 193 191
0.283585 -0.406810 2.062810 201 193 191
0.244088 -0.342238 1.775512 201 193 191
0.378001 -0.519787 2.749600 201 193 190
0.378161 -0.517965 2.750768 201 193 190
0.378941 -0.516986 2.756441 201 193 190
0.336138 -0.424083 2.445086 201 193 191
0.335688 -0.421701 2.441813 201 193 191
0.320190 -0.386662 2.329078 201 193 191
0.315900 -0.347346 2.297875 201 193 190
0.313500 -0.337931 2.280414 201 193 190
0.313368 -0.336096 2.279454 201 193 190
0.315013 -0.329351 2.291422 201 193 190
0.314041 -0.326638 2.284353 201 193 190
0.314523 -0.325440 2.287862 201 193 190
0.314585 -0.323805 2.288311 201 193 190
0.314310 -0.309936 2.286312 197 189 186
0.315590 -0.309493 2.295620 197 189 186
0.315470 -0.287217 2.294744 183 175 173
0.316548 -0.284778 2.302588 180 172 170
0.313081 -0.271509 2.277366 161 153 150
0.317828 -0.273909 2.311896 163 154 151
0.313873 -0.268804 2.283130 158 148 146
0.313081 -0.266434 2.277366 149 140 137
0.314760 -0.266163 2.289582 140 133 130
0.316464 -0.265894 2.301978 141 135 132
0.316004 -0.263800 2.298628 146 141 138
0.313870 -0.260323 2.283106 148 145 142
0.316130 -0.260489 2.299549 151 150 146
0.316831 -0.259355 2.304650 157 155 151
0.316944 -0.257735 2.305472 163 159 156
0.317544 -0.256508 2.309837 166 162 159
0.318121 -0.255255 2.314029 169 164 161
0.317121 -0.252739 2.306757 169 164 161
0.318508 -0.252123 2.316844 168 161 158
0.317696 -0.249764 2.310940 170 162 159
0.317081 -0.247567 2.306463 173 165 162
0.317190 -0.245939 2.307257 171 163 160
0.317167 -0.244207 2.307089 170 162 159
0.319276 -0.244107 2.322435 174 166 163
0.318610 -0.241876 2.317588 166 158 155
0.319533 -0.240850 2.324305 146 138 135
0.316725 -0.237022 2.303873 125 117 114
0.314612 -0.233741 2.288507 113 105 102
0.317184 -0.230511 2.307215 168 160 157
0.315771 -0.227778 2.296935 159 151 148
0.316926 -0.226899 2.305339 169 161 158
0.316571 -0.224934 2.302755 164 156 153
0.317312 -0.223746 2.308146 178 170 167
0.319034 -0.221513 2.320675 187 179 176
0.320592 -0.220862 2.332003 189 181 178
0.319828 -0.218608 2.326446 190 183 177
0.316175 -0.212695 2.299879 193 185 182
0.315735 -0.210693 2.296672 193 186 186
0.316002 -0.209163 2.298614 207 206 206
0.315229 -0.206949 2.292995 173 178 178
0.321578 -0.198954 2.339175 31 46 59
0.315574 -0.191830 2.295506 29 45 58
0.313783 -0.185655 2.282473 27 43 56
0.308409 -0.167479 2.243387 12 24 23
0.306722 -0.164905 2.231112 2 11 10
0.309564 -0.156398 2.251787 13 23 35
0.312232 -0.154372 2.271197 17 32 45
0.314041 -0.153570 2.284353 19 36 50
0.314317 -0.152006 2.286356 23 41 56
0.307835 -0.147209 2.239211 27 46 61
0.309423 -0.146296 2.250762 29 49 64
0.308793 -0.144330 2.246180 29 50 64
0.308784 -0.142657 2.246111 28 50 64
0.308640 -0.140923 2.245062 28 50 64
0.305843 -0.136341 2.224716 31 53 67
0.305072 -0.134349 2.219115 33 55 69
0.305233 -0.132771 2.220286 33 55 69
0.302159 -0.126536 2.197924 30 53 67
0.301768 -0.124742 2.195080 28 51 64
0.303179 -0.123687 2.205342 26 48 61
0.305713 -0.123069 2.223772 25 46 57
0.304155 -0.120799 2.212441 24 43 53
0.301438 -0.118091 2.192679 22 40 49
0.297288 -0.113253 2.162488 17 33 41
0.300144 -0.112719 2.183268 14 28 37
0.300048 -0.111062 2.182569 8 23 31
0.302019 -0.110160 2.196905 1 18 25
0.303318 -0.108995 2.206353 0 12 18
0.303553 -0.107439 2.208059 0 6 9
0.304818 -0.106240 2.217261 0 5 8
0.303165 -0.104026 2.205238 0 4 7
0.302696 -0.102229 2.201830 0 4 7
0.302052 -0.100380 2.197142 0 3 7
0.301870 -0.098688 2.195820 0 3 6
0.304612 -0.094647 2.215765 0 1 5
0.305592 -0.093301 2.222896 0 1 5
0.305721 -0.091688 2.223835 0 1 5
0.307121 -0.088789 2.234013 0 1 5
0.308100 -0.087408 2.241137 0 1 5
0.304659 -0.084786 2.216109 0 1 5
0.299772 -0.080186 2.180560 0 2 9
0.306499 -0.078674 2.229493 1 1 9
0.305725 -0.076823 2.223861 1 1 9
0.287149 -0.064398 2.088735 0 4 10
0.288809 -0.063210 2.100810 0 4 11
0.288814 -0.061651 2.100849 0 6 14
0.289218 -0.053924 2.103790 0 11 25
0.288947 -0.052312 2.101820 0 15 28
0.288958 -0.050753 2.101895 0 16 29
0.290221 -0.049407 2.111083 0 15 28
0.300530 -0.043043 2.186069 0 7 15
0.290692 -0.033781 2.114511 2 2 2
0.291553 -0.032306 2.120774 1 1 1
0.290692 -0.030640 2.114511 0 1 2
0.292171 -0.029217 2.125270 0 1 3
0.292984 -0.026132 2.131179 0 0 0
0.284386 -0.019219 2.068640 0 0 0
0.283332 -0.017617 2.060974 0 0 0
0.280883 -0.014430 2.043161 0 0 4
0.281323 -0.012932 2.046360 1 0 5
0.281623 -0.011425 2.048539 0 0 7
0.271869 -0.009560 1.977588 0 0 7
0.279568 -0.002278 2.033592 0 2 9
0.280667 0.002262 2.041585 0 2 9
0.281683 0.003792 2.048975 0 2 9
0.280667 0.005295 2.041585 0 2 9
0.283503 0.006880 2.062217 0 2 9
0.284615 0.008445 2.070307 0 2 9
0.275130 0.014110 2.001309 1 2 7
0.274464 0.015558 1.996469 1 2 7
0.273683 0.016993 1.990785 1 2 7
0.273860 0.018483 1.992077 1 2 7
0.273456 0.019934 1.989138 1 2 7
0.273626 0.022903 1.990368 0 2 9
0.273866 0.024402 1.992114 0 2 9
0.266459 0.028062 1.938241 0 2 9
0.266349 0.029489 1.937435 0 2 9
0.266208 0.030912 1.936414 0 2 9
0.267176 0.032468 1.943454 0 2 9
0.267334 0.033931 1.944602 0 2 9
0.266559 0.035273 1.938968 0 2 9
0.265837 0.036614 1.933716 0 2 9
0.265714 0.038032 1.932815 0 2 9
0.265971 0.039506 1.934689 0 2 9
0.266508 0.041026 1.938592 0 2 9
0.266626 0.042485 1.939452 0 2 9
0.266307 0.043873 1.937134 0 2 9
0.266123 0.045280 1.935791 0 2 9
0.266530 0.046790 1.938755 0 2 9
0.267304 0.048370 1.944382 0 2 9
0.262057 0.053084 1.906219 0 2 9
0.262366 0.054564 1.908466 0 2 9
0.263782 0.056284 1.918764 0 2 9
0.264582 0.057884 1.924585 0 2 9
0.264911 0.059387 1.926977 0 2 9
0.264980 0.060834 1.927478 0 2 9
0.264875 0.062241 1.926716 0 2 9
0.264643 0.063617 1.925030 0 2 9
0.263396 0.064740 1.915960 0 2 9
0.269918 0.070718 1.963402 0 2 9
0.267068 0.072857 1.942669 0 2 9
0.267686 0.074472 1.947161 0 2 9
0.267068 0.075743 1.942669 0 2 9
0.270541 0.081113 1.967928 0 2 9
0.270825 0.082662 1.969993 0 2 9
0.260259 0.082249 1.893138 0 2 9
0.261783 0.088388 1.904227 0 1 9
0.261429 0.091094 1.901646 1 1 8
0.261947 0.092689 1.905418 1 2 7
0.262857 0.094432 1.912036 1 2 7
0.264482 0.096445 1.923859 1 2 7
0.264375 0.097834 1.923079 1 2 6
0.264294 0.099232 1.922487 1 2 6
0.264464 0.102153 1.923725 1 2 4
0.264688 0.103670 1.925357 1 2 4
0.265170 0.105292 1.928861 1 2 2
0.264167 0.106321 1.921566 0 2 2
0.262050 0.116795 1.906167 0 2 9
0.260068 0.117317 1.891749 0 2 9
0.259473 0.118450 1.887420 0 2 9
0.259757 0.119983 1.889485 0 2 9
0.259687 0.121354 1.888976 0 2 9
0.261831 0.123771 1.904575 0 2 9
0.262631 0.125568 1.910392 0 2 9
0.262754 0.127046 1.911287 0 2 9
0.263785 0.128970 1.918785 0 2 9
0.262585 0.129802 1.910058 0 2 9
0.260783 0.130321 1.896950 0 2 9
0.261163 0.131922 1.899716 0 2 9
0.263881 0.134720 1.919486 0 2 9
0.264505 0.136468 1.924025 0 2 9
0.264652 0.137974 1.925096 0 2 8
0.263536 0.138815 1.916972 0 2 8
0.262770 0.139832 1.911401 0 2 8
0.262406 0.141056 1.908759 0 2 8
0.262719 0.142644 1.911034 0 2 8
0.262503 0.143944 1.909459 0 2 8
0.262520 0.145372 1.909586 0 2 8
0.262797 0.146946 1.911603 0 2 8
0.262435 0.148161 1.908971 0 2 8
0.262447 0.149586 1.909053 0 2 8
0.269556 0.158007 1.960764 0 2 8
0.263333 0.155782 1.915499 0 2 8
0.261576 0.156156 1.902721 0 2 8
0.262046 0.157852 1.906138 0 2 8
0.261367 0.158855 1.901197 0 2 9
0.260162 0.159528 1.892431 0 2 9
0.258712 0.160037 1.881883 0 2 9
0.255119 0.161950 1.855754 0 4 10
0.252522 0.161666 1.836861 0 4 11
0.252826 0.165958 1.839071 0 3 10
0.258089 0.170807 1.877352 0 3 10
0.258860 0.172717 1.882966 0 3 10
0.258521 0.173887 1.880499 0 3 10
0.259233 0.175767 1.885676 0 3 10
0.259881 0.177610 1.890386 0 3 10
0.259770 0.178938 1.889585 0 4 10
0.259817 0.180374 1.889922 0 7 13
0.259622 0.181641 1.888507 0 7 13
0.259048 0.182639 1.884332 0 7 13
0.260426 0.185018 1.894351 0 7 13
0.260669 0.186599 1.896122 0 7 13
0.260678 0.188014 1.896186 0 7 13
0.259757 0.188753 1.889485 0 7 13
0.260392 0.192028 1.894107 0 3 7
0.257137 0.202132 1.870433 0 2 6
0.258982 0.204981 1.883848 0 2 6
0.255593 0.205060 1.859196 1 2 6
0.254204 0.205320 1.849097 1 2 6
0.253437 0.206069 1.843512 1 2 6
0.252724 0.206855 1.838332 1 2 6
0.257103 0.215995 1.870180 1 2 6
0.450337 -0.741772 3.258172 201 193 191
0.314008 -0.515530 2.271836 201 193 191
0.258722 -0.421982 1.871843 201 193 191
0.258592 -0.420381 1.870907 201 193 191
0.260415 -0.421945 1.884094 201 193 191
0.260415 -0.420546 1.884094 201 193 191
0.260415 -0.419146 1.884094 201 193 191
0.384206 -0.614263 2.779720 201 193 190
0.418950 -0.663056 3.031091 201 193 190
0.420583 -0.663381 3.042906 201 193 190
0.283282 -0.436161 2.049536 201 193 190
3.940947 -6.025403 28.512623 201 193 190
3.930964 -5.989015 28.440397 201 193 190
1.767870 -2.674435 12.790482 201 193 190
1.766361 -2.662660 12.779563 201 193 191
1.758010 -2.640624 12.719144 201 193 191
1.746644 -2.614166 12.636915 201 193 191
1.740896 -2.596208 12.595328 201 193 191
1.731589 -2.573023 12.527993 201 193 191
1.739032 -2.574737 12.581840 201 193 191
1.726075 -2.546278 12.488096 201 193 191
1.727572 -2.492784 12.498930 201 193 191
0.283024 -0.405344 2.047667 201 193 191
0.284000 -0.405216 2.054730 201 193 191
0.377384 -0.516150 2.730360 201 193 190
0.374883 -0.506685 2.712265 201 193 190
0.288717 -0.373158 2.088856 201 193 191
0.338254 -0.424459 2.447254 201 193 191
0.338024 -0.422354 2.445596 201 193 191
0.310609 -0.376415 2.247243 201 193 191
0.304399 -0.359074 2.202314 201 193 191
0.312188 -0.334710 2.258673 201 193 190
0.314247 -0.326785 2.273568 201 193 190
0.314209 -0.325056 2.273288 201 193 190
0.314311 -0.323473 2.274033 201 193 190
0.314462 -0.321938 2.275119 201 193 190
0.313828 -0.317917 2.270539 201 193 190
0.314103 -0.309755 2.272526 198 190 187
0.314293 -0.308254 2.273901 197 189 186
0.315277 -0.307524 2.281020 197 189 186
0.315111 -0.305669 2.279816 195 187 184
0.315369 -0.302530 2.281686 194 186 183
0.315565 -0.295935 2.283106 188 180 177
0.314375 -0.286372 2.274495 180 172 170
0.312366 -0.282863 2.259958 186 178 176
0.314049 -0.282699 2.272134 189 181 179
0.315220 -0.282059 2.280605 187 179 177
0.312524 -0.272929 2.261099 159 151 148
0.315729 -0.274031 2.284286 159 151 148
0.314375 -0.271167 2.274495 164 156 153
0.316982 -0.271712 2.293353 169 160 158
0.318582 -0.271371 2.304927 167 157 155
0.316932 -0.266560 2.292995 140 133 130
0.317213 -0.265091 2.295027 137 132 128
0.317337 -0.263489 2.295923 140 136 133
0.316303 -0.260931 2.288439 141 139 135
0.316406 -0.259316 2.289186 144 143 139
0.316242 -0.257482 2.287999 151 149 145
0.316849 -0.256273 2.292390 159 155 152
0.318389 -0.255808 2.303534 165 161 158
0.319175 -0.254724 2.309219 170 166 163
0.318919 -0.252806 2.307371 174 168 165
0.318179 -0.250510 2.302016 175 168 164
0.318974 -0.249421 2.307765 175 167 164
0.318921 -0.247666 2.307382 174 166 163
0.318176 -0.245378 2.301996 169 161 158
0.318894 -0.244218 2.307190 167 159 156
0.319387 -0.242879 2.310753 174 166 163
0.319167 -0.240996 2.309161 170 162 159
0.319877 -0.239813 2.314297 156 148 145
0.323217 -0.235370 2.338463 184 176 173
0.316735 -0.225543 2.291565 180 172 169
0.318777 -0.225284 2.306344 180 172 169
0.322200 -0.220777 2.331106 196 188 185
0.321683 -0.218695 2.327368 195 188 182
0.317878 -0.212691 2.299834 195 187 184
0.317677 -0.210850 2.298386 194 189 187
0.318639 -0.208063 2.305339 156 161 161
0.322762 -0.209021 2.335174 66 78 75
0.324650 -0.208499 2.348835 11 27 23
0.324419 -0.206607 2.347160 16 35 31
0.322715 -0.202054 2.334832 29 45 52
0.321754 -0.199723 2.327881 34 48 60
0.321205 -0.197656 2.323911 32 48 61
0.308056 -0.174665 2.228772 21 40 47
0.307211 -0.172535 2.222661 20 39 44
0.311078 -0.173035 2.250638 18 37 40
0.308324 -0.164876 2.230717 2 11 11
0.308394 -0.163256 2.231218 0 5 9
0.308579 -0.160038 2.232562 4 9 19
0.310718 -0.159477 2.248033 7 13 24
0.311102 -0.158002 2.250814 10 18 29
0.314772 -0.154792 2.277366 17 32 45
0.314877 -0.153151 2.278127 20 37 51
0.314008 -0.151041 2.271836 24 42 57
0.309942 -0.147420 2.242422 27 46 61
0.309945 -0.145755 2.242443 29 50 64
0.310452 -0.144325 2.246111 29 51 65
0.309170 -0.142068 2.236832 28 50 64
0.309418 -0.140519 2.238630 28 50 64
0.309857 -0.139053 2.241802 30 52 66
0.306537 -0.135916 2.217788 32 54 68
0.307396 -0.134645 2.224003 34 56 70
0.307124 -0.132875 2.222029 34 56 70
0.305431 -0.128860 2.209783 33 55 69
0.304399 -0.126789 2.202314 31 54 68
0.301774 -0.124074 2.183326 28 51 65
0.302369 -0.122694 2.187628 27 49 62
0.303922 -0.121691 2.198863 27 46 59
0.302736 -0.119589 2.190284 26 44 55
0.299464 -0.113469 2.166613 19 35 43
0.301766 -0.112719 2.183268 16 30 39
0.301355 -0.110946 2.180295 10 25 34
0.302205 -0.109635 2.186445 3 20 28
0.304065 -0.108676 2.199897 1 14 21
0.306158 -0.107779 2.215046 0 7 12
0.304720 -0.105635 2.204643 0 6 9
0.305447 -0.104245 2.209900 0 5 9
0.304065 -0.102140 2.199897 0 4 8
0.300764 -0.099415 2.176019 0 3 8
0.302416 -0.098336 2.187970 0 2 7
0.304213 -0.097285 2.200971 0 2 7
0.301522 -0.093184 2.181503 0 1 6
0.306080 -0.092947 2.214477 0 1 6
0.307075 -0.091599 2.221676 0 1 6
0.306224 -0.089700 2.215519 0 1 6
0.307263 -0.088353 2.223034 0 1 5
0.307390 -0.086738 2.223958 0 1 5
0.304287 -0.084227 2.201508 0 1 5
0.298292 -0.080965 2.158132 0 1 6
0.299070 -0.079569 2.163761 0 2 9
0.307108 -0.080057 2.221915 0 1 9
0.307231 -0.078438 2.222808 0 1 9
0.304925 -0.076210 2.206122 0 1 9
0.302117 -0.073885 2.185806 0 1 9
0.288418 -0.062785 2.086694 0 5 11
0.290060 -0.053790 2.098574 0 12 25
0.289673 -0.052162 2.095773 0 15 28
0.289339 -0.050547 2.093356 0 16 29
0.292965 -0.049606 2.119594 0 15 28
0.301820 -0.044617 2.183657 0 9 19
0.299156 -0.042616 2.164385 0 7 16
0.287822 -0.037908 2.082381 0 2 7
0.285350 -0.036049 2.064496 0 2 6
0.293128 -0.033881 2.120774 1 2 3
0.292729 -0.032262 2.117883 0 1 2
0.292956 -0.029138 2.119528 0 1 3
0.294769 -0.022982 2.132648 0 0 0
0.286027 -0.019226 2.069396 0 0 0
0.280010 -0.014308 2.025867 0 0 4
0.285135 -0.013037 2.062943 1 0 5
0.283888 -0.011455 2.053920 0 0 6
0.271985 -0.009513 1.967804 0 0 7
0.274429 -0.008123 1.985487 0 0 6
0.282794 -0.003812 2.046005 0 3 8
0.280517 0.002249 2.029529 0 2 9
0.282117 0.003778 2.041107 0 2 9
0.286089 0.006906 2.069842 0 2 9
0.286706 0.008461 2.074306 0 2 9
0.273998 0.012504 1.982368 1 2 7
0.275253 0.014040 1.991449 1 2 7
0.274783 0.016969 1.988047 1 2 7
0.274250 0.018410 1.984192 1 2 7
0.273851 0.019855 1.981300 1 2 7
0.274401 0.021370 1.985281 0 2 8
0.274297 0.022836 1.984531 0 2 9
0.273232 0.024215 1.976822 0 2 9
0.271371 0.025509 1.963363 0 2 9
0.269583 0.026789 1.950423 0 2 9
0.268751 0.028151 1.944406 0 2 9
0.268590 0.029577 1.943240 0 2 9
0.269334 0.031107 1.948623 0 2 9
0.269831 0.032614 1.952220 0 2 9
0.269658 0.034042 1.950965 0 2 9
0.269035 0.035409 1.946463 0 2 9
0.268037 0.036718 1.939242 0 2 9
0.268055 0.038161 1.939372 0 2 9
0.268562 0.039677 1.943038 0 2 9
0.268742 0.041148 1.944337 0 2 9
0.268596 0.042569 1.943281 0 2 9
0.268985 0.044076 1.946098 0 2 9
0.269532 0.045614 1.950054 0 2 9
0.269881 0.047123 1.952580 0 2 9
0.270962 0.048768 1.960399 0 2 9
0.272026 0.050421 1.968097 0 2 9
0.266147 0.056483 1.925565 0 2 9
0.266321 0.057951 1.926827 0 2 9
0.266391 0.059398 1.927333 0 2 9
0.266734 0.060908 1.929813 0 2 9
0.266847 0.062368 1.930627 0 2 9
0.267462 0.063949 1.935079 0 2 9
0.268033 0.065526 1.939210 0 2 9
0.268165 0.066999 1.940162 0 2 9
0.269150 0.070138 1.947288 0 2 9
0.268920 0.071523 1.945626 0 2 9
0.268569 0.072873 1.943087 0 2 9
0.268434 0.074279 1.942109 0 2 9
0.268331 0.075692 1.941368 0 2 9
0.268883 0.077293 1.945362 0 2 9
0.269980 0.079059 1.953295 0 2 9
0.270844 0.080768 1.959547 0 2 9
0.271164 0.082320 1.961861 0 2 9
0.268620 0.082991 1.943454 0 2 9
0.266459 0.086620 1.927820 0 2 9
0.265971 0.087890 1.924292 0 2 9
0.266269 0.089420 1.926446 0 1 9
0.266012 0.090763 1.924585 1 1 9
0.266309 0.092295 1.926737 1 1 8
0.266218 0.093695 1.926079 1 2 7
0.266393 0.095188 1.927345 1 2 7
0.266955 0.096823 1.931409 1 2 7
0.267028 0.098284 1.931936 1 2 6
0.267073 0.099736 1.932267 1 2 6
0.266809 0.101072 1.930355 1 2 5
0.267107 0.102620 1.932507 1 2 4
0.267453 0.104190 1.935013 1 2 3
0.267816 0.105771 1.937642 1 3 2
0.267776 0.107194 1.937350 0 3 1
0.267388 0.108476 1.934546 0 3 1
0.265664 0.109204 1.922068 0 3 1
0.265732 0.112088 1.922565 0 2 3
0.266344 0.113777 1.926990 0 2 7
0.266599 0.115319 1.928836 0 2 9
0.265955 0.116469 1.924175 0 2 9
0.265745 0.117806 1.922658 0 2 9
0.267002 0.125537 1.931750 0 2 9
0.266788 0.126870 1.930200 0 2 9
0.266052 0.127950 1.924874 0 2 9
0.266464 0.129580 1.927859 0 2 9
0.266862 0.131208 1.930739 0 2 9
0.266853 0.132637 1.930676 0 2 9
0.267388 0.134340 1.934546 0 2 9
0.267339 0.135752 1.934190 0 2 9
0.267992 0.137524 1.938911 0 2 9
0.267905 0.138919 1.938287 0 2 9
0.267360 0.140073 1.934338 0 2 9
0.267942 0.141818 1.938554 0 2 9
0.267905 0.143238 1.938287 0 2 9
0.268210 0.144842 1.940489 0 2 9
0.268294 0.146330 1.941102 0 2 9
0.268078 0.147652 1.939537 0 2 9
0.267733 0.148901 1.937038 0 2 9
0.266299 0.149535 1.926666 0 2 9
0.266360 0.151000 1.927107 0 2 9
0.268117 0.154878 1.939821 0 2 9
0.268945 0.156802 1.945811 0 2 9
0.267051 0.157133 1.932108 0 2 9
0.264220 0.156886 1.911620 0 2 9
0.263987 0.158167 1.909936 0 2 9
0.263524 0.159306 1.906586 0 2 9
0.262243 0.159940 1.897319 0 2 9
0.261439 0.160855 1.891501 0 2 9
0.255983 0.161625 1.852027 0 2 9
0.252327 0.162029 1.825578 0 2 9
0.251762 0.163019 1.821488 0 3 10
0.252327 0.164741 1.825578 0 4 11
0.260916 0.171750 1.887718 0 5 11
0.259622 0.172294 1.878357 0 5 11
0.260294 0.174139 1.883217 0 6 12
0.261238 0.176174 1.890050 0 7 13
0.261763 0.177935 1.893849 0 7 13
0.261289 0.179017 1.890419 0 8 14
0.261427 0.180516 1.891415 0 9 14
0.261294 0.181828 1.890450 0 9 14
0.261306 0.183241 1.890540 0 9 14
0.261732 0.184947 1.893625 0 8 13
0.262659 0.187013 1.900326 0 8 13
0.262123 0.188040 1.896449 0 7 12
0.262257 0.189545 1.897421 0 7 11
0.264244 0.196661 1.911793 0 2 7
0.263482 0.197510 1.906284 0 2 7
0.259460 0.204256 1.877184 0 3 6
0.255440 0.203836 1.848101 0 2 6
0.255031 0.204881 1.845144 0 2 5
0.254223 0.205598 1.839296 0 2 5
0.254676 0.207333 1.842574 1 2 5
0.254437 0.208505 1.840844 1 2 5
0.452757 -0.741772 3.258172 201 193 191
0.315695 -0.515530 2.271836 201 193 191
0.260112 -0.421982 1.871843 201 193 191
0.259982 -0.420381 1.870907 201 193 191
0.261814 -0.421945 1.884094 201 193 191
0.261814 -0.420546 1.884094 201 193 191
0.261814 -0.419146 1.884094 201 193 191
0.417685 -0.657520 3.005782 201 193 190
0.419473 -0.658093 3.018650 201 193 190
0.387094 -0.603157 2.785645 201 193 190
0.284804 -0.436161 2.049536 201 193 190
3.962126 -6.025403 28.512623 201 193 190
3.936677 -5.965660 28.329485 201 193 190
1.781644 -2.680866 12.821235 201 193 190
1.774675 -2.660893 12.771082 201 193 191
1.758670 -2.627496 12.655910 201 193 191
1.745552 -2.598567 12.561506 201 193 191
1.755463 -2.603938 12.632831 201 193 191
1.743971 -2.577569 12.550130 201 193 191
1.748682 -2.575186 12.584034 201 193 191
1.730524 -2.539196 12.453363 201 193 191
1.753250 -2.544427 12.616907 201 193 191
1.733343 -2.487741 12.473649 201 193 191
0.284182 -0.404827 2.045056 201 193 191
0.284585 -0.403881 2.047957 201 193 191
0.284804 -0.402670 2.049536 201 193 191
0.375658 -0.509035 2.703342 201 193 190
0.375925 -0.507388 2.705269 201 193 190
0.290316 -0.374771 2.089201 201 193 191
0.340765 -0.425324 2.452243 201 193 191
0.339539 -0.421980 2.443426 201 193 191
0.311616 -0.375617 2.242478 201 193 191
0.313864 -0.319609 2.258658 201 193 190
0.313845 -0.306169 2.258520 197 189 186
0.316618 -0.298719 2.278475 191 183 180
0.316105 -0.294856 2.274782 189 181 178
0.315709 -0.292799 2.271933 186 178 175
0.312968 -0.283566 2.252208 184 176 174
0.312305 -0.281296 2.247442 187 179 177
0.312979 -0.280230 2.252292 188 180 178
0.312451 -0.273077 2.248493 180 172 169
0.315675 -0.270832 2.271689 172 164 161
0.315936 -0.269368 2.273568 177 168 166
0.318792 -0.270098 2.294119 177 167 165
0.319849 -0.269285 2.301730 166 157 155
0.318090 -0.266103 2.289067 152 145 141
0.319291 -0.265401 2.297710 142 136 133
0.319632 -0.263976 2.300165 138 134 131
0.319659 -0.262290 2.300362 137 135 131
0.319390 -0.260362 2.298428 138 137 133
0.318859 -0.258225 2.294603 144 141 138
0.320199 -0.257598 2.304245 152 148 145
0.320890 -0.256439 2.309219 161 157 154
0.322143 -0.255719 2.318235 168 164 161
0.321168 -0.253228 2.311221 172 167 164
0.320769 -0.251198 2.308345 174 167 163
0.321059 -0.249710 2.310436 174 166 163
0.321262 -0.248150 2.311896 173 165 162
0.320691 -0.245995 2.307786 167 159 156
0.320273 -0.243963 2.304783 165 157 154
0.322040 -0.243588 2.317497 172 164 161
0.320864 -0.240983 2.309033 170 162 159
0.320864 -0.239268 2.309033 159 151 148
0.323695 -0.239649 2.329406 154 146 143
0.324359 -0.233205 2.334185 183 175 172
0.323479 -0.230843 2.327849 179 171 168
0.321125 -0.227447 2.310909 186 178 175
0.320284 -0.225139 2.304858 192 184 181
0.321529 -0.224296 2.313817 194 186 183
0.323524 -0.223958 2.328172 196 188 185
0.327119 -0.224698 2.354042 198 190 187
0.323722 -0.220634 2.329597 198 190 187
0.319988 -0.212959 2.302732 200 192 189
0.317977 -0.209920 2.288256 200 195 192
0.319733 -0.207661 2.300890 137 142 142
0.323890 -0.208631 2.330811 52 63 61
0.324719 -0.207429 2.336776 14 31 28
0.328155 -0.207870 2.361501 25 44 44
0.319987 -0.197565 2.302723 37 51 64
0.320996 -0.196471 2.309979 33 49 62
0.319760 -0.194006 2.301085 32 48 61
0.317214 -0.182288 2.282768 27 45 57
0.310261 -0.171658 2.232727 18 37 41
0.310826 -0.166987 2.236794 10 24 24
0.309625 -0.164686 2.228151 1 10 11
0.309385 -0.162905 2.226422 0 5 9
0.310728 -0.161951 2.236090 1 7 14
0.310068 -0.159950 2.231341 5 12 21
0.312263 -0.159413 2.247138 8 16 26
0.311429 -0.157323 2.241137 10 19 29
0.315746 -0.154441 2.272204 16 32 45
0.315811 -0.152784 2.272672 20 38 51
0.312383 -0.149456 2.247999 24 43 58
0.310620 -0.146952 2.235310 27 47 62
0.312009 -0.145942 2.245311 29 51 65
0.311073 -0.143841 2.238570 29 51 65
0.309989 -0.141683 2.230772 29 51 65
0.310172 -0.140109 2.232088 29 51 65
0.310101 -0.138419 2.231581 30 52 66
0.308715 -0.136150 2.221601 32 54 68
0.309359 -0.134781 2.226238 34 56 70
0.309022 -0.132982 2.223812 35 57 71
0.305196 -0.126442 2.196282 31 54 68
0.303062 -0.123938 2.180923 29 51 65
0.303994 -0.122694 2.187628 27 49 61
0.303302 -0.120793 2.182653 26 47 58
0.303396 -0.119209 2.183326 26 45 55
0.303316 -0.115935 2.182753 21 38 46
0.303121 -0.114240 2.181347 20 36 45
0.307300 -0.114173 2.211424 18 32 41
0.302474 -0.110763 2.176694 12 27 36
0.302678 -0.109220 2.178161 6 22 30
0.305584 -0.108635 2.199073 3 16 23
0.305316 -0.106908 2.197142 1 9 14
0.306471 -0.105674 2.205455 0 8 12
0.305163 -0.103592 2.196042 0 7 10
0.303434 -0.101383 2.183604 0 6 9
0.301324 -0.099067 2.168416 0 4 8
0.302924 -0.097974 2.179929 0 4 8
0.303994 -0.096695 2.187628 0 3 7
0.301508 -0.092681 2.169739 0 2 7
0.301756 -0.083080 2.171525 0 1 6
0.299102 -0.080751 2.152429 0 1 7
0.299895 -0.079362 2.158132 0 2 9
0.301834 -0.075035 2.172090 0 2 9
0.300698 -0.073145 2.163914 0 2 9
0.289347 -0.058011 2.082227 0 9 19
0.297060 -0.057969 2.137734 0 10 21
0.290180 -0.053525 2.088219 0 12 26
0.290807 -0.052086 2.092732 0 15 28
0.290000 -0.050391 2.086923 0 16 29
0.300100 -0.044126 2.159611 0 10 19
0.286128 -0.037483 2.059059 0 3 9
0.284938 -0.035804 2.050494 0 2 7
0.295347 -0.033955 2.125403 0 1 3
0.293668 -0.032192 2.113322 0 1 3
0.293153 -0.030569 2.109616 0 1 3
0.296108 -0.026129 2.130878 0 0 0
0.293926 -0.022794 2.115180 0 0 0
0.284558 -0.017504 2.047764 0 0 1
0.285135 -0.012967 2.051913 1 0 5
0.285743 -0.011468 2.056293 0 0 7
0.283699 -0.002287 2.041585 0 2 8
0.281312 0.002243 2.024405 0 2 9
0.282653 0.003765 2.034053 0 2 9
0.285177 0.005322 2.052217 0 2 9
0.287388 0.006900 2.068130 0 2 9
0.287349 0.008435 2.067851 0 2 9
0.284182 0.009861 2.045056 0 2 7
0.274055 0.012439 1.972180 1 2 7
0.275638 0.013984 1.983575 1 2 7
0.274665 0.015403 1.976572 1 2 7
0.274764 0.016877 1.977285 1 2 7
0.274517 0.018330 1.975503 1 2 7
0.275049 0.019835 1.979337 1 2 7
0.275050 0.021306 1.979340 0 2 8
0.275246 0.022792 1.980752 0 2 9
0.275063 0.024247 1.979432 0 2 9
0.273846 0.025604 1.970677 0 2 9
0.270360 0.029613 1.945592 0 2 9
0.273309 0.031397 1.966810 0 2 9
0.272682 0.032783 1.962302 0 2 9
0.271415 0.034081 1.953184 0 2 9
0.270653 0.035432 1.947702 0 2 9
0.269823 0.036765 1.941722 0 2 9
0.270325 0.038279 1.945339 0 2 9
0.270179 0.039702 1.944290 0 2 9
0.269839 0.041095 1.941844 0 2 9
0.269954 0.042555 1.942669 0 2 9
0.270468 0.044082 1.946367 0 2 9
0.270712 0.045569 1.948123 0 2 9
0.270932 0.047054 1.949707 0 2 9
0.272818 0.048840 1.963279 0 2 9
0.275499 0.050792 1.982569 0 2 9
0.276408 0.052437 1.989112 0 2 9
0.275794 0.053795 1.984694 0 2 9
0.268652 0.055274 1.933302 0 2 9
0.268101 0.056594 1.929333 0 2 9
0.267600 0.057918 1.925729 0 2 9
0.267363 0.059296 1.924025 0 2 9
0.267301 0.060711 1.923577 0 2 9
0.267489 0.062184 1.924931 0 2 9
0.267703 0.063664 1.926473 0 2 9
0.267776 0.065113 1.926998 0 2 9
0.274974 0.068333 1.978795 0 2 9
0.274094 0.069579 1.972458 0 2 9
0.274837 0.071237 1.977805 0 2 9
0.270271 0.078722 1.944953 0 2 9
0.271520 0.080537 1.953939 0 2 9
0.271048 0.081845 1.950544 0 2 9
0.267891 0.085188 1.927820 0 2 9
0.267241 0.086410 1.923146 0 2 9
0.266898 0.087725 1.920673 0 2 9
0.267078 0.089212 1.921975 0 1 9
0.267208 0.090684 1.922907 1 1 9
0.266944 0.092021 1.921010 1 1 8
0.267349 0.093590 1.923924 1 2 7
0.267398 0.095036 1.924276 1 2 7
0.267835 0.096623 1.927416 1 2 7
0.267792 0.098039 1.927107 1 2 6
0.267958 0.099532 1.928303 1 2 6
0.267693 0.100864 1.926395 1 2 5
0.267874 0.102364 1.927699 1 2 4
0.267976 0.103836 1.928431 1 2 3
0.268525 0.105484 1.932389 1 3 2
0.268498 0.106908 1.932189 0 3 2
0.268205 0.108225 1.930083 0 3 2
0.266875 0.109115 1.920514 0 3 2
0.266924 0.110562 1.920862 0 3 2
0.267006 0.112023 1.921456 0 2 4
0.267374 0.113607 1.924102 0 2 7
0.267326 0.115015 1.923757 0 2 9
0.266674 0.116160 1.919061 0 2 9
0.266917 0.117693 1.920813 0 2 9
0.266830 0.119080 1.920186 0 2 9
0.268378 0.122640 1.931327 0 2 9
0.267584 0.123708 1.925615 0 2 9
0.267304 0.125007 1.923601 0 2 9
0.266914 0.126252 1.920791 0 2 9
0.267170 0.127801 1.922636 0 2 9
0.267599 0.129436 1.925719 0 2 9
0.267314 0.130728 1.923673 0 2 9
0.267826 0.132409 1.927358 0 2 9
0.267841 0.133848 1.927464 0 2 9
0.268163 0.135443 1.929780 0 2 9
0.268601 0.137100 1.932933 0 2 9
0.268383 0.138423 1.931362 0 2 9
0.267909 0.139610 1.927950 0 2 9
0.268486 0.141346 1.932108 0 2 9
0.267594 0.142307 1.925683 0 2 9
0.267730 0.143811 1.926666 0 2 9
0.268152 0.145471 1.929704 0 2 9
0.268014 0.146828 1.928706 0 2 9
0.267022 0.147712 1.921566 0 2 9
0.266975 0.149113 1.921231 0 2 9
0.266775 0.150427 1.919789 0 2 9
0.267278 0.153568 1.923410 0 2 9
0.268389 0.155641 1.931409 0 2 9
0.267655 0.156646 1.926123 0 2 9
0.265809 0.156987 1.912841 0 2 9
0.265445 0.158190 1.910219 0 2 9
0.265019 0.159353 1.907157 0 3 9
0.264158 0.160247 1.900958 0 2 9
0.262780 0.160816 1.891045 0 2 9
0.257260 0.161563 1.851322 0 2 9
0.252964 0.161570 1.820404 0 2 9
0.252844 0.162845 1.819542 0 3 10
0.252636 0.164061 1.818045 0 4 10
0.261388 0.171141 1.881022 0 5 11
0.261235 0.172438 1.879923 0 5 11
0.261876 0.174261 1.884537 0 6 12
0.262689 0.176206 1.890386 0 7 13
0.262556 0.177520 1.889431 0 8 13
0.262477 0.178869 1.888859 0 9 14
0.262755 0.180463 1.890863 0 10 15
0.262863 0.181943 1.891642 0 10 15
0.263201 0.183583 1.894069 0 10 14
0.263074 0.184901 1.893157 0 9 14
0.263401 0.186539 1.895512 0 8 13
0.264557 0.188772 1.903830 0 7 12
0.263781 0.189628 1.898248 0 7 11
0.266086 0.195552 1.914837 0 2 7
0.265326 0.196411 1.909365 0 2 7
0.263345 0.196353 1.895111 1 2 7
0.257933 0.200590 1.856163 0 3 5
0.255707 0.201592 1.840140 0 3 5
0.255649 0.202913 1.839726 0 3 5
0.255163 0.203891 1.836230 0 3 4
0.254699 0.204881 1.832886 0 2 3
0.254916 0.206419 1.834453 1 2 3
0.254778 0.207669 1.833460 0 2 3
0.254446 0.208758 1.831066 0 2 3
0.254855 0.210456 1.834015 0 2 3
0.254538 0.211555 1.831733 1 2 4
0.455177 -0.741772 3.258172 201 193 191
0.317383 -0.515530 2.271836 201 193 191
0.261502 -0.421982 1.871843 201 193 191
0.261372 -0.420381 1.870907 201 193 191
0.263214 -0.421945 1.884094 201 193 191
0.263214 -0.420546 1.884094 201 193 191
0.263214 -0.419146 1.884094 201 193 191
0.389426 -0.603565 2.787528 201 193 190
0.286327 -0.436161 2.049536 201 193 190
3.983304 -6.025403 28.512623 201 193 190
3.954608 -5.960971 28.307220 201 193 190
1.785158 -2.671872 12.778223 201 193 190
1.775592 -2.648113 12.709745 201 193 191
1.761114 -2.617158 12.606116 201 193 191
1.754359 -2.597791 12.557758 201 193 191
1.759729 -2.596387 12.596198 201 193 191
1.756192 -2.581832 12.570882 201 193 191
1.763027 -2.582507 12.619808 201 193 191
1.740483 -2.540230 12.458439 201 193 191
1.759579 -2.540035 12.595130 201 193 191
1.739828 -2.483772 12.453746 201 193 191
0.285389 -0.404386 2.042823 201 193 191
0.285651 -0.403238 2.044696 201 193 191
0.285466 -0.401459 2.043375 201 193 191
0.293980 -0.380609 2.104320 201 193 191
0.343077 -0.427757 2.455756 201 193 191
0.341059 -0.421615 2.441313 201 193 191
0.317554 -0.298010 2.273063 194 186 183
0.318441 -0.297149 2.279410 191 183 180
0.312679 -0.280136 2.238170 187 179 177
0.312899 -0.278669 2.239744 186 178 176
0.316870 -0.272097 2.268164 180 172 169
0.315673 -0.269390 2.259596 178 170 167
0.316358 -0.268294 2.264504 180 171 169
0.319061 -0.268890 2.283852 180 170 168
0.319851 -0.267854 2.289503 174 165 162
0.321084 -0.267180 2.298332 166 158 155
0.319396 -0.264078 2.286251 157 151 148
0.320530 -0.263310 2.294364 150 146 143
0.320047 -0.261212 2.290909 145 142 139
0.321236 -0.260475 2.299418 140 139 135
0.320806 -0.258420 2.296337 141 139 135
0.321472 -0.257247 2.301105 147 143 140
0.322612 -0.256445 2.309271 154 150 147
0.322813 -0.254888 2.310705 162 157 154
0.322458 -0.252893 2.308167 168 162 159
0.322753 -0.251409 2.310278 172 165 162
0.324825 -0.251296 2.325112 175 167 164
0.324825 -0.249569 2.325112 176 168 165
0.327722 -0.250052 2.345845 171 163 160
0.324922 -0.244461 2.325803 176 168 165
0.323670 -0.241798 2.316844 173 165 162
0.327455 -0.241143 2.343931 158 150 147
0.328811 -0.240394 2.353644 163 155 152
0.329537 -0.239173 2.358839 171 163 160
0.329380 -0.237307 2.357714 184 176 173
0.328140 -0.234669 2.348835 192 184 181
0.327767 -0.232660 2.346171 187 179 176
0.326310 -0.229891 2.335739 187 179 176
0.325341 -0.227478 2.328805 197 189 186
0.324922 -0.225458 2.325803 194 186 183
0.326538 -0.224843 2.337373 196 188 185
0.329223 -0.223191 2.356591 198 190 187
0.326347 -0.219506 2.336002 198 191 185
0.320619 -0.212244 2.295002 202 194 191
0.321934 -0.211403 2.304416 202 197 194
0.326847 -0.209415 2.339580 42 53 52
0.328644 -0.208820 2.352445 18 35 34
0.329674 -0.207721 2.359817 34 52 54
0.328828 -0.205440 2.353760 36 54 59
0.324865 -0.201237 2.325395 32 47 57
0.307747 -0.180816 2.202864 31 47 60
0.307990 -0.179321 2.204605 30 46 59
0.306268 -0.171805 2.192280 21 39 48
0.308461 -0.169755 2.207973 18 37 42
0.310896 -0.169442 2.225402 19 36 39
0.310226 -0.167428 2.220609 19 34 36
0.306695 -0.162261 2.195333 2 10 12
0.308376 -0.161511 2.207366 0 6 10
0.308473 -0.159921 2.208059 1 8 15
0.308943 -0.158522 2.211424 6 14 22
0.311280 -0.158066 2.228151 9 17 27
0.310671 -0.154454 2.223795 10 22 33
0.311592 -0.153255 2.230388 13 26 39
0.312327 -0.151956 2.235644 17 32 46
0.312165 -0.150218 2.234490 21 38 53
0.310774 -0.147896 2.224529 25 43 58
0.309667 -0.145723 2.216606 27 48 62
0.311203 -0.144791 2.227600 29 51 65
0.311381 -0.143218 2.228878 30 52 66
0.310268 -0.141057 2.220912 29 51 65
0.309787 -0.139191 2.217464 29 51 65
0.310887 -0.138032 2.225339 30 52 66
0.308773 -0.135452 2.210205 33 55 69
0.309733 -0.134226 2.217083 35 57 71
0.309518 -0.132487 2.215541 35 57 71
0.306933 -0.129749 2.197034 35 57 71
0.307151 -0.128208 2.198598 34 56 70
0.306372 -0.126254 2.193022 31 54 68
0.304261 -0.123766 2.177911 29 52 65
0.305192 -0.122523 2.184576 28 49 63
0.303620 -0.120277 2.173323 28 47 60
0.304252 -0.118910 2.177846 27 46 57
0.304478 -0.117379 2.179460 25 42 51
0.304327 -0.115703 2.178384 22 39 47
0.305322 -0.114458 2.185508 22 38 46
0.306499 -0.113270 2.193931 20 34 43
0.305189 -0.111163 2.184556 14 29 38
0.304534 -0.109305 2.179864 8 24 32
0.306712 -0.108456 2.195457 4 18 25
0.306281 -0.106675 2.192366 2 12 18
0.306401 -0.105088 2.193226 2 11 16
0.304658 -0.102871 2.180753 1 8 14
0.305275 -0.101456 2.185168 0 7 13
0.304721 -0.099652 2.181206 0 6 12
0.304217 -0.097869 2.177595 0 5 11
0.303751 -0.096104 2.174263 0 4 11
0.303777 -0.094497 2.174446 0 3 10
0.303279 -0.092730 2.170878 0 2 8
0.303708 -0.088017 2.173955 0 1 8
0.300825 -0.083983 2.153315 1 1 8
0.300634 -0.082331 2.151951 1 1 8
0.299446 -0.080414 2.143448 0 1 8
0.302431 -0.079607 2.164813 0 2 9
0.299996 -0.074181 2.147384 0 2 9
0.299749 -0.072526 2.145612 0 2 9
0.297348 -0.070365 2.128429 0 2 9
0.283293 -0.062520 2.027818 1 6 12
0.285141 -0.059896 2.041052 0 7 15
0.289241 -0.057681 2.070400 0 10 20
0.295785 -0.057414 2.117237 0 11 22
0.298171 -0.056292 2.134320 0 11 25
0.296868 -0.049732 2.124989 0 15 28
0.298505 -0.043658 2.136707 0 10 21
0.286013 -0.038790 2.047293 0 4 11
0.284849 -0.037117 2.038960 0 3 9
0.284876 -0.035606 2.039153 0 2 7
0.285255 -0.034137 2.041868 0 3 6
0.296812 -0.033942 2.124590 1 2 4
0.296493 -0.032329 2.122304 0 1 3
0.294579 -0.030554 2.108607 0 1 3
0.296184 -0.029146 2.120094 0 1 3
0.297117 -0.027658 2.126773 0 0 0
0.296028 -0.025983 2.118980 0 0 0
0.296868 -0.024478 2.124989 0 0 0
0.292817 -0.022587 2.095993 0 0 0
0.285354 -0.012908 2.042575 1 0 5
0.286614 -0.011442 2.051596 0 0 6
0.283293 -0.002272 2.027818 0 2 8
0.282294 0.002239 2.020673 0 2 9
0.284251 0.003766 2.034678 0 2 9
0.285755 0.005305 2.045442 0 2 9
0.289108 0.006904 2.069442 0 2 9
0.283236 0.009776 2.027416 0 2 7
0.275982 0.010993 1.975485 1 2 7
0.274770 0.012405 1.966810 1 2 7
0.275720 0.013914 1.973610 1 2 7
0.274556 0.015315 1.965284 1 2 7
0.273720 0.016724 1.959300 1 2 7
0.273724 0.018179 1.959323 1 2 7
0.274308 0.019677 1.963508 1 2 7
0.274083 0.021118 1.961898 0 2 8
0.274290 0.022592 1.963379 0 2 9
0.274114 0.024035 1.962116 0 2 9
0.273428 0.025429 1.957209 0 2 9
0.273750 0.026914 1.959511 0 2 9
0.273592 0.028353 1.958381 0 2 9
0.273667 0.029816 1.958915 0 2 9
0.273943 0.031302 1.960891 0 2 9
0.273537 0.032710 1.957986 0 2 9
0.273255 0.034130 1.955970 0 2 9
0.272403 0.035471 1.949867 0 2 9
0.272203 0.036893 1.948438 0 2 9
0.271860 0.038292 1.945983 0 2 9
0.271449 0.039677 1.943038 0 2 9
0.271514 0.041130 1.943506 0 2 9
0.271351 0.042548 1.942339 0 2 9
