ply
format ascii 1.0
element vertex 1202
property float x
property float y
property float z
property uchar red
property uchar green
property uchar blue
end_header
0.417108 -0.240522 2.004959 197 190 180
7.341223 -4.207047 35.287903 197 190 181
7.229871 -4.117421 34.752655 197 190 182
7.087315 -4.010931 34.067410 197 189 184
6.953635 -3.910450 33.424839 197 189 185
0.328404 -0.181164 1.578578 197 189 186
0.328404 -0.179991 1.578578 197 189 186
0.328404 -0.178819 1.578578 197 189 186
0.328404 -0.177646 1.578578 197 189 185
0.328404 -0.176474 1.578578 197 189 185
0.328404 -0.175301 1.578578 197 190 183
0.328404 -0.174129 1.578578 197 190 182
0.331743 -0.168793 1.594628 197 190 183
0.330741 -0.167102 1.589811 197 189 185
0.329821 -0.165460 1.585390 197 189 186
0.409492 -0.198118 1.968355 197 189 186
0.408050 -0.187222 1.961422 196 188 185
0.726635 -0.317829 3.492799 199 191 188
0.727575 -0.313045 3.497321 199 191 188
0.464975 -0.115393 2.235051 196 188 185
0.463254 -0.110003 2.226776 197 187 184
0.456542 -0.103520 2.194515 197 187 184
0.457601 -0.102126 2.199602 197 187 184
0.651658 -0.131475 3.132401 196 188 185
0.655691 -0.129948 3.151787 196 188 185
0.742151 -0.091438 3.567381 196 188 185
0.740760 -0.088622 3.560698 196 188 185
0.736906 -0.085530 3.542169 196 188 185
0.729175 -0.082029 3.505012 196 188 185
0.726098 -0.079091 3.490219 196 188 185
0.718963 -0.052644 3.455921 196 188 185
0.717580 -0.049981 3.449276 195 187 184
0.716563 -0.047351 3.444384 195 187 184
0.714658 -0.044674 3.435230 195 187 184
0.716940 -0.042257 3.446196 195 187 184
0.730026 -0.037815 3.509102 195 187 184
0.732224 -0.035315 3.519663 195 187 184
0.719684 -0.032140 3.459386 195 187 184
0.718863 -0.029537 3.455443 194 186 183
0.718115 -0.026943 3.451847 193 185 182
0.716764 -0.024333 3.445350 193 185 182
0.652302 -0.012829 3.135496 193 185 182
0.651580 -0.010488 3.132025 193 185 182
1.877756 -0.003408 9.026029 193 185 182
0.716646 0.042197 3.444786 192 184 181
0.731528 0.048297 3.516318 192 184 181
0.695307 0.122863 3.342210 190 180 171
0.692611 0.124859 3.329253 190 179 172
0.692048 0.127229 3.326545 190 179 174
0.692332 0.129753 3.327913 189 179 176
0.459873 0.097680 2.210522 186 179 175
0.461372 0.099646 2.217729 181 173 170
0.461715 0.101368 2.219380 176 169 166
0.462061 0.103094 2.221040 181 177 174
0.462260 0.104789 2.221997 181 180 176
0.462952 0.106599 2.225326 176 175 171
0.462518 0.108150 2.223238 173 173 168
0.461986 0.109675 2.220680 174 174 170
0.462176 0.111370 2.221592 180 180 176
0.462113 0.113005 2.221293 187 188 184
0.461622 0.114533 2.218934 194 194 191
0.461759 0.116216 2.219591 199 199 197
0.461283 0.119390 2.217303 201 200 199
0.461496 0.121093 2.218325 200 199 199
0.462209 0.126231 2.221755 200 200 201
0.462449 0.127947 2.222906 198 197 198
0.462299 0.129556 2.222186 195 194 196
0.462385 0.131231 2.222599 192 190 195
0.462386 0.132882 2.222604 188 186 191
0.462505 0.134568 2.223175 182 181 186
0.462424 0.136195 2.222788 175 174 178
0.462733 0.137938 2.224271 168 167 172
0.463187 0.139727 2.226453 160 159 164
0.463187 0.141381 2.226453 154 153 158
0.462584 0.142849 2.223554 147 148 152
0.462674 0.144528 2.223987 138 139 143
0.464270 0.146684 2.231658 132 133 137
0.463622 0.148135 2.228544 131 132 134
0.385303 0.161630 1.852080 146 156 132
1.893780 0.895838 9.103053 149 159 135
2.193734 1.061227 10.544876 149 159 135
2.220690 1.082195 10.674443 148 157 133
0.479384 0.237039 2.304312 143 151 128
0.480188 0.239150 2.308175 142 150 127
0.520030 0.264563 2.499686 147 155 132
0.521500 0.267173 2.506754 144 152 129
0.527955 0.272365 2.537781 141 149 126
0.588920 -0.642187 2.820757 197 189 186
0.354443 -0.382720 1.697682 197 189 186
0.354453 -0.381469 1.697729 197 189 186
0.354471 -0.380228 1.697817 197 189 186
0.354434 -0.378927 1.697638 197 189 186
0.354468 -0.377703 1.697802 197 189 186
0.354949 -0.376952 1.700106 197 189 186
0.355003 -0.375747 1.700364 197 189 186
0.835023 -0.877873 3.999521 197 189 186
0.834814 -0.871713 3.998521 197 189 186
0.357565 -0.363193 1.712635 197 188 187
0.425498 -0.426140 2.038014 197 188 189
0.817429 -0.809938 3.915252 197 189 187
0.820939 -0.810495 3.932064 197 189 187
0.818537 -0.805212 3.920558 198 190 188
0.817918 -0.801693 3.917594 199 191 189
0.818734 -0.799580 3.921504 199 191 188
0.830084 -0.807711 3.975864 199 191 188
0.357208 -0.346310 1.710924 199 191 188
2.791882 -2.666972 13.372318 199 191 188
2.779990 -2.645722 13.315360 199 191 188
0.351506 -0.330778 1.683615 199 191 188
0.349554 -0.327697 1.674264 199 191 188
0.393994 -0.358144 1.887117 197 189 186
0.394477 -0.357180 1.889431 197 189 186
0.745390 -0.645745 3.570204 197 189 186
0.747171 -0.644630 3.578735 197 189 186
0.748027 -0.642707 3.582836 197 189 186
0.749651 -0.638768 3.590615 197 189 186
0.334958 -0.271113 1.604351 199 191 188
0.334698 -0.269712 1.603108 199 191 187
0.746836 -0.538061 3.577130 197 190 182
2.441075 -1.567624 11.692055 196 189 179
2.437431 -1.556612 11.674597 196 189 179
2.460289 -1.562457 11.784081 196 189 179
6.978462 -4.282855 33.424839 196 188 185
2.745475 -1.665431 13.150039 196 188 185
6.658270 -3.873155 31.891212 197 190 182
7.053349 -4.027694 33.783527 197 190 181
7.154061 -4.059752 34.265911 197 190 183
7.180850 -4.049407 34.394218 197 189 185
7.117622 -3.988431 34.091377 197 189 186
0.329577 -0.182336 1.578578 197 189 187
0.329577 -0.181164 1.578578 197 189 186
0.329577 -0.179991 1.578578 197 189 186
0.329577 -0.178819 1.578578 197 189 186
0.329577 -0.177646 1.578578 197 189 186
0.329577 -0.176474 1.578578 197 189 185
0.329577 -0.175301 1.578578 197 190 183
0.329577 -0.174129 1.578578 197 190 182
0.403451 -0.207418 1.932415 197 190 181
7.282554 -3.588584 34.881351 197 189 187
7.013897 -3.431247 33.594566 196 188 186
7.192551 -3.493057 34.450264 196 188 185
0.406029 -0.195743 1.944763 196 188 185
0.406849 -0.187454 1.948690 196 188 185
0.406364 -0.185785 1.946367 196 188 185
0.732107 -0.311269 3.506584 198 190 187
8.148764 -3.406622 39.030251 198 190 187
0.493212 -0.197416 2.362345 197 189 187
0.667046 -0.212414 3.194960 195 188 184
0.460503 -0.140089 2.205679 195 188 182
0.444344 -0.117784 2.128278 196 188 185
0.464134 -0.109820 2.223072 196 188 183
0.465143 -0.108404 2.227901 197 187 183
0.456043 -0.103039 2.184318 197 187 183
0.457097 -0.101651 2.189363 197 187 183
0.459801 -0.100616 2.202314 197 187 183
0.642363 -0.133709 3.076733 196 188 185
0.644963 -0.131956 3.089189 196 188 185
0.647885 -0.130249 3.103184 196 188 185
0.653174 -0.128988 3.128519 196 188 185
0.446615 -0.081842 2.139160 196 188 185
2.980349 -0.482527 14.275021 196 188 185
0.745177 -0.091484 3.569183 196 188 185
0.740024 -0.088219 3.544502 196 188 185
0.735761 -0.085093 3.524082 196 188 185
0.648620 -0.054247 3.106702 196 188 185
0.714296 -0.052116 3.421272 196 188 185
0.712135 -0.049425 3.410923 195 187 184
0.711311 -0.046837 3.406979 195 187 184
0.709186 -0.044174 3.396796 195 187 184
0.710717 -0.024042 3.404132 193 185 182
0.652869 -0.012794 3.127055 193 185 182
0.650668 -0.010436 3.116512 193 185 182
0.646949 -0.008075 3.098700 193 185 182
0.721501 0.073134 3.455783 193 185 182
0.699961 0.080911 3.352615 193 186 180
0.693729 0.122148 3.322762 190 181 172
0.691222 0.124166 3.310755 190 180 173
0.462690 0.097929 2.216154 185 177 171
0.461830 0.099390 2.212034 185 176 170
0.462677 0.101218 2.216091 185 176 170
0.463688 0.103089 2.220933 179 173 166
0.464743 0.104977 2.225986 176 173 166
0.464241 0.106515 2.223581 177 175 168
0.464188 0.108154 2.223330 179 177 170
0.463784 0.109710 2.221394 180 178 172
0.463902 0.111389 2.221960 179 177 172
0.463514 0.112944 2.220100 178 176 171
0.463089 0.114488 2.218063 177 175 170
0.463243 0.121119 2.218802 188 187 183
0.464534 0.126414 2.224987 207 205 203
0.464259 0.127991 2.223666 213 211 209
0.464666 0.129756 2.225620 218 216 216
0.464925 0.131483 2.226858 227 225 227
0.464743 0.133085 2.225986 229 226 229
0.464867 0.134774 2.226579 230 228 231
0.464656 0.136366 2.225569 232 229 232
0.464709 0.138035 2.225825 233 230 233
0.464643 0.139668 2.225508 233 231 233
0.464284 0.141212 2.223789 233 231 234
0.464224 0.142845 2.223500 230 228 231
0.464524 0.144590 2.224935 226 224 228
0.465057 0.146411 2.227491 226 225 226
0.465549 0.148222 2.229845 222 221 220
0.444290 0.177808 2.128023 145 155 131
0.758710 0.311738 3.634005 148 158 134
0.387680 0.163427 1.856875 145 155 131
1.886478 0.889209 9.035691 149 159 135
2.084446 1.004771 9.983899 149 159 135
2.091038 1.015387 10.015474 148 157 133
0.663763 0.362461 3.179234 151 159 136
0.591015 -0.642187 2.820757 197 189 186
0.355568 -0.383833 1.697030 197 189 186
0.355752 -0.382772 1.697912 197 189 186
0.355738 -0.381495 1.697843 197 189 186
0.355789 -0.380289 1.698088 197 189 186
0.355717 -0.378951 1.697744 197 189 186
0.356288 -0.377032 1.700467 197 189 186
0.356252 -0.375731 1.700295 197 189 186
0.838278 -0.878171 4.000879 197 189 186
0.836180 -0.870045 3.990867 197 189 186
0.358099 -0.363715 1.709110 197 189 186
0.432326 -0.436041 2.063375 197 188 189
0.429426 -0.431594 2.049536 197 188 189
0.425038 -0.425677 2.028595 197 188 189
0.423492 -0.422628 2.021216 197 188 189
0.820282 -0.809884 3.914988 197 189 187
0.822570 -0.809227 3.925909 197 189 187
0.819744 -0.803540 3.912421 198 190 188
0.818143 -0.796170 3.904779 199 191 188
0.831734 -0.806448 3.969646 199 191 188
0.358574 -0.346401 1.711376 199 191 188
0.358792 -0.345340 1.712419 199 191 188
0.349814 -0.328018 1.669570 199 191 188
0.646233 -0.505167 3.084298 196 189 181
0.867514 -0.647391 4.140414 196 189 181
0.862904 -0.640893 4.118413 196 189 181
0.860500 -0.636056 4.106936 196 189 182
0.858534 -0.631559 4.097555 197 190 182
0.750216 -0.535921 3.580583 197 189 182
6.838598 -4.667000 32.638813 196 189 182
6.725626 -4.566060 32.099628 196 189 183
0.416795 -0.272621 1.989253 196 189 181
2.304402 -1.466439 10.998298 196 189 179
7.244868 -4.430592 34.577827 196 188 185
2.739297 -1.655792 13.073936 196 188 185
6.734688 -3.927594 32.142879 196 188 184
6.810599 -3.947720 32.505180 196 189 183
6.818503 -3.879787 32.542908 196 189 182
6.863545 -3.881084 32.757881 196 188 183
6.905728 -3.880456 32.959206 196 188 185
6.926303 -3.867463 33.057407 196 188 185
0.330749 -0.179991 1.578578 196 188 185
0.330749 -0.178819 1.578578 196 188 185
0.330749 -0.177646 1.578578 196 188 185
0.399784 -0.204804 1.908061 197 190 183
6.795574 -3.336747 32.433468 196 188 185
6.516321 -3.176528 31.100672 196 188 185
6.857037 -3.318309 32.726818 196 188 185
0.389032 -0.168955 1.856745 197 189 186
0.388982 -0.167555 1.856507 197 189 186
0.492068 -0.196259 2.348508 197 189 187
0.665099 -0.213401 3.174340 195 188 181
0.663923 -0.210670 3.168728 195 188 181
0.663172 -0.208080 3.165143 195 188 181
0.665965 -0.206596 3.178474 195 188 181
0.461075 -0.139766 2.200587 195 188 181
0.471802 -0.107894 2.251787 196 188 181
0.453618 -0.100519 2.164999 196 188 181
0.455654 -0.099355 2.174717 196 188 181
0.646870 -0.131877 3.087338 196 188 185
0.649326 -0.130076 3.099062 196 188 185
0.650927 -0.128089 3.106702 196 188 185
0.447640 -0.084913 2.136468 196 188 185
0.446465 -0.083107 2.130858 196 188 185
2.962634 -0.488461 14.139866 196 188 185
2.981331 -0.480975 14.229103 196 188 185
3.065249 -0.483647 14.629621 196 188 185
3.137430 -0.483913 14.974120 196 188 185
3.130008 -0.471672 14.938696 196 188 185
3.016486 -0.422485 14.396888 196 188 185
0.747173 -0.091404 3.566059 196 188 185
0.743043 -0.088265 3.546346 196 188 185
0.738687 -0.085129 3.525558 196 188 185
1.857436 -0.174549 8.865048 195 187 184
0.648459 -0.054041 3.094923 195 187 184
0.708102 -0.048971 3.379584 195 187 184
0.706918 -0.046383 3.373930 195 187 184
0.749443 -0.030575 3.576892 194 186 183
0.652894 -0.012749 3.116092 193 185 182
0.647701 -0.008056 3.091305 193 185 182
0.699488 0.035935 3.338471 192 184 181
0.702579 0.080926 3.353224 193 186 181
0.699827 0.083090 3.340090 193 186 179
0.692987 0.121585 3.307445 190 181 173
0.692308 0.123920 3.304200 190 180 175
0.692004 0.126318 3.302750 191 180 175
0.695813 0.129480 3.320930 190 180 177
0.462015 0.094164 2.205076 182 174 167
0.466115 0.096652 2.224646 183 174 167
0.463246 0.097699 2.210950 185 175 168
0.463317 0.099356 2.211291 188 177 171
0.463416 0.101020 2.211762 190 179 173
0.465260 0.103072 2.220563 186 178 171
0.465528 0.104781 2.221840 183 177 169
0.465928 0.106523 2.223749 182 177 169
0.465658 0.108112 2.222461 182 177 169
0.465326 0.109685 2.220877 182 177 169
0.465431 0.111359 2.221378 182 177 169
0.465073 0.112923 2.219672 181 176 169
0.465651 0.121317 2.222428 181 177 171
0.466037 0.126373 2.224271 177 173 168
0.466546 0.128166 2.226702 176 172 168
0.466854 0.129905 2.228169 176 171 169
0.466744 0.131529 2.227645 177 172 173
0.466365 0.133076 2.225836 177 173 174
0.466072 0.134644 2.224438 178 174 175
0.466315 0.136368 2.225598 179 175 174
0.466562 0.138094 2.226776 181 177 176
0.466406 0.139701 2.226034 184 180 179
0.466314 0.141326 2.225592 186 182 181
0.466576 0.143060 2.226845 185 184 183
0.466730 0.144762 2.227579 178 177 175
0.467894 0.146781 2.233133 190 189 187
0.467178 0.148213 2.229716 193 192 188
0.706785 0.229240 3.373299 161 162 155
0.701926 0.237617 3.350105 139 146 124
0.700153 0.239499 3.341645 149 159 133
0.700305 0.242034 3.342368 147 157 131
0.504192 0.193916 2.406376 145 155 131
0.441873 0.176214 2.108943 146 156 132
2.013927 0.967336 9.611937 149 159 135
2.014376 0.974694 9.614084 148 157 133
0.518839 0.263925 2.476282 145 153 130
0.666418 0.362621 3.180635 150 158 136
0.593110 -0.642187 2.820757 197 189 186
0.356854 -0.383861 1.697152 197 189 186
0.357034 -0.382793 1.698007 197 189 186
0.357019 -0.381516 1.697936 197 189 186
0.357128 -0.380371 1.698455 197 189 186
0.357088 -0.379067 1.698267 197 189 186
0.357536 -0.377017 1.700396 197 189 186
0.357462 -0.375676 1.700044 197 189 186
0.840569 -0.877460 3.997640 197 189 186
0.840767 -0.871727 3.998581 197 189 186
0.428679 -0.429321 2.038743 196 188 190
0.426094 -0.425228 2.026452 196 188 190
0.424664 -0.422300 2.019647 196 188 189
0.819901 -0.809544 3.899345 196 188 188
0.821476 -0.808197 3.906836 196 189 187
0.825682 -0.809418 3.926839 197 189 187
0.824473 -0.805321 3.921091 199 191 189
0.826232 -0.804121 3.929456 199 191 189
0.823073 -0.798138 3.914431 199 191 188
0.360158 -0.346703 1.712867 199 191 188
0.360157 -0.345430 1.712863 199 191 188
0.360195 -0.344193 1.713042 199 191 188
0.359616 -0.342370 1.710290 199 191 188
0.360547 -0.341983 1.714716 199 191 188
0.360276 -0.339180 1.713427 199 191 188
0.347986 -0.325151 1.654976 199 191 188
0.345817 -0.321903 1.644661 199 191 188
0.346146 -0.309981 1.646225 197 189 186
0.797397 -0.711270 3.792320 197 189 186
0.939472 -0.718526 4.468009 196 189 180
0.877055 -0.652200 4.171165 196 189 180
0.869975 -0.643861 4.137492 196 189 181
0.866780 -0.638435 4.122296 196 189 183
0.866365 -0.635068 4.120321 197 190 184
0.458510 -0.332861 2.180616 197 190 184
6.162176 -4.190520 29.306538 196 189 183
0.416619 -0.273015 1.981389 196 189 180
6.256030 -3.635558 29.752897 196 188 185
6.608557 -3.817076 31.429470 196 188 184
6.683094 -3.789304 31.783957 196 188 184
6.760515 -3.809320 32.152161 196 188 184
6.925480 -3.877808 32.936718 196 188 185
7.010407 -3.900597 33.340618 196 188 185
0.331922 -0.179991 1.578578 196 188 185
0.331922 -0.178819 1.578578 196 188 185
0.403804 -0.197574 1.920441 196 188 185
0.403057 -0.195785 1.916889 196 188 185
0.402231 -0.192542 1.912962 196 188 185
0.422465 -0.199243 2.009189 196 188 185
0.389842 -0.168709 1.854038 197 189 186
0.390389 -0.167567 1.856643 197 189 186
0.658580 -0.210563 3.132127 195 188 180
0.657651 -0.205619 3.127705 195 188 180
0.660300 -0.204115 3.140303 195 188 180
0.468026 -0.139718 2.225871 195 188 180
0.471225 -0.109046 2.241089 196 189 181
0.473305 -0.107855 2.250980 196 189 180
0.473410 -0.106207 2.251478 196 189 179
0.647738 -0.131587 3.080560 196 188 185
0.649955 -0.129742 3.091106 196 188 186
0.651020 -0.127655 3.096170 196 188 185
0.446802 -0.084454 2.124937 196 188 185
0.444468 -0.082443 2.113834 196 188 185
2.910940 -0.467960 13.844067 196 188 185
3.155286 -0.484948 15.006144 196 188 185
0.763371 -0.098449 3.630498 196 188 185
1.843639 -0.172640 8.768119 195 187 184
0.650486 -0.054019 3.093628 195 187 184
0.755327 -0.030707 3.592240 195 186 184
0.649955 -0.012647 3.091106 196 186 184
0.703146 0.026060 3.344076 193 185 182
0.693945 0.035525 3.300315 192 184 181
0.689566 0.037736 3.279491 192 184 181
0.703696 0.080768 3.346689 193 185 182
0.700200 0.082841 3.330062 193 186 181
0.659193 0.101275 3.135042 191 184 176
0.663952 0.104352 3.157674 191 185 173
0.693923 0.121319 3.300210 190 181 173
0.692917 0.123591 3.295429 190 180 175
0.465928 0.097917 2.215896 188 178 172
0.463993 0.099150 2.206691 188 177 171
0.464797 0.100964 2.210518 188 177 171
0.466359 0.102950 2.217944 185 176 168
0.467439 0.104840 2.223082 184 176 167
0.467684 0.106547 2.224247 184 177 168
0.467351 0.108122 2.222661 182 175 166
0.466194 0.109501 2.217161 181 174 165
0.466069 0.120997 2.216567 182 175 168
0.467635 0.126359 2.224015 178 170 167
0.467813 0.128060 2.224861 177 170 166
0.467889 0.133039 2.225222 172 163 164
0.467639 0.134620 2.224031 171 163 164
0.467260 0.136161 2.222229 171 165 165
0.467525 0.137890 2.223489 173 167 167
0.467817 0.139629 2.224880 174 169 169
0.468276 0.141420 2.227060 175 170 170
0.468313 0.143085 2.227238 174 171 168
0.468935 0.144932 2.230195 163 160 157
0.469745 0.146842 2.234049 173 170 166
0.703735 0.227444 3.346874 142 142 132
0.702099 0.241797 3.339096 146 156 129
0.694576 0.249020 3.303316 142 152 128
0.439343 0.173034 2.089461 144 153 132
0.440952 0.175225 2.097111 146 156 132
0.721772 0.340360 3.432655 149 159 135
2.015280 0.978805 9.584421 143 151 128
0.667138 0.361730 3.172824 151 159 137
0.667414 0.364238 3.174137 150 158 135
0.667558 0.366675 3.174823 151 159 136
0.595205 -0.642187 2.820757 196 189 186
0.358325 -0.384087 1.698150 196 189 186
0.358509 -0.383022 1.699024 197 189 186
0.358469 -0.381717 1.698832 197 189 186
0.358658 -0.380656 1.699728 197 189 186
0.358763 -0.379505 1.700227 197 189 186
0.849868 -0.896011 4.027637 197 189 186
0.359165 -0.377402 1.702133 197 189 186
0.358940 -0.375901 1.701064 197 189 186
0.844714 -0.878683 4.003211 197 189 186
0.843944 -0.871941 3.999564 196 189 186
0.361210 -0.365564 1.711823 195 189 186
0.360297 -0.363372 1.707497 195 190 186
0.424502 -0.420653 2.011771 194 189 188
0.817449 -0.804282 3.873998 194 189 187
0.816674 -0.800644 3.870325 194 189 186
0.824474 -0.805389 3.907293 196 189 186
0.824862 -0.802865 3.909133 198 190 188
0.828224 -0.803222 3.925065 198 190 187
0.826580 -0.798718 3.917273 198 189 187
0.829486 -0.798606 3.931046 198 189 187
0.360687 -0.345989 1.709343 198 190 187
0.360510 -0.340744 1.708504 198 190 187
0.346840 -0.322940 1.643722 199 191 188
0.346425 -0.310358 1.641752 197 189 186
0.346422 -0.309137 1.641742 197 189 186
0.787983 -0.697625 3.734358 197 189 186
0.877314 -0.650095 4.157706 196 189 180
0.872636 -0.643558 4.135540 196 189 181
0.869022 -0.637833 4.118413 196 189 183
0.869106 -0.634835 4.118810 197 190 184
0.867539 -0.630637 4.111384 197 190 184
6.049513 -4.099424 28.669449 196 189 182
6.135411 -4.136035 29.076532 196 189 181
2.096894 -1.332376 9.937461 196 189 178
2.094422 -1.323432 9.925747 196 189 178
2.078021 -1.305754 9.848017 196 189 179
6.154630 -3.564042 29.167616 196 188 185
6.477008 -3.727926 30.695408 196 188 185
6.703774 -3.787650 31.770084 196 188 185
6.825352 -3.832316 32.346256 196 188 185
6.944480 -3.874759 32.910820 196 188 185
7.055006 -3.911594 33.434616 196 188 185
0.333094 -0.177646 1.578578 196 188 185
0.402881 -0.209193 1.909307 197 189 186
0.403406 -0.182485 1.911793 196 188 185
0.384114 -0.168349 1.820368 197 189 186
0.391831 -0.167594 1.856939 197 189 186
0.391581 -0.166108 1.855754 197 189 186
0.650796 -0.205051 3.084211 195 188 180
0.652453 -0.203276 3.092061 195 188 180
0.658544 -0.202856 3.120927 195 188 180
0.467411 -0.139044 2.215121 195 188 180
0.652114 -0.189397 3.090454 196 189 181
0.652360 -0.187172 3.091620 196 189 181
0.652625 -0.184951 3.092877 196 189 180
0.436231 -0.112877 2.067355 196 188 186
0.435923 -0.111263 2.065896 196 188 185
0.471572 -0.108742 2.234843 196 189 181
0.473455 -0.107510 2.243768 196 189 180
0.473914 -0.105946 2.245942 196 189 179
0.473375 -0.104159 2.243387 196 189 179
0.649292 -0.131439 3.077081 196 188 185
0.650363 -0.129366 3.082158 196 188 186
0.650796 -0.127162 3.084211 196 188 185
3.061668 -0.479681 14.509655 196 188 185
3.069603 -0.470118 14.547257 196 188 185
3.041272 -0.455074 14.412994 196 188 185
0.753644 -0.107464 3.571618 196 188 185
0.755438 -0.105061 3.580122 196 188 185
0.756569 -0.102555 3.585480 196 188 185
0.756141 -0.097173 3.583452 196 188 185
0.755213 -0.091737 3.579057 196 188 185
0.651964 -0.053951 3.089745 195 187 184
0.752612 -0.030488 3.566730 195 186 184
0.578040 -0.003069 2.739410 193 185 182
0.580753 -0.001039 2.752265 193 185 182
0.703845 0.025994 3.335615 193 185 182
0.692326 0.035317 3.281025 193 185 182
0.685083 0.037359 3.246701 193 185 182
0.702299 0.080324 3.328290 193 185 182
0.693597 0.084212 3.287048 193 185 182
0.658496 0.100812 3.120701 192 184 179
0.466245 0.094357 2.209596 187 179 174
0.466389 0.097669 2.210281 188 178 173
0.465723 0.099169 2.207124 187 177 172
0.464914 0.100633 2.203288 186 176 171
0.465632 0.102428 2.206691 183 175 167
0.468708 0.104754 2.221272 182 175 166
0.469681 0.106625 2.225880 183 176 167
0.470278 0.108416 2.228710 183 176 167
0.468309 0.121150 2.219380 182 175 167
0.469541 0.126427 2.225216 183 176 169
0.470652 0.128383 2.230481 183 176 170
0.469354 0.134638 2.224334 181 173 170
0.468661 0.136089 2.221049 179 172 169
0.469362 0.137944 2.224369 179 171 168
0.694117 0.247980 3.289511 142 152 128
0.426190 0.153760 2.019770 144 154 130
0.441557 0.174848 2.092600 147 157 133
0.424809 0.169711 2.013224 147 157 133
0.393131 0.165359 1.863099 146 156 132
0.577975 0.255316 2.739103 146 156 132
0.553961 0.293457 2.625293 154 162 141
0.664118 0.358826 3.147346 151 159 137
0.661661 0.359827 3.135701 152 160 137
0.597300 -0.642187 2.820757 194 189 185
0.359040 -0.383503 1.695571 195 189 185
0.359421 -0.382649 1.697368 196 188 185
0.359610 -0.381589 1.698262 196 188 186
0.360115 -0.380862 1.700647 196 188 186
0.359719 -0.379181 1.698776 196 188 186
0.847499 -0.890379 4.002322 196 188 186
0.359704 -0.376642 1.698708 196 187 186
0.359440 -0.375104 1.697457 197 187 186
0.843164 -0.876952 3.981848 196 188 186
0.843363 -0.874200 3.982788 196 188 186
0.843643 -0.868572 3.984113 194 189 186
0.886505 -0.881604 4.186527 194 188 187
0.428441 -0.423067 2.023319 192 189 186
0.817132 -0.801150 3.858913 192 189 186
0.818952 -0.800062 3.867510 193 189 186
0.820874 -0.799060 3.876585 194 189 186
0.825716 -0.800877 3.899451 196 189 186
0.829013 -0.801167 3.915022 197 188 186
0.825443 -0.794821 3.898162 197 188 186
0.828220 -0.794590 3.911278 198 188 186
0.345388 -0.320460 1.631100 199 191 188
0.342519 -0.315394 1.617548 199 191 188
0.347067 -0.309843 1.639027 197 189 186
0.347447 -0.308964 1.640820 197 189 186
0.801700 -0.710092 3.786037 197 189 186
0.800227 -0.705980 3.779081 197 189 186
0.809549 -0.711364 3.823101 197 189 187
0.813152 -0.705973 3.840118 197 189 187
0.810424 -0.700762 3.827234 197 189 187
0.793902 -0.683691 3.749211 197 189 187
0.800507 -0.675339 3.780401 199 191 188
0.814125 -0.683973 3.844715 199 191 188
0.858961 -0.718628 4.056453 199 191 188
0.861145 -0.717434 4.066765 199 191 188
0.857297 -0.711221 4.048595 199 191 188
0.866795 -0.697817 4.093447 197 189 186
0.939244 -0.713313 4.435589 196 189 180
0.882002 -0.651277 4.165265 196 189 180
0.873625 -0.635898 4.125703 197 190 184
0.870037 -0.630235 4.108761 197 190 184
0.870193 -0.627295 4.109497 197 190 184
0.748424 -0.531639 3.534437 197 189 186
0.754281 -0.533154 3.562099 197 189 186
0.887799 -0.618188 4.192642 196 188 185
6.028073 -3.478510 28.467636 196 188 185
6.364466 -3.650301 30.056253 196 188 185
6.739347 -3.841672 31.826637 196 188 185
6.860392 -3.886607 32.398266 196 188 185
6.824067 -3.842091 32.226723 196 188 185
6.919150 -3.871355 32.675758 196 188 185
7.021697 -3.904101 33.160034 196 188 185
7.095917 -3.920477 33.510540 196 188 185
7.303548 -4.009573 34.491077 196 188 185
0.334267 -0.177646 1.578578 196 188 185
0.742193 -0.389232 3.505012 197 189 186
0.745193 -0.388192 3.519182 197 189 186
0.746340 -0.386171 3.524597 197 189 186
0.369783 -0.158906 1.746304 197 189 186
0.740395 -0.302585 3.496522 197 189 186
0.741233 -0.300327 3.500479 197 189 186
1.064902 -0.371703 5.029010 196 189 181
1.066036 -0.368359 5.034368 196 189 181
1.065587 -0.364466 5.032247 196 189 181
1.060110 -0.358875 5.006383 196 189 181
1.059690 -0.355015 5.004395 196 189 181
0.649049 -0.201506 3.065141 195 188 180
0.467783 -0.138666 2.209109 195 188 180
1.066484 -0.308659 5.036482 196 189 181
1.068572 -0.305515 5.046340 196 189 181
0.473750 -0.107199 2.237289 196 189 180
0.473547 -0.105492 2.236329 196 189 179
0.473276 -0.103772 2.235051 196 189 179
0.474687 -0.102416 2.241715 196 189 181
0.647652 -0.130647 3.058542 196 188 186
0.649590 -0.128759 3.067697 196 188 186
0.650717 -0.126700 3.073020 196 188 185
3.064390 -0.510670 14.471615 196 188 185
3.048957 -0.497403 14.398731 196 188 185
3.039307 -0.485168 14.353160 196 188 185
3.029521 -0.472979 14.306945 196 188 185
2.982691 -0.455205 14.085788 196 188 185
2.971884 -0.443131 14.034754 196 188 185
0.750313 -0.106614 3.543362 196 188 185
0.747030 -0.095666 3.527856 196 188 185
1.061352 -0.121027 5.012246 196 188 185
1.066916 -0.117919 5.038523 196 188 185
1.069052 -0.114405 5.048610 196 188 185
1.071490 -0.110907 5.060121 196 188 185
1.077776 -0.107777 5.089808 196 188 185
1.764931 -0.170301 8.334906 195 187 184
0.663980 -0.059410 3.135650 195 187 184
0.739986 -0.053233 3.494593 195 187 184
0.741041 -0.050709 3.499573 195 187 184
1.059366 -0.065060 5.002865 195 187 184
1.061352 -0.061459 5.012246 195 187 184
1.060174 -0.057672 5.006682 195 187 184
1.059366 -0.053912 5.002865 195 187 184
0.747386 -0.032792 3.529537 195 187 184
0.747555 -0.030177 3.530334 195 186 184
1.091380 -0.040229 5.154051 196 186 184
1.089697 -0.013410 5.146107 195 185 183
1.089382 -0.009585 5.144619 193 185 182
1.076800 0.009411 5.085198 193 185 182
0.655817 0.017234 3.097104 193 185 182
0.899444 0.042566 4.247632 193 185 182
0.683119 0.037121 3.226038 193 185 182
0.661173 0.100867 3.122395 192 184 180
0.674397 0.107615 3.184845 191 183 180
0.623715 0.112655 2.945502 189 181 178
0.467926 0.097647 2.209783 186 178 174
0.469718 0.104612 2.218247 185 178 170
0.470811 0.106507 2.223408 185 178 170
0.470473 0.121283 2.221814 182 175 167
0.471923 0.126623 2.228659 182 175 167
0.472414 0.128412 2.230981 182 175 166
0.470265 0.136075 2.220829 183 174 166
0.471229 0.138007 2.225383 180 171 163
0.694722 0.244888 3.280833 146 156 132
0.696210 0.247855 3.287858 143 153 129
0.440572 0.173846 2.080606 147 156 134
0.388919 0.160285 1.836674 149 159 135
0.389848 0.163403 1.841062 147 157 133
0.579986 0.253270 2.738987 146 156 132
0.615412 0.277375 2.906288 147 157 133
0.616043 0.279821 2.909270 149 159 134
1.533159 0.760931 7.240360 146 154 131
1.549628 0.774540 7.318132 150 158 135
0.550861 0.292724 2.601447 153 161 140
0.551318 0.294901 2.603607 153 161 140
0.551164 0.296752 2.602879 153 161 139
0.599395 -0.642187 2.820757 193 189 185
0.360622 -0.383847 1.697090 193 189 185
0.361570 -0.383592 1.701551 194 188 185
0.362217 -0.383012 1.704594 195 188 186
0.362615 -0.382165 1.706468 196 188 186
0.361753 -0.379992 1.702411 196 188 186
0.851569 -0.891528 4.007488 196 187 186
0.361216 -0.376903 1.699883 197 187 186
0.360981 -0.375396 1.698776 197 187 186
0.849059 -0.879997 3.995674 196 187 186
0.847822 -0.875751 3.989854 195 188 186
0.848187 -0.870198 3.991570 194 190 187
0.851673 -0.858889 4.007974 194 190 187
0.429741 -0.422868 2.022363 192 190 186
0.849032 -0.820613 3.995548 195 189 186
0.843058 -0.811892 3.967434 197 188 186
0.836802 -0.802942 3.937993 198 188 186
0.835922 -0.799176 3.933851 198 188 186
0.854428 -0.804922 4.020940 197 189 186
0.340826 -0.312739 1.603928 199 191 188
0.792521 -0.699508 3.729608 197 189 186
0.813940 -0.712723 3.830406 197 189 187
0.816050 -0.711718 3.840332 197 189 187
0.817088 -0.709767 3.845219 197 189 187
0.816460 -0.706368 3.842265 197 189 187
0.814449 -0.701781 3.832800 197 189 187
0.800798 -0.687219 3.768557 197 189 187
0.790971 -0.670492 3.722312 198 190 188
0.803315 -0.672531 3.780401 199 191 188
0.862673 -0.716195 4.059741 199 191 188
0.852193 -0.704516 4.010423 199 191 188
0.849283 -0.699141 3.996728 199 191 188
0.885019 -0.657408 4.164904 196 189 181
0.885914 -0.654976 4.169114 196 189 181
0.883730 -0.650272 4.158834 196 189 181
0.880126 -0.644544 4.141875 196 189 181
0.878643 -0.640386 4.134897 196 189 183
0.877527 -0.636505 4.129644 197 190 184
0.875084 -0.631675 4.118147 197 190 184
0.874797 -0.628410 4.116796 197 190 184
0.883566 -0.631621 4.158065 197 189 185
0.885049 -0.629587 4.165042 197 189 186
0.875653 -0.607599 4.120826 196 188 185
0.872766 -0.596443 4.107238 196 188 183
0.885196 -0.598749 4.165733 196 189 183
0.887833 -0.597430 4.178145 196 189 182
0.890415 -0.589830 4.190294 196 189 181
2.880949 -1.717067 13.557755 196 188 185
6.011281 -3.456695 28.289106 196 188 185
6.287797 -3.593722 29.590389 196 188 185
7.025764 -3.941824 33.063267 196 188 185
7.235907 -4.034432 34.052197 196 188 185
7.294789 -4.041764 34.329296 196 188 185
7.372534 -4.059069 34.695168 196 188 185
0.746892 -0.390327 3.514874 197 189 186
0.747292 -0.387925 3.516759 197 189 186
0.747732 -0.385539 3.518827 197 189 186
0.394140 -0.200468 1.854823 197 189 186
0.430518 -0.205427 2.026021 196 188 185
0.748046 -0.338635 3.520305 196 188 185
0.745292 -0.334783 3.507348 196 188 185
0.368027 -0.156312 1.731934 197 189 186
0.368089 -0.155052 1.732229 197 189 186
0.746180 -0.303883 3.511523 197 189 186
0.745509 -0.301004 3.508369 197 189 186
1.055128 -0.367004 4.965434 196 189 181
1.055796 -0.363546 4.968581 196 189 181
1.059227 -0.361025 4.984725 196 189 181
0.647837 -0.200427 3.048721 195 188 180
0.469717 -0.138753 2.210491 195 188 180
1.058116 -0.305167 4.979496 196 189 181
1.061977 -0.302568 4.997669 196 189 181
0.472959 -0.106646 2.225746 196 189 180
0.474055 -0.105236 2.230906 196 189 179
0.473003 -0.103349 2.225951 196 189 179
0.475589 -0.102252 2.238124 196 189 181
0.650667 -0.128522 3.062043 196 188 185
0.398270 -0.070315 1.874259 196 188 185
0.398706 -0.068998 1.876310 196 188 185
3.120651 -0.496412 14.685790 196 188 185
3.091213 -0.480924 14.547257 196 188 185
0.748674 -0.108626 3.523263 196 188 185
0.750104 -0.106212 3.529992 196 188 185
0.744008 -0.100147 3.501302 196 188 185
0.741618 -0.097233 3.490057 196 188 185
0.743463 -0.094876 3.498739 196 188 185
0.751163 -0.090608 3.534977 196 188 185
1.051060 -0.115760 4.946291 196 188 185
1.062178 -0.113272 4.998613 196 188 185
1.064188 -0.109766 5.008072 196 188 185
0.739677 -0.055610 3.480923 195 187 184
0.740102 -0.053055 3.482924 195 187 184
0.739677 -0.050439 3.480923 195 187 184
1.052358 -0.064404 4.952401 195 187 184
1.056749 -0.060979 4.973062 195 187 184
1.057225 -0.057311 4.975306 195 187 184
1.056607 -0.053584 4.972394 195 187 184
0.749895 -0.032787 3.529006 195 187 184
0.751480 -0.030230 3.536469 195 186 184
0.750155 -0.027554 3.530231 196 186 184
0.749790 -0.024920 3.528513 196 186 184
1.089617 -0.013362 5.127739 195 185 183
1.089459 -0.009552 5.126998 193 185 182
1.093642 -0.005766 5.146683 193 185 182
1.093454 -0.001943 5.145799 193 185 182
0.658563 0.012642 3.099198 193 185 182
0.655520 0.014875 3.084879 193 185 182
0.658118 0.017234 3.097104 193 185 182
0.732598 0.024306 3.447607 193 185 182
0.736923 0.029601 3.467960 193 185 182
0.734588 0.039779 3.456971 193 185 182
0.732523 0.042227 3.447254 193 185 182
0.663272 0.100833 3.121360 192 184 181
0.668727 0.104000 3.147029 192 184 181
0.626261 0.110530 2.947186 189 181 178
0.625683 0.112615 2.944468 189 181 178
0.469656 0.091099 2.210205 186 178 175
0.468296 0.092472 2.203800 186 178 175
0.468727 0.094196 2.205832 186 178 175
0.470786 0.106129 2.215519 185 178 170
0.473032 0.119863 2.226089 182 175 167
0.473553 0.121650 2.228544 182 175 167
0.470953 0.122628 2.216304 182 175 167
0.472351 0.124644 2.222883 182 175 167
0.473204 0.126523 2.226901 182 175 167
0.471673 0.137654 2.219694 181 171 162
0.688276 0.239362 3.239030 146 155 132
0.687699 0.241565 3.236314 146 156 132
0.691969 0.245484 3.256408 146 155 132
0.582802 0.221016 2.742669 146 155 130
0.582274 0.222851 2.740181 147 157 132
0.439354 0.172759 2.067602 145 155 137
0.760304 0.306933 3.577992 150 159 139
0.390532 0.160387 1.837846 148 155 133
0.391189 0.162024 1.840936 146 154 131
0.390721 0.163196 1.838733 145 153 130
0.616988 0.281427 2.903546 149 159 133
0.392616 0.183201 1.847652 149 159 135
0.532340 0.276311 2.505194 151 159 138
0.601491 -0.642187 2.820757 193 190 185
0.579019 -0.616178 2.715373 193 190 185
0.362113 -0.384091 1.698168 193 189 185
0.363097 -0.383870 1.702782 193 189 185
0.363784 -0.383329 1.706004 195 188 186
0.363996 -0.382284 1.706999 196 188 186
0.363132 -0.380113 1.702949 196 188 186
0.853734 -0.890681 4.003678 196 187 186
0.362360 -0.376780 1.699328 197 187 186
0.362190 -0.375341 1.698528 197 187 186
0.851451 -0.879402 3.992975 196 187 186
0.850783 -0.875748 3.989841 195 188 186
0.852238 -0.871309 3.996664 194 190 187
0.852466 -0.868572 3.997733 192 190 187
0.854663 -0.861880 4.008037 194 190 187
0.854072 -0.858309 4.005264 194 190 187
0.430777 -0.422410 2.020176 193 191 187
0.824508 -0.799878 3.866622 195 191 188
0.847587 -0.813411 3.974855 197 188 186
0.835122 -0.798539 3.916394 198 188 186
0.837388 -0.797789 3.927022 197 188 186
0.340461 -0.312502 1.596631 199 191 188
0.341051 -0.311855 1.599395 199 191 188
0.340968 -0.310592 1.599007 199 191 188
0.341696 -0.310065 1.602422 198 190 187
0.814067 -0.710351 3.817658 198 190 188
0.812716 -0.706341 3.811321 198 190 188
0.810840 -0.701886 3.802522 198 190 188
0.813999 -0.701786 3.817340 198 190 188
0.814753 -0.699597 3.820873 198 190 188
0.804924 -0.688354 3.774781 198 190 188
0.793758 -0.676040 3.722415 198 190 188
0.791563 -0.671414 3.712123 198 190 188
0.793563 -0.670346 3.721503 198 190 188
0.865891 -0.716362 4.060691 199 191 188
0.856526 -0.705631 4.016773 199 191 188
0.656574 -0.502025 3.079078 197 189 186
0.880114 -0.651487 4.127391 196 189 181
0.880869 -0.648978 4.130934 196 189 181
0.879222 -0.644702 4.123210 196 189 182
0.877354 -0.640276 4.114449 196 189 182
0.875152 -0.635620 4.104120 196 189 183
0.875335 -0.632704 4.104982 197 190 184
0.874571 -0.629105 4.101397 197 189 185
0.873633 -0.625388 4.097001 197 189 185
0.875546 -0.623707 4.105969 197 189 185
0.879184 -0.623236 4.123031 197 189 186
0.868028 -0.606257 4.070714 196 188 185
0.870571 -0.605001 4.082641 196 188 185
0.871054 -0.602302 4.084903 196 188 185
0.873035 -0.600631 4.094196 196 188 185
0.876619 -0.590883 4.111002 196 189 183
0.880320 -0.590311 4.128356 196 189 182
0.883296 -0.589230 4.142315 196 189 182
0.885848 -0.581675 4.154280 196 189 181
2.888899 -1.715808 13.547812 196 188 185
2.884651 -1.703236 13.527887 196 188 185
2.841631 -1.667937 13.326140 196 188 185
6.125013 -3.488491 28.723927 196 188 185
6.954976 -3.888516 32.616123 196 188 185
7.309734 -4.061399 34.279804 196 188 185
7.360680 -4.064065 34.518719 196 188 185
7.289467 -3.999355 34.184761 196 188 185
0.747334 -0.389198 3.504707 197 189 186
0.749197 -0.387559 3.513443 197 189 186
0.749206 -0.384954 3.513485 197 189 186
0.748893 -0.382184 3.512014 197 189 186
0.395533 -0.200475 1.854895 197 189 186
0.395259 -0.198960 1.853609 197 189 186
0.427669 -0.204846 2.005599 196 188 185
0.428928 -0.203955 2.011505 196 188 185
0.368870 -0.156124 1.729855 197 189 186
0.368757 -0.154792 1.729326 197 189 186
0.746985 -0.303151 3.503068 197 189 186
0.746312 -0.300279 3.499913 197 189 186
0.470838 -0.140239 2.208045 195 188 180
0.855287 -0.227935 4.010962 196 188 182
0.475406 -0.101857 2.229467 196 189 181
0.475312 -0.100181 2.229026 196 188 182
3.236570 -0.535606 15.178251 196 188 185
3.199291 -0.518293 15.003430 196 188 185
3.128091 -0.495862 14.669526 196 188 185
3.095778 -0.479956 14.517995 196 188 185
0.756779 -0.112056 3.548999 196 188 185
0.736214 -0.098753 3.452555 196 188 185
0.736474 -0.096222 3.453778 196 188 185
0.736214 -0.093624 3.452555 196 188 185
0.755632 -0.088197 3.543621 196 188 185
0.736053 -0.052581 3.451802 195 187 184
0.736667 -0.050059 3.454680 195 187 184
0.735962 -0.047447 3.451376 195 187 184
1.048119 -0.060270 4.915269 195 187 184
1.049801 -0.056710 4.923156 195 187 184
1.049423 -0.053034 4.921385 195 187 184
1.091058 -0.013333 5.116639 195 185 183
1.091734 -0.009539 5.119805 193 185 182
1.092227 -0.005738 5.122117 193 185 182
1.091274 -0.001932 5.117651 193 185 182
1.943805 0.023642 9.115687 193 185 182
0.656008 0.012549 3.076424 193 185 182
0.656506 0.014845 3.078758 193 185 182
0.656599 0.017135 3.079195 193 185 182
0.724187 0.023943 3.396157 193 185 182
0.719500 0.026295 3.374173 193 185 182
0.731155 0.029267 3.428830 193 185 182
0.737461 0.032089 3.458405 193 185 182
0.741087 0.034828 3.475411 193 185 182
0.725606 0.039155 3.402808 193 185 182
0.724823 0.041638 3.399135 193 185 182
0.657191 0.051488 3.081970 193 185 182
0.630077 0.108622 2.954817 189 181 178
0.628305 0.110505 2.946505 189 181 178
0.627696 0.112584 2.943650 189 181 178
0.467732 0.092039 2.193479 187 179 176
0.465502 0.093222 2.183025 187 179 176
0.471505 0.114133 2.211177 185 178 170
0.582632 0.220182 2.732319 148 155 131
0.436285 0.170955 2.046005 143 154 137
0.391289 0.160138 1.834993 150 155 134
1.616235 0.790944 7.579513 167 175 153
1.603239 0.790169 7.518564 165 173 151
0.468231 0.240557 2.195820 114 123 103
0.468586 0.242372 2.197486 103 112 92
0.603586 -0.642187 2.820757 193 190 185
0.581036 -0.616178 2.715373 193 190 185
0.363412 -0.384130 1.698344 193 189 185
0.364441 -0.383953 1.703153 194 188 185
0.364918 -0.383189 1.705382 195 188 186
0.365035 -0.382045 1.705929 196 188 186
0.364337 -0.380049 1.702667 196 188 186
0.856096 -0.890045 4.000821 196 187 186
0.363545 -0.376700 1.698969 197 187 186
0.363286 -0.375171 1.697757 196 187 186
0.853864 -0.878833 3.990390 196 187 186
0.853173 -0.875160 3.987160 195 188 186
0.853282 -0.872309 3.987669 194 189 186
0.856625 -0.872754 4.003294 194 190 187
0.857786 -0.862027 4.008719 194 190 187
0.859276 -0.860541 4.015683 194 190 187
0.828766 -0.801218 3.873098 195 191 188
0.839967 -0.809131 3.925443 195 191 187
0.840222 -0.806460 3.926637 195 189 186
0.838250 -0.801657 3.917418 197 188 186
0.828766 -0.789711 3.873098 198 188 186
0.837990 -0.795591 3.916205 197 188 186
0.341066 -0.313154 1.593915 199 191 188
0.341342 -0.312223 1.595206 199 191 188
0.342030 -0.311665 1.598419 199 191 188
0.341613 -0.310099 1.596470 199 191 188
0.341477 -0.308791 1.595837 198 190 187
0.340849 -0.307039 1.592899 197 189 186
0.577693 -0.516379 2.699749 197 189 186
0.576717 -0.513505 2.695188 197 189 186
0.577457 -0.512160 2.698648 197 189 186
0.343728 -0.303667 1.606354 197 189 186
0.812762 -0.709572 3.798307 197 189 187
0.807239 -0.701948 3.772497 198 190 188
0.803194 -0.695642 3.753590 198 190 188
0.804442 -0.693931 3.759423 198 190 188
0.804655 -0.691321 3.760417 198 190 188
0.804984 -0.688810 3.761957 198 190 188
0.799384 -0.681243 3.735786 198 190 188
0.798518 -0.677734 3.731742 198 190 188
0.796031 -0.672859 3.720116 198 190 188
0.795642 -0.669769 3.718299 198 190 188
0.801069 -0.671557 3.743663 199 191 188
0.802781 -0.670205 3.751661 199 191 188
0.807119 -0.671025 3.771933 199 191 188
0.868483 -0.716012 4.058707 199 191 188
0.876115 -0.652358 4.094376 196 189 181
0.879909 -0.642965 4.112105 196 189 183
0.876712 -0.637586 4.097165 196 189 183
0.875080 -0.633362 4.089540 196 189 183
0.875312 -0.630491 4.090622 197 190 184
0.872217 -0.625234 4.076158 197 189 185
0.871960 -0.622023 4.074957 197 189 186
0.860302 -0.592803 4.020476 196 188 185
0.857961 -0.576299 4.009537 196 189 183
0.861902 -0.575955 4.027956 196 189 183
0.873304 -0.577511 4.081242 196 189 182
2.883321 -1.716559 13.474717 196 188 185
2.877163 -1.702905 13.445934 196 188 185
2.881580 -1.695517 13.466578 196 188 185
2.838226 -1.660156 13.263970 196 188 185
5.994564 -3.402343 28.014585 196 188 185
7.514169 -4.160494 35.116203 196 188 185
7.437842 -4.092414 34.759502 196 188 185
7.365384 -4.026980 34.420883 196 188 185
0.342705 -0.182614 1.601575 196 188 185
0.342555 -0.181345 1.600874 196 188 185
0.751033 -0.389767 3.509825 197 189 186
0.753226 -0.388291 3.520077 197 189 186
0.752952 -0.385536 3.518795 197 189 186
0.751272 -0.382068 3.510946 197 189 186
0.397453 -0.200749 1.857428 197 189 186
0.396963 -0.199124 1.855140 197 189 186
0.389778 -0.192814 1.821563 196 188 185
0.389601 -0.191374 1.820735 196 188 185
0.427537 -0.204072 1.998022 196 188 185
0.428533 -0.203060 2.002677 196 188 185
0.428800 -0.201698 2.003923 196 188 185
0.461858 -0.202819 2.158417 196 188 185
0.752459 -0.319984 3.516488 197 189 186
0.754873 -0.315771 3.527774 197 189 186
0.753075 -0.312404 3.519369 197 189 186
0.855976 -0.224355 4.000258 196 188 184
0.652416 -0.114385 3.048955 196 188 185
3.214533 -0.530113 15.022581 196 188 185
0.760795 -0.112259 3.555449 196 188 185
0.753322 -0.108542 3.520525 196 188 185
0.763082 -0.088757 3.566137 196 188 185
0.764744 -0.086296 3.573904 196 188 185
0.744136 -0.055557 3.477593 195 187 184
0.730837 -0.049490 3.415443 195 187 184
0.734555 -0.047192 3.432818 195 187 184
1.040944 -0.059650 4.864676 195 187 184
1.042218 -0.056105 4.870629 195 187 184
1.081865 -0.013175 5.055913 195 185 183
1.082083 -0.009422 5.056933 193 185 182
1.079532 -0.005652 5.045011 193 185 182
0.715598 0.026061 3.344226 193 185 182
0.724956 0.028919 3.387958 193 185 182
0.729801 0.031645 3.410601 193 185 182
0.718595 0.036148 3.358231 193 185 182
0.704049 0.040304 3.290255 193 185 182
0.649093 0.046171 3.033427 193 185 182
0.648444 0.052877 3.030392 193 185 182
0.888685 0.081722 4.153120 193 185 182
0.714888 0.080629 3.340909 193 185 182
0.472578 0.091030 2.208514 187 179 176
0.474406 0.114436 2.217055 186 179 171
0.472825 0.115696 2.209670 184 177 169
0.471323 0.116965 2.202650 183 176 168
0.475892 0.128010 2.224003 183 175 167
0.792096 0.254309 3.701725 131 133 116
0.436774 0.170552 2.041189 144 155 137
0.424187 0.171527 1.982368 153 159 138
0.610168 0.267912 2.851516 150 158 134
1.588679 0.769246 7.424426 151 159 138
1.581515 0.771267 7.390945 148 156 135
1.577852 0.774958 7.373827 140 148 127
1.568231 0.775675 7.328861 127 135 115
0.470145 0.240702 2.197142 38 49 32
0.470787 0.244299 2.200145 12 23 8
0.555139 0.293852 2.594348 95 101 83
0.554551 0.295466 2.591601 138 141 124
0.558601 0.301501 2.610526 155 156 138
0.605681 -0.642187 2.820757 193 190 185
0.583053 -0.616178 2.715373 193 190 185
0.364853 -0.384320 1.699183 193 189 185
0.365506 -0.383743 1.702221 193 189 185
0.365193 -0.382151 1.700764 195 188 186
0.365170 -0.380865 1.700659 196 188 186
0.364865 -0.379284 1.699238 196 188 186
0.861406 -0.892467 4.011709 196 187 186
0.364450 -0.376331 1.697304 197 187 186
0.364354 -0.374972 1.696858 196 187 186
0.860160 -0.873323 4.005906 194 190 187
0.862366 -0.863631 4.016181 194 190 187
0.863981 -0.862260 4.023705 194 190 187
0.853927 -0.819733 3.976878 196 190 187
0.342390 -0.314467 1.594566 199 191 188
0.342205 -0.313113 1.593707 199 191 188
0.342407 -0.312114 1.594648 199 191 188
0.342611 -0.311114 1.595595 199 191 188
0.342341 -0.309685 1.594338 199 191 188
0.342068 -0.308255 1.593066 198 190 187
0.574624 -0.509872 2.676119 197 189 186
0.809830 -0.704566 3.771511 198 190 187
0.801575 -0.694611 3.733067 199 191 189
0.797946 -0.688706 3.716166 199 191 189
0.797859 -0.685871 3.715761 199 191 189
0.798254 -0.683450 3.717601 199 191 189
0.798705 -0.681073 3.719702 199 191 189
0.796364 -0.676322 3.708800 199 191 189
0.796224 -0.673449 3.708146 199 191 189
0.795446 -0.670039 3.704523 199 191 189
0.796715 -0.668352 3.710434 199 191 188
0.797323 -0.666104 3.713264 199 191 188
0.799026 -0.664762 3.721195 199 191 188
0.861195 -0.707548 4.010727 199 191 188
0.880602 -0.638200 4.101110 196 189 183
0.878747 -0.633815 4.092469 196 189 185
0.878521 -0.630613 4.091416 197 189 185
0.875637 -0.625514 4.077985 197 189 185
0.873049 -0.620645 4.065932 197 189 186
0.840493 -0.577150 3.914316 196 188 185
0.855426 -0.569649 3.983859 196 188 184
2.861295 -1.697554 13.325526 196 188 185
2.852833 -1.682665 13.286118 196 188 185
2.877542 -1.687284 13.401189 196 188 185
2.838687 -1.654682 13.220238 196 188 185
7.433198 -4.101424 34.617638 196 188 185
7.379822 -4.046444 34.369053 196 188 185
7.332808 -3.995300 34.150101 196 188 185
0.340437 -0.183133 1.585470 196 188 185
0.341523 -0.182536 1.590531 196 188 185
0.341986 -0.181600 1.592686 196 188 185
0.341431 -0.180124 1.590101 196 188 185
0.340802 -0.178613 1.587170 196 188 185
0.756440 -0.391215 3.522865 197 189 186
0.758500 -0.389657 3.532460 197 189 186
0.758718 -0.387144 3.533478 197 189 186
0.754255 -0.382257 3.512689 197 189 186
0.398709 -0.200687 1.856856 197 189 186
0.398148 -0.199027 1.854239 197 189 186
0.427744 -0.203465 1.992077 196 188 185
0.428857 -0.202510 1.997256 196 188 185
0.429205 -0.201190 1.998878 196 188 185
0.757888 -0.321178 3.529611 197 189 186
0.757802 -0.318520 3.529209 197 189 186
0.758888 -0.316352 3.534269 197 189 186
0.757129 -0.312999 3.526075 197 189 186
0.759179 -0.308595 3.535625 197 189 186
0.509250 -0.185863 2.371660 197 188 179
0.766567 -0.224091 3.570028 195 188 180
0.767240 -0.221634 3.573162 196 189 181
0.823946 -0.218064 3.837254 196 188 182
0.840493 -0.219535 3.914316 196 188 184
8.917059 -2.174891 41.528217 196 188 185
10.442952 -2.474812 48.634560 196 188 183
0.458308 -0.084831 2.134415 196 188 185
3.254673 -0.534875 15.157551 196 188 185
0.755594 -0.118947 3.518928 196 188 185
0.755019 -0.116245 3.516249 196 188 185
3.075480 -0.462872 14.323022 196 188 185
0.761692 -0.112003 3.547327 196 188 185
0.757462 -0.108761 3.527626 196 188 185
0.767706 -0.088986 3.575334 196 188 185
0.767480 -0.086305 3.574284 196 188 185
0.764864 -0.080719 3.562099 196 188 185
0.743400 -0.055310 3.462137 195 187 184
0.742380 -0.052666 3.457388 195 187 184
1.073231 -0.009312 4.998215 193 185 182
0.641812 0.018853 2.989027 193 185 182
0.640985 0.021046 2.985174 193 185 182
0.711162 0.035650 3.311998 193 185 182
0.699249 0.037472 3.256518 193 185 182
0.697479 0.039790 3.248274 193 185 182
0.674396 0.040806 3.140772 193 185 182
0.668115 0.042737 3.111524 193 185 182
0.644994 0.045720 3.003845 193 185 182
0.730230 0.089652 3.400803 193 185 182
0.739886 0.093397 3.445773 193 185 182
0.670768 0.100915 3.123880 192 184 181
0.477709 0.113182 2.224772 187 180 172
0.475727 0.114358 2.215541 186 179 171
0.478208 0.116609 2.227093 185 178 170
0.564548 0.180626 2.629195 134 136 119
0.585688 0.195494 2.727648 150 155 133
0.427006 0.172070 1.988636 149 155 133
1.566622 0.755942 7.296019 87 95 75
1.559021 0.757667 7.260617 72 80 60
1.560118 0.763597 7.265727 58 66 46
1.557833 0.767867 7.255086 42 49 32
0.474683 0.235617 2.210679 24 31 14
0.474063 0.236949 2.207791 9 16 1
0.480973 0.245394 2.239969 17 28 12
0.481348 0.247250 2.241715 47 58 41
0.482832 0.251353 2.248630 93 103 86
0.607776 -0.642187 2.820757 193 190 185
0.585070 -0.616178 2.715373 193 190 185
0.365725 -0.383910 1.697368 193 189 185
0.366007 -0.382945 1.698681 195 188 185
0.365802 -0.381469 1.697729 195 188 186
0.365933 -0.380344 1.698334 196 188 186
0.365587 -0.378725 1.696731 196 188 186
0.860644 -0.888604 3.994344 196 187 186
0.364047 -0.374619 1.689581 197 187 186
0.364488 -0.373816 1.691627 196 187 186
0.860114 -0.870267 3.991886 194 190 187
0.863389 -0.861675 4.007083 194 190 187
0.864556 -0.859860 4.012502 194 190 187
0.361080 -0.356629 1.675811 194 190 187
0.842343 -0.808729 3.909409 195 191 188
0.843292 -0.806733 3.913812 195 190 187
0.844107 -0.804603 3.917594 196 189 186
0.844081 -0.801668 3.917473 197 188 186
0.827273 -0.762890 3.839464 199 191 188
0.835016 -0.767152 3.875402 199 191 188
0.343363 -0.313090 1.593585 199 191 188
0.343545 -0.312071 1.594429 199 191 188
0.343641 -0.310974 1.594875 199 191 188
