ply
format ascii 1.0
element vertex 1291
property float x
property float y
property float z
property uchar red
property uchar green
property uchar blue
end_header
0.008633 0.031398 2.285949 21 46 68
0.008620 0.033048 2.282648 30 55 76
0.008647 0.034850 2.289687 37 62 82
0.008589 0.036307 2.274409 41 66 87
0.008580 0.037959 2.272134 42 66 89
0.008578 0.039633 2.271370 41 66 89
0.008566 0.041264 2.268284 40 64 89
0.008568 0.042958 2.268775 37 62 88
0.008587 0.044742 2.273815 36 62 90
0.008609 0.046549 2.279577 35 60 90
0.008597 0.048175 2.276397 34 59 89
0.008577 0.049750 2.271101 33 58 88
0.008579 0.051449 2.271632 32 57 87
0.008567 0.053065 2.268589 32 57 86
0.008565 0.054738 2.268107 32 57 84
0.008486 0.055899 2.247054 32 57 83
0.008481 0.057537 2.245852 31 57 82
0.008470 0.059127 2.242877 30 55 79
0.008456 0.060694 2.239211 28 54 77
0.008452 0.062327 2.238124 27 52 76
0.008468 0.064107 2.242247 25 51 74
0.008471 0.065800 2.243197 25 51 74
0.008489 0.067610 2.247961 25 51 74
0.008526 0.069578 2.257638 25 53 74
0.008491 0.070967 2.248513 25 53 73
0.008493 0.072648 2.248872 25 52 72
0.008490 0.074298 2.248251 24 51 70
0.008501 0.076068 2.251212 24 49 69
0.008579 0.078447 2.271665 25 48 69
0.008538 0.079756 2.260957 26 48 69
0.008562 0.081660 2.267200 24 46 67
0.008544 0.083171 2.262486 20 45 65
0.008557 0.084983 2.265981 19 44 64
0.008513 0.086220 2.254319 18 43 63
0.008453 0.087270 2.238318 17 42 62
0.008481 0.089234 2.245901 15 40 60
0.008468 0.090764 2.242478 14 39 59
0.008450 0.092233 2.237712 13 38 58
0.008418 0.093532 2.229049 13 38 57
0.008396 0.094943 2.223318 13 39 57
0.008429 0.096975 2.232088 13 39 56
0.008451 0.098894 2.237992 11 38 55
0.008440 0.100417 2.234907 11 37 54
0.008504 0.102848 2.251787 10 37 54
0.008414 0.103416 2.227988 9 36 53
0.008375 0.104585 2.217672 9 35 51
0.008442 0.107088 2.235539 10 34 48
0.008441 0.108731 2.235185 10 31 43
0.008433 0.110292 2.233165 10 30 41
0.008415 0.111711 2.228390 7 27 38
0.008390 0.113033 2.221840 4 24 35
0.008221 0.113977 2.176841 0 18 27
0.008391 0.122938 2.221897 1 13 19
0.008340 0.127111 2.208379 4 15 19
0.008324 0.128509 2.204226 5 16 20
0.008208 0.133169 2.173388 2 17 24
0.008170 0.147024 2.163472 0 7 13
0.008192 0.149025 2.169218 0 5 10
0.008216 0.151080 2.175603 0 3 8
0.008209 0.152560 2.173660 1 3 8
0.008214 0.154278 2.175124 1 2 7
0.008198 0.155586 2.170836 0 1 6
0.008180 0.156861 2.166171 0 0 4
0.008157 0.158014 2.159943 0 0 4
0.008193 0.160320 2.169442 0 0 4
0.008205 0.162186 2.172850 0 0 4
0.008219 0.164077 2.176517 0 0 4
0.008223 0.165768 2.177493 0 0 4
0.008232 0.167575 2.179963 0 0 4
0.008251 0.169570 2.184805 0 0 4
0.008271 0.171622 2.190284 0 1 5
0.008244 0.172668 2.182945 0 1 5
0.008217 0.173722 2.175834 0 1 6
0.008226 0.175534 2.178271 0 1 6
0.008232 0.177279 2.179828 0 1 6
0.008242 0.179123 2.182569 0 1 6
0.008288 0.181740 2.194594 0 1 6
0.008298 0.183608 2.197444 0 1 6
0.008306 0.185421 2.199586 0 0 7
0.008271 0.186264 2.190284 0 0 8
0.008351 0.189709 2.211477 0 0 6
0.008398 0.192422 2.223847 0 1 6
0.008107 0.188938 2.146727 0 1 6
0.008117 0.190773 2.149443 0 1 5
0.008127 0.192594 2.151951 0 1 5
0.008113 0.193874 2.148415 0 0 4
0.008082 0.194720 2.140179 0 0 4
0.008188 0.198888 2.168287 0 0 2
0.008199 0.200757 2.171082 0 0 2
0.008386 0.206986 2.220609 0 0 1
0.008304 0.208240 2.199020 0 0 1
0.008311 0.210034 2.200702 0 0 2
0.008349 0.212648 2.210886 0 1 5
0.008336 0.213955 2.207419 1 2 6
0.008338 0.215640 2.207886 1 2 7
0.008376 0.218273 2.217977 1 2 7
0.008418 0.222694 2.229252 1 2 6
0.008409 0.224101 2.226776 1 2 6
0.008031 0.220347 2.126694 0 1 3
0.008237 0.229239 2.181244 0 1 3
0.008244 0.231040 2.182945 0 1 3
0.008701 0.252418 2.304085 0 1 5
0.008705 0.254231 2.305005 0 1 5
0.012599 -0.632636 2.787899 215 205 213
0.013303 -0.665823 2.943781 215 205 213
0.012607 -0.628897 2.789683 215 205 213
0.012304 -0.611785 2.722749 215 205 213
0.008605 -0.426454 1.904227 215 205 213
0.008681 -0.428751 1.920853 215 205 213
0.008699 -0.428240 1.924972 215 205 213
0.143255 -7.004977 31.699591 215 205 213
0.011409 -0.544762 2.524610 212 207 213
0.011417 -0.543265 2.526368 211 207 213
0.011408 -0.540943 2.524289 210 208 213
0.012578 -0.594365 2.783228 210 207 212
0.012817 -0.597237 2.836137 215 205 210
0.062173 -2.876695 13.757787 216 205 209
0.063585 -2.931541 14.070071 215 205 209
0.064303 -2.954107 14.229103 215 206 209
0.014280 -0.646637 3.159891 214 205 210
0.014330 -0.646538 3.170917 214 205 209
0.014348 -0.644997 3.174921 214 205 207
0.014350 -0.642713 3.175292 214 205 205
0.014331 -0.639541 3.171255 214 206 203
0.014292 -0.635424 3.162487 214 206 203
0.007995 -0.351533 1.769191 212 204 201
0.008627 -0.376478 1.909005 212 204 201
0.011471 -0.494919 2.538264 212 204 202
0.014395 -0.618723 3.185346 212 204 202
0.014392 -0.613852 3.184624 212 204 202
0.014378 -0.610922 3.181686 212 204 202
0.014345 -0.607154 3.174340 212 204 202
0.014302 -0.602969 3.164752 212 204 202
0.014133 -0.593503 3.127261 212 204 202
0.019296 -0.797680 4.269948 212 204 201
0.019429 -0.796768 4.299250 212 204 201
0.019278 -0.787423 4.265924 212 204 201
0.019361 -0.787608 4.284168 212 204 201
0.019411 -0.786465 4.295302 212 204 201
0.009481 -0.367002 2.098011 214 206 204
0.009495 -0.365992 2.101162 214 206 204
0.010372 -0.391246 2.295081 214 206 204
0.010393 -0.390340 2.299787 214 206 204
0.010407 -0.389155 2.302883 214 206 204
0.010538 -0.385407 2.331952 214 206 204
0.010624 -0.383284 2.350803 214 206 204
0.010817 -0.386720 2.393685 213 205 203
0.010890 -0.383933 2.409668 212 204 202
0.010629 -0.355520 2.351952 212 204 202
0.010656 -0.354677 2.357958 213 205 203
0.010754 -0.354413 2.379704 208 202 202
0.010742 -0.343432 2.377103 160 161 166
0.010747 -0.336503 2.378054 104 115 117
0.010697 -0.333180 2.366993 113 123 126
0.010668 -0.330539 2.360689 118 127 132
0.010634 -0.327729 2.353102 110 120 126
0.010755 -0.329700 2.379941 99 109 118
0.010751 -0.327791 2.378923 93 104 116
0.010657 -0.323169 2.358089 90 102 118
0.010655 -0.321367 2.357714 84 98 116
0.010754 -0.322582 2.379600 76 92 112
0.010766 -0.321180 2.382307 73 91 109
0.010753 -0.319040 2.379542 70 88 105
0.010742 -0.316942 2.377068 71 89 103
0.010697 -0.313841 2.366993 74 92 103
0.010679 -0.311564 2.363058 69 86 95
0.010690 -0.310139 2.365577 63 80 88
0.010651 -0.305486 2.356790 74 90 103
0.010651 -0.303735 2.356790 76 92 105
0.010682 -0.302877 2.363758 76 92 105
0.010684 -0.301166 2.364102 72 88 103
0.010699 -0.299829 2.367417 65 81 96
0.010694 -0.297934 2.366328 58 74 87
0.010762 -0.298070 2.381459 54 71 81
0.010744 -0.295811 2.377520 56 73 82
0.010759 -0.294447 2.380772 59 76 84
0.010711 -0.291367 2.370102 58 75 82
0.010736 -0.288523 2.375675 45 62 70
0.010664 -0.284830 2.359696 40 57 65
0.010758 -0.285584 2.380589 41 58 66
0.010653 -0.281031 2.357236 45 60 67
0.010444 -0.272081 2.310960 37 51 52
0.010413 -0.269587 2.304312 26 40 40
0.010440 -0.268556 2.310169 15 29 29
0.010456 -0.267241 2.313635 21 35 34
0.010585 -0.268809 2.342272 47 61 61
0.010533 -0.265762 2.330811 83 97 99
0.010468 -0.262393 2.316357 111 124 130
0.010534 -0.262330 2.331083 105 115 126
0.010572 -0.261534 2.339448 97 106 122
0.010582 -0.260026 2.341516 87 94 113
0.010593 -0.258553 2.343931 82 88 110
0.010603 -0.257063 2.346218 88 93 113
0.010568 -0.254476 2.338463 96 99 119
0.010553 -0.252393 2.335264 106 107 128
0.010594 -0.251624 2.344262 120 122 139
0.010518 -0.248098 2.327518 121 128 140
0.010545 -0.247004 2.333514 116 122 133
0.010551 -0.245410 2.334832 107 108 123
0.010540 -0.243414 2.332328 97 93 113
0.010563 -0.242202 2.337353 109 100 123
0.010544 -0.240037 2.333185 151 140 162
0.010553 -0.238515 2.335244 191 181 199
0.010572 -0.237192 2.339303 201 193 207
0.010508 -0.234041 2.325266 195 189 201
0.010507 -0.232295 2.325078 197 191 200
0.010566 -0.231863 2.338133 201 195 204
0.010584 -0.230511 2.342043 203 197 204
0.010604 -0.229197 2.346394 203 197 203
0.010511 -0.225458 2.325803 205 199 203
0.010451 -0.222451 2.312510 205 201 202
0.010487 -0.221513 2.320675 201 200 199
0.010522 -0.220503 2.328213 199 200 203
0.010596 -0.220331 2.344779 196 198 205
0.010555 -0.217732 2.335588 186 188 196
0.010550 -0.215908 2.334619 175 176 185
0.010609 -0.215364 2.347591 168 167 176
0.010511 -0.211637 2.325803 170 168 176
0.010536 -0.210417 2.331420 182 180 186
0.010640 -0.210741 2.354391 198 196 199
0.010651 -0.209218 2.356936 207 204 205
0.010659 -0.207621 2.358675 208 204 203
0.010651 -0.205708 2.356830 207 204 201
0.010627 -0.203510 2.351665 206 205 200
0.010624 -0.201690 2.350803 205 205 200
0.010521 -0.196285 2.328127 205 206 201
0.010443 -0.179386 2.310909 208 203 203
0.010402 -0.173542 2.301697 209 203 200
0.010428 -0.172263 2.307475 211 203 199
0.010406 -0.165062 2.302652 211 203 195
0.010335 -0.162234 2.286892 212 203 195
0.010306 -0.160094 2.280605 213 203 193
0.010374 -0.157737 2.295620 213 203 193
0.010629 -0.154622 2.351980 213 202 196
0.010647 -0.153133 2.355951 212 201 196
0.010622 -0.151028 2.350427 212 201 197
0.010625 -0.149331 2.351186 212 201 197
0.010627 -0.147613 2.351643 212 201 199
0.010629 -0.145889 2.352002 212 201 199
0.010628 -0.144134 2.351882 212 201 199
0.010637 -0.142496 2.353669 212 200 199
0.009946 -0.128340 2.200863 208 199 197
0.009844 -0.123793 2.178384 208 200 197
0.009809 -0.113678 2.170618 207 199 196
0.009758 -0.111479 2.159244 207 199 196
0.010701 -0.118735 2.367925 207 199 196
0.010676 -0.116701 2.362345 207 199 196
0.009879 -0.094997 2.185941 205 198 196
0.009920 -0.093764 2.195080 204 197 194
0.009892 -0.091871 2.188819 203 196 193
0.010705 -0.097668 2.368858 204 198 191
0.010713 -0.095978 2.370582 206 202 193
0.010723 -0.094304 2.372761 209 208 201
0.010705 -0.092389 2.368858 184 188 186
0.010686 -0.090469 2.364666 128 141 146
0.010757 -0.089299 2.380280 73 93 107
0.010706 -0.087116 2.368991 44 73 91
0.010716 -0.085434 2.371159 42 76 97
0.010738 -0.083848 2.376132 47 78 103
0.010748 -0.082160 2.378359 41 65 95
0.010783 -0.080651 2.385967 35 57 87
0.010792 -0.078946 2.388016 29 53 83
0.010825 -0.077413 2.395444 29 53 81
0.010849 -0.075802 2.400789 28 52 80
0.010827 -0.073866 2.395815 27 51 79
0.010846 -0.072214 2.400053 28 52 80
0.010838 -0.070379 2.398286 32 55 83
0.010841 -0.068617 2.398948 37 58 85
0.010844 -0.066855 2.399670 42 63 89
0.010843 -0.065066 2.399414 44 67 90
0.010827 -0.063187 2.395781 40 65 87
0.010793 -0.061214 2.388208 36 62 81
0.010836 -0.059678 2.397786 32 60 76
0.010748 -0.057427 2.378324 32 61 75
0.010680 -0.055309 2.363273 37 65 80
0.010764 -0.052206 2.381907 52 75 90
0.010793 -0.050572 2.388279 37 58 70
0.010647 -0.048139 2.356025 12 27 37
0.010362 -0.043444 2.292943 0 4 10
0.010522 -0.042386 2.328376 0 4 9
0.010496 -0.040554 2.322494 0 3 8
0.010498 -0.038835 2.322906 3 5 12
0.010501 -0.037123 2.323730 44 44 52
0.010548 -0.035556 2.334148 150 140 151
0.010761 -0.030968 2.381308 227 216 221
0.010760 -0.029194 2.380878 208 208 207
0.010740 -0.027377 2.376658 178 182 178
0.010738 -0.025605 2.376052 105 109 104
0.010721 -0.023803 2.372291 28 31 27
0.010605 -0.021802 2.346586 0 3 0
0.010607 -0.020063 2.347068 0 4 2
0.010557 -0.018233 2.336002 1 6 5
0.010614 -0.013099 2.348777 0 7 9
0.010553 -0.011289 2.335174 0 7 11
0.010575 -0.009574 2.340023 0 7 12
0.010659 -0.007898 2.358671 0 7 13
0.010622 -0.006125 2.350440 0 7 13
0.010618 -0.004378 2.349672 0 7 13
0.010601 -0.002628 2.345720 0 6 12
0.010631 -0.000888 2.352425 0 6 10
0.010598 0.000857 2.345178 0 7 9
0.010617 0.002603 2.349425 0 9 10
0.010616 0.004348 2.349213 2 12 12
0.010602 0.006085 2.346097 5 14 15
0.010569 0.007803 2.338758 5 15 16
0.010543 0.009516 2.332916 3 15 16
0.010535 0.011241 2.331212 2 16 18
0.010539 0.012978 2.332178 2 19 24
0.010542 0.014713 2.332701 2 21 29
0.010483 0.016354 2.319695 4 24 34
0.010414 0.017959 2.304479 5 28 40
0.010390 0.019625 2.299131 3 27 41
0.010369 0.021288 2.294380 1 24 40
0.010370 0.022995 2.294679 3 26 42
0.010382 0.024728 2.297301 9 32 47
0.010351 0.026355 2.290375 12 34 50
0.010373 0.028117 2.295323 16 38 57
0.010331 0.029702 2.286101 22 45 67
0.010316 0.031353 2.282680 28 52 75
0.010293 0.032976 2.277707 35 60 83
0.010287 0.034645 2.276221 42 65 89
0.010276 0.036299 2.273894 45 67 91
0.010274 0.037980 2.273403 42 65 90
0.010272 0.039662 2.273063 39 63 90
0.010276 0.041367 2.273940 36 61 88
0.010262 0.042996 2.270786 33 60 87
0.010262 0.044684 2.270829 33 60 89
0.010254 0.046332 2.268934 33 60 89
0.010259 0.048042 2.270133 33 59 89
0.010260 0.049735 2.270422 33 59 89
0.010257 0.051403 2.269632 33 58 89
0.010190 0.052746 2.254953 33 58 89
0.010173 0.054326 2.251043 32 57 86
0.010118 0.055695 2.238832 30 56 83
0.010101 0.057262 2.235107 30 56 82
0.010128 0.059078 2.241032 30 56 82
0.010153 0.060893 2.246566 29 55 82
0.010129 0.062419 2.241453 29 55 80
0.010140 0.064148 2.243686 28 55 79
0.010133 0.065775 2.242342 28 55 79
0.010113 0.067301 2.237712 28 56 79
0.010144 0.069181 2.244783 28 56 78
0.010138 0.070805 2.243387 27 55 77
0.010126 0.072385 2.240728 26 54 76
0.010154 0.074255 2.246933 25 53 74
0.010192 0.076207 2.255333 24 51 72
0.010191 0.077873 2.255043 24 49 71
0.010178 0.079448 2.252223 24 49 70
0.010195 0.081252 2.255867 22 47 67
0.010195 0.082933 2.256010 20 45 65
0.010179 0.084470 2.252314 19 44 64
0.010159 0.085980 2.248046 19 44 64
0.010150 0.087574 2.246111 17 43 62
0.010150 0.089239 2.246014 16 42 61
0.010135 0.090768 2.242583 15 41 61
0.010139 0.092474 2.243548 15 40 61
0.010078 0.093578 2.230153 15 40 61
0.010026 0.094735 2.218466 17 40 60
0.010084 0.096941 2.231309 16 40 59
0.010110 0.098853 2.237070 15 39 57
0.010156 0.100979 2.247397 14 38 56
0.010117 0.102251 2.238701 12 37 54
0.010101 0.103754 2.235269 11 36 52
0.010079 0.105178 2.230244 11 35 50
0.010119 0.107264 2.239211 12 34 48
0.010119 0.108927 2.239211 11 31 44
0.010123 0.110628 2.239969 10 29 42
0.010119 0.112253 2.239211 8 27 39
0.010136 0.114108 2.242969 5 24 36
0.010056 0.123122 2.225231 1 16 23
0.010070 0.124952 2.228390 2 16 21
0.010103 0.127020 2.235644 2 17 21
0.009948 0.143054 2.201307 2 19 24
0.010032 0.147562 2.219926 2 15 18
0.010045 0.149395 2.222661 3 14 18
0.009775 0.146991 2.162985 1 11 16
0.009927 0.152538 2.196599 0 7 12
0.009887 0.153558 2.187893 0 7 10
0.009836 0.154374 2.176477 0 5 9
0.009831 0.155908 2.175320 0 3 7
0.009780 0.156709 2.164071 0 1 4
0.009780 0.158328 2.164234 0 0 3
0.009840 0.160902 2.177308 0 0 3
0.009837 0.162473 2.176694 0 0 3
0.009854 0.164378 2.180510 0 0 3
0.009885 0.166521 2.187387 0 0 3
0.009871 0.167910 2.184318 0 0 3
0.009918 0.170336 2.194674 0 0 4
0.009893 0.171533 2.189145 0 1 5
0.009929 0.173781 2.197016 0 1 5
0.009869 0.174368 2.183921 0 1 5
0.009806 0.174860 2.169896 0 1 6
0.009800 0.176363 2.168566 0 1 6
0.009806 0.178089 2.169963 0 0 6
0.009845 0.180407 2.178497 0 0 6
0.009861 0.182330 2.182143 0 0 6
0.009866 0.184030 2.183087 0 0 6
0.009852 0.185389 2.179992 0 0 6
0.009886 0.187651 2.187487 0 0 5
0.009949 0.190487 2.201489 0 1 5
0.009656 0.188053 2.136679 0 1 5
0.009687 0.190241 2.143448 0 1 5
0.009703 0.192162 2.147121 0 1 4
0.009713 0.193959 2.149357 0 0 3
0.009760 0.196506 2.159805 0 0 4
0.009840 0.199724 2.177398 0 0 2
0.009933 0.204872 2.197924 0 0 0
0.009990 0.207685 2.210491 0 1 0
0.009940 0.208280 2.199438 0 1 0
0.009941 0.209939 2.199701 0 1 2
0.009965 0.212098 2.205164 0 1 5
0.009944 0.213278 2.200434 1 2 6
0.009969 0.215451 2.205949 1 2 7
0.009528 0.218440 2.108284 0 1 3
0.009736 0.226406 2.154287 0 1 3
0.010279 0.245797 2.274495 0 1 3
0.010305 0.248109 2.280209 0 1 5
0.010324 0.250273 2.284503 0 1 5
0.010317 0.251795 2.282923 0 1 5
0.010309 0.253289 2.281109 0 1 5
0.010284 0.261142 2.275709 0 1 5
0.010263 0.262278 2.270917 0 1 4
0.014670 -0.632636 2.787899 215 205 213
0.015490 -0.665823 2.943781 215 205 213
0.014679 -0.628897 2.789683 215 205 213
0.014327 -0.611785 2.722749 215 205 213
0.010031 -0.426915 1.906284 215 205 213
0.010107 -0.428754 1.920869 215 205 213
0.010129 -0.428225 1.924905 215 205 213
0.166800 -7.004977 31.699591 215 205 213
0.080789 -3.324394 15.353504 212 207 213
0.013280 -0.544574 2.523737 212 207 213
0.013284 -0.542887 2.524610 211 207 213
0.013264 -0.540187 2.520762 210 208 213
0.014889 -0.595872 2.829654 215 205 210
0.072253 -2.871148 13.731261 216 205 209
0.073835 -2.923599 14.031953 215 205 209
0.074739 -2.948834 14.203706 215 206 209
0.016634 -0.646909 3.161221 214 205 210
0.016680 -0.646355 3.170017 214 205 209
0.016694 -0.644543 3.172687 214 205 207
0.016700 -0.642391 3.173697 214 205 205
0.016678 -0.639184 3.169485 214 206 203
0.012015 -0.457106 2.283446 214 206 203
0.009969 -0.373634 1.894587 212 204 201
0.013353 -0.494800 2.537655 212 204 202
0.016736 -0.617808 3.180635 212 204 202
0.016747 -0.613482 3.182704 212 204 202
0.016728 -0.610411 3.179025 212 204 202
0.016667 -0.605840 3.167473 212 204 202
0.016546 -0.599097 3.144427 212 204 202
0.022343 -0.793238 4.246170 212 204 201
0.022554 -0.797543 4.286254 212 204 201
0.022475 -0.791569 4.271199 212 204 201
0.022407 -0.782853 4.258304 212 204 201
0.010985 -0.365189 2.087647 214 206 204
0.011030 -0.365117 2.096136 214 206 204
0.011064 -0.364690 2.102650 214 206 204
0.012082 -0.391414 2.296064 214 206 204
0.012103 -0.390383 2.300036 214 206 204
0.012108 -0.388855 2.301105 214 206 204
0.013050 -0.393305 2.480051 211 203 201
0.013476 -0.396633 2.561014 209 203 203
0.013371 -0.391674 2.541176 209 203 203
0.012389 -0.340154 2.354418 149 150 158
0.012465 -0.335202 2.368858 100 112 118
0.012470 -0.328310 2.369908 97 107 120
0.012434 -0.325592 2.362963 92 103 118
0.012355 -0.321793 2.348050 86 99 116
0.012323 -0.319221 2.341976 79 93 113
0.012391 -0.319226 2.354840 78 94 115
0.012479 -0.319744 2.371660 80 97 116
0.012471 -0.317770 2.370073 77 94 111
0.012439 -0.315204 2.364033 75 92 107
0.012418 -0.312907 2.359953 76 94 105
0.012423 -0.309522 2.360869 65 82 93
0.012401 -0.303732 2.356765 66 82 95
0.012392 -0.301761 2.355042 63 79 92
0.012418 -0.300641 2.359985 59 75 90
0.012414 -0.298788 2.359190 55 71 86
0.012439 -0.297645 2.364033 53 69 82
0.012403 -0.295016 2.357054 52 68 81
0.012410 -0.293443 2.358485 56 73 82
0.012396 -0.287851 2.355735 55 70 77
0.012390 -0.285962 2.354588 46 60 69
0.012421 -0.284926 2.360490 40 55 64
0.012399 -0.282673 2.356329 40 55 64
0.012270 -0.278000 2.331815 43 58 65
0.012185 -0.274370 2.315794 43 57 62
0.012156 -0.271988 2.310169 31 45 47
0.012096 -0.268944 2.298817 13 27 29
0.012150 -0.268420 2.308996 8 22 23
0.012271 -0.269362 2.332003 29 43 44
0.012317 -0.268630 2.340712 67 81 82
0.012220 -0.264807 2.322435 103 117 120
0.012263 -0.264003 2.330564 123 136 143
0.012315 -0.263371 2.340331 113 123 134
0.012313 -0.261603 2.340069 84 93 109
0.012311 -0.259810 2.339571 56 63 82
0.012331 -0.258508 2.343523 45 51 71
0.012348 -0.257123 2.346770 47 51 71
0.012291 -0.254191 2.335840 52 55 76
0.012298 -0.252610 2.337266 62 63 83
0.012276 -0.250418 2.333020 73 75 91
0.012275 -0.248662 2.332806 79 83 92
0.012268 -0.246792 2.331510 88 91 98
0.012266 -0.245018 2.331106 93 90 100
0.012278 -0.243530 2.333438 94 85 102
0.012294 -0.242098 2.336344 118 104 125
0.012298 -0.240450 2.337194 165 149 171
0.012286 -0.238473 2.334832 201 186 206
0.012354 -0.238059 2.347853 206 195 212
0.012230 -0.232218 2.324305 191 185 197
0.012303 -0.231867 2.338176 197 193 203
0.012271 -0.229533 2.332105 200 196 205
0.012283 -0.228023 2.334379 201 196 203
0.012200 -0.224752 2.318518 203 199 204
0.012225 -0.223494 2.323353 203 201 202
0.012252 -0.222248 2.328376 201 200 199
0.012263 -0.220718 2.330485 201 202 204
0.012257 -0.218890 2.329445 200 203 208
0.012276 -0.217485 2.332933 194 197 204
0.012274 -0.215714 2.332527 187 188 195
0.012336 -0.215074 2.344434 177 176 184
0.012257 -0.211968 2.329436 171 170 178
0.012234 -0.209844 2.325078 177 175 183
0.012330 -0.209741 2.343211 193 191 198
0.012357 -0.208464 2.348439 205 202 207
0.012403 -0.207486 2.357145 208 204 208
0.012392 -0.205551 2.355034 208 205 206
0.012391 -0.203794 2.354945 207 206 204
0.012308 -0.200681 2.339048 206 206 204
0.012205 -0.195566 2.319593 206 206 205
0.012223 -0.194118 2.322884 206 206 205
0.012154 -0.179294 2.309726 208 203 203
0.012107 -0.173476 2.300822 209 203 200
0.012117 -0.171909 2.302723 209 203 200
0.012128 -0.165220 2.304858 211 203 196
0.012006 -0.161864 2.281686 211 203 195
0.011975 -0.159756 2.275790 212 203 194
0.011859 -0.156537 2.253785 213 203 194
0.011992 -0.156599 2.279055 213 203 194
0.011983 -0.154792 2.277366 213 203 194
0.012364 -0.154469 2.349655 213 202 196
0.012359 -0.152663 2.348721 212 201 196
0.012351 -0.150818 2.347160 212 201 197
0.012349 -0.149055 2.346850 212 201 197
0.012351 -0.147339 2.347278 212 201 199
0.012347 -0.145547 2.346492 212 201 199
0.012350 -0.143834 2.346981 212 201 199
0.012366 -0.142285 2.350192 212 200 199
0.011408 -0.124818 2.168077 208 200 197
0.011435 -0.120272 2.173237 208 200 197
0.012406 -0.118223 2.357714 207 199 196
0.012400 -0.116418 2.356615 207 199 196
0.012369 -0.114377 2.350662 207 199 196
0.011471 -0.094737 2.179953 201 196 193
0.011554 -0.092159 2.195700 202 198 195
0.012440 -0.097477 2.364231 204 200 196
0.012468 -0.095933 2.369470 204 203 200
0.012461 -0.094121 2.368158 194 197 195
0.012445 -0.092242 2.365077 148 156 159
0.012433 -0.090397 2.362766 86 100 109
0.012512 -0.089205 2.377797 52 73 88
0.012490 -0.087284 2.373574 47 76 94
0.012466 -0.085362 2.369158 45 77 97
0.012492 -0.083775 2.374050 37 67 91
0.012518 -0.082183 2.379021 32 56 84
0.012549 -0.080612 2.384826 26 48 76
0.012567 -0.078957 2.388335 21 45 72
0.012576 -0.077237 2.390020 21 45 71
0.012558 -0.075355 2.386641 20 44 70
0.012565 -0.073622 2.387903 18 42 68
0.012562 -0.071834 2.387435 19 43 68
0.012589 -0.070207 2.392415 22 45 71
0.012605 -0.068520 2.395571 26 47 74
0.012616 -0.066797 2.397610 31 53 79
0.012603 -0.064948 2.395066 34 58 82
0.012582 -0.063066 2.391168 35 60 83
0.012569 -0.061224 2.388614 34 59 79
0.012560 -0.059407 2.386893 31 57 73
0.012518 -0.057443 2.378977 29 57 71
0.012436 -0.055312 2.363437 31 58 73
0.012579 -0.050619 2.390513 27 48 60
0.012359 -0.047991 2.348777 7 22 32
0.012005 -0.043226 2.281452 0 3 10
0.012175 -0.042120 2.313759 0 4 9
0.012226 -0.040572 2.323557 3 8 12
0.012198 -0.038756 2.318183 17 21 28
0.012201 -0.037044 2.318758 74 73 81
0.012260 -0.035492 2.329943 184 173 185
0.012303 -0.033880 2.338133 242 225 237
0.012278 -0.032079 2.333438 234 217 227
0.012504 -0.030903 2.376345 224 214 219
0.012501 -0.029130 2.375675 208 208 207
0.012472 -0.027303 2.370222 139 145 140
0.012497 -0.025594 2.375020 41 48 41
0.012365 -0.023577 2.349857 7 13 7
0.012334 -0.021777 2.343931 0 6 1
0.012281 -0.019951 2.333961 0 7 4
0.012189 -0.018081 2.316525 0 6 4
0.012182 -0.016351 2.315172 1 8 9
0.012146 -0.014588 2.308287 0 8 10
0.012393 -0.013135 2.355196 0 7 9
0.012252 -0.011256 2.328464 0 8 11
0.012363 -0.009613 2.349537 0 7 11
0.012355 -0.007862 2.347935 0 7 13
0.012345 -0.006114 2.346074 0 7 12
0.012261 -0.004341 2.330062 0 7 12
0.012342 -0.002628 2.345476 0 7 12
0.012316 -0.000884 2.340511 1 6 11
0.012214 0.000848 2.321136 0 5 9
0.012279 0.002586 2.333556 0 7 8
0.012281 0.004320 2.333939 2 9 9
0.012299 0.006062 2.337320 5 11 12
0.012254 0.007770 2.328895 4 11 12
0.012234 0.009484 2.325078 2 11 14
0.012224 0.011202 2.323161 1 13 16
0.012235 0.012939 2.325241 1 16 22
0.012236 0.014667 2.325315 1 19 28
0.012191 0.016334 2.316844 2 23 34
0.012108 0.017932 2.301085 4 26 39
0.012106 0.019638 2.300672 2 26 40
0.012117 0.021366 2.302714 0 24 40
0.012079 0.023004 2.295546 4 28 44
0.012039 0.024628 2.287999 12 34 51
0.012105 0.026471 2.300456 16 37 56
0.012069 0.028097 2.293702 21 42 63
0.012049 0.029750 2.289806 26 50 71
0.012025 0.031388 2.285281 30 55 78
0.011970 0.032936 2.274932 36 60 84
0.011967 0.034617 2.274318 41 64 88
0.011968 0.036309 2.274547 43 65 89
0.011976 0.038021 2.275897 41 64 89
0.011975 0.039709 2.275750 38 63 90
0.011961 0.041353 2.273184 35 61 88
0.011934 0.042942 2.267953 33 60 87
0.011857 0.044339 2.253341 32 60 89
0.011871 0.046068 2.256010 31 60 89
0.011918 0.047933 2.264987 32 60 90
0.011930 0.049665 2.267248 33 59 90
0.011899 0.051215 2.261311 33 59 91
0.011860 0.052722 2.253948 33 59 90
0.011803 0.054135 2.243126 31 58 87
0.011757 0.055583 2.234342 30 56 84
0.011758 0.057246 2.234490 30 56 83
0.011813 0.059182 2.244966 30 56 83
0.011823 0.060902 2.246907 30 56 83
0.011799 0.062447 2.242432 29 56 83
0.011802 0.064126 2.242923 29 57 82
0.011765 0.065588 2.235954 29 57 81
0.011759 0.067214 2.234807 29 57 81
0.011783 0.069010 2.239211 29 57 81
0.011799 0.070772 2.242342 28 56 79
0.011811 0.072514 2.244715 27 55 77
0.011925 0.076575 2.266211 24 52 74
0.011841 0.077709 2.250300 23 51 73
0.011839 0.079367 2.249915 22 50 71
0.011901 0.081461 2.261666 21 48 68
0.011850 0.082786 2.252017 20 45 65
0.011803 0.084123 2.243066 20 45 65
0.011805 0.085806 2.243507 19 44 64
0.011817 0.087559 2.245714 18 44 63
0.011808 0.089163 2.244116 16 43 62
0.011766 0.090503 2.236023 16 42 63
0.011783 0.092295 2.239211 17 42 64
0.011702 0.093314 2.223870 18 42 64
0.011692 0.094885 2.221965 20 41 64
0.011722 0.096783 2.227659 20 41 62
0.011783 0.098948 2.239211 19 39 60
0.011753 0.100358 2.233578 17 38 57
0.011754 0.102028 2.233817 15 37 54
0.011762 0.103757 2.235328 13 36 50
0.011705 0.104905 2.224459 13 36 49
0.011710 0.106602 2.225402 14 34 48
0.011714 0.108296 2.226238 13 31 47
0.011731 0.110106 2.229402 12 29 45
0.011720 0.111655 2.227270 9 26 42
0.011721 0.113326 2.227600 6 24 38
0.011711 0.114880 2.225652 3 21 35
0.011755 0.116971 2.234013 1 19 31
0.011720 0.123238 2.227313 1 18 27
0.011708 0.124769 2.225128 1 18 26
0.011695 0.126282 2.222661 1 18 26
0.011711 0.128105 2.225652 1 18 26
0.011703 0.132975 2.224155 0 18 25
0.011708 0.134679 2.225010 0 19 25
0.011730 0.136591 2.229252 0 19 25
0.011747 0.138449 2.232498 0 19 25
0.011628 0.140325 2.209828 0 19 25
0.011717 0.148018 2.226776 1 18 22
0.011705 0.149516 2.224459 2 17 22
0.011500 0.148521 2.185508 1 16 21
0.011453 0.149530 2.176565 1 15 20
0.011483 0.151547 2.182336 1 13 19
0.011471 0.153010 2.180076 0 13 18
0.011448 0.154313 2.175618 1 12 17
0.011427 0.155644 2.171642 1 11 13
0.011449 0.157567 2.175921 0 8 7
0.011451 0.159201 2.176167 0 7 5
0.011453 0.160852 2.176632 0 6 4
0.011430 0.162143 2.172264 0 4 3
0.011443 0.163945 2.174767 0 3 3
0.011461 0.165819 2.178169 0 3 4
0.011465 0.167495 2.178922 0 2 3
0.011466 0.169125 2.179080 0 2 4
0.011496 0.171190 2.184775 0 2 4
0.011476 0.172518 2.181044 0 2 5
0.011506 0.174590 2.186700 0 1 5
0.011385 0.174352 2.163595 0 0 5
0.011387 0.175993 2.164014 0 0 5
0.011387 0.177600 2.164014 0 0 5
0.011417 0.179688 2.169811 1 0 6
0.011436 0.181593 2.173323 1 0 6
0.011461 0.183611 2.178109 1 1 5
0.011424 0.184636 2.171141 0 1 4
0.011435 0.186423 2.173175 0 1 4
0.011478 0.188737 2.181260 0 1 4
0.011306 0.189106 2.148636 0 1 4
0.011235 0.189508 2.135191 0 1 4
0.011247 0.191291 2.137386 0 1 3
0.011323 0.194190 2.151925 0 0 2
0.011433 0.197685 2.172772 0 0 2
0.011413 0.198955 2.169017 0 0 1
0.011437 0.200989 2.173596 0 0 1
0.011518 0.204028 2.188877 0 0 0
0.011498 0.205310 2.185219 0 0 0
0.011540 0.207680 2.193102 0 0 0
0.011522 0.208987 2.189727 0 0 2
0.011582 0.211708 2.201105 0 1 4
0.011589 0.213478 2.202506 0 1 6
0.011579 0.214927 2.200587 0 1 6
0.011629 0.217484 2.209957 0 1 6
0.011604 0.218653 2.205198 0 1 6
0.011000 0.216591 2.090446 0 1 3
0.011860 0.243571 2.253896 0 1 3
0.011916 0.246400 2.264504 0 1 5
0.011891 0.247573 2.259863 0 1 5
0.011885 0.249132 2.258777 0 1 5
0.011868 0.258824 2.255512 0 1 4
0.011854 0.260191 2.252841 0 1 3
0.016740 -0.632636 2.787899 215 205 213
0.017676 -0.665823 2.943781 215 205 213
0.016751 -0.628897 2.789683 215 205 213
0.016349 -0.611785 2.722749 215 205 213
0.011449 -0.427010 1.906710 215 205 213
0.011527 -0.428499 1.919726 215 205 213
0.011562 -0.428346 1.925446 215 205 213
0.190346 -7.004977 31.699591 215 205 213
0.091091 -3.284675 15.170065 212 207 213
0.015154 -0.544554 2.523647 212 207 213
0.015154 -0.542699 2.523737 211 207 213
0.015125 -0.539799 2.518953 210 208 213
0.016982 -0.597645 2.828099 214 206 211
0.016974 -0.595258 2.826737 215 205 210
0.084471 -2.931005 14.067495 215 205 209
0.084985 -2.938328 14.153099 215 206 209
0.018987 -0.647060 3.161956 214 205 210
0.019039 -0.646485 3.170654 214 205 209
0.019059 -0.644811 3.174009 214 205 207
0.019073 -0.642916 3.176291 214 205 205
0.019051 -0.639823 3.172655 214 206 203
0.013729 -0.457709 2.286457 214 206 203
0.019129 -0.618789 3.185689 212 204 202
0.019087 -0.610333 3.178617 212 204 202
0.018892 -0.601766 3.146170 212 204 202
0.018752 -0.594983 3.122833 212 204 202
0.025520 -0.781333 4.250034 212 204 201
0.012557 -0.364270 2.091277 214 206 204
0.015277 -0.439376 2.544158 214 206 204
0.015270 -0.437280 2.542956 214 206 204
0.015249 -0.434790 2.539445 214 206 204
0.014649 -0.397757 2.439566 214 206 204
0.015197 -0.408883 2.530865 212 204 202
0.015085 -0.404005 2.512225 211 203 201
0.014876 -0.394721 2.477375 211 203 201
0.014826 -0.391556 2.469022 211 203 201
0.015238 -0.394910 2.537714 210 202 200
0.015236 -0.392973 2.537379 208 201 200
0.015226 -0.381417 2.535728 202 196 197
0.015284 -0.380978 2.545382 198 195 196
0.014346 -0.339843 2.389117 103 116 126
0.014241 -0.335599 2.371660 102 115 126
0.014387 -0.333698 2.395955 101 113 126
0.014229 -0.328265 2.369584 86 98 113
0.014241 -0.326791 2.371660 81 94 110
0.014115 -0.320396 2.350594 81 96 116
0.014034 -0.316842 2.337252 87 103 123
0.014139 -0.317454 2.354675 90 107 126
0.014202 -0.317110 2.365153 84 101 118
0.014222 -0.315806 2.368547 77 94 109
0.014180 -0.313113 2.361501 76 94 105
0.014197 -0.311722 2.364256 71 89 98
0.014377 -0.312129 2.394320 66 83 94
0.014147 -0.301893 2.356071 50 66 79
0.014130 -0.299764 2.353102 48 64 79
0.014170 -0.298867 2.359817 49 65 80
0.014111 -0.295883 2.350037 51 67 80
0.014075 -0.291632 2.343931 56 73 81
0.014380 -0.296187 2.394840 57 73 81
0.014191 -0.288772 2.363273 51 66 74
0.014180 -0.285048 2.361501 37 51 60
0.014095 -0.281588 2.347278 34 48 57
0.013938 -0.276727 2.321136 34 48 56
0.013863 -0.273534 2.308738 35 48 55
0.013838 -0.271324 2.304526 21 34 40
0.013835 -0.269547 2.303975 6 20 23
0.013981 -0.270663 2.328294 9 23 26
0.013892 -0.267231 2.313548 43 57 59
0.013962 -0.266845 2.325161 90 104 106
0.013947 -0.264841 2.322736 120 133 138
0.014062 -0.265283 2.341865 128 141 149
0.014078 -0.263846 2.344554 109 120 131
0.014087 -0.262265 2.345989 69 78 93
0.014080 -0.260388 2.344775 38 45 63
0.014088 -0.258805 2.346218 32 38 57
0.014092 -0.257124 2.346782 34 38 58
0.014075 -0.255071 2.343931 38 41 60
0.014037 -0.252659 2.337720 47 49 68
0.014017 -0.250564 2.334379 57 58 72
0.013985 -0.248265 2.329078 74 76 81
0.013975 -0.246351 2.327340 96 95 97
0.014006 -0.245161 2.332470 106 99 106
0.014015 -0.243589 2.334008 112 98 111
0.014041 -0.242299 2.338290 144 124 144
0.014003 -0.239919 2.332034 196 175 197
0.014048 -0.238944 2.339448 228 210 230
0.014160 -0.239107 2.358192 231 218 235
0.014151 -0.237205 2.356700 200 191 207
0.014049 -0.232014 2.339657 195 192 204
0.013994 -0.229381 2.330555 198 196 206
0.013887 -0.225904 2.312686 198 196 204
0.013939 -0.223298 2.321315 201 199 202
0.013916 -0.221206 2.317452 200 199 200
0.013987 -0.220619 2.329436 198 200 201
0.013991 -0.218942 2.330001 196 200 204
0.013956 -0.216665 2.324142 197 200 205
0.013991 -0.215489 2.330094 195 198 203
0.014004 -0.213951 2.332196 188 188 195
0.013976 -0.211801 2.327603 177 176 186
0.013975 -0.210043 2.327281 178 175 186
0.013988 -0.208510 2.329463 192 189 199
0.014008 -0.207082 2.332863 204 201 210
0.014066 -0.206200 2.342539 208 205 212
0.014096 -0.204887 2.347425 208 205 210
0.014047 -0.202447 2.339373 208 205 209
0.013949 -0.199308 2.323039 207 206 209
0.013939 -0.197445 2.321424 207 206 209
0.013907 -0.195270 2.316079 207 206 209
0.013866 -0.192976 2.309219 207 206 209
0.013912 -0.191892 2.316844 206 206 206
0.013887 -0.188107 2.312624 206 204 203
0.013825 -0.185568 2.302431 206 204 203
0.013837 -0.178879 2.304379 208 204 205
0.013800 -0.173274 2.298141 209 203 202
0.013788 -0.171422 2.296205 209 203 200
0.013682 -0.161641 2.278543 211 203 195
0.013668 -0.159791 2.276289 212 203 195
0.013591 -0.153842 2.263393 212 203 195
0.013862 -0.153479 2.308507 212 202 196
0.014005 -0.153328 2.332293 212 202 197
0.014022 -0.151786 2.335226 211 202 197
0.013966 -0.149446 2.325803 211 201 197
0.013959 -0.147650 2.324725 211 201 197
0.013963 -0.145964 2.325365 211 201 199
0.013976 -0.144366 2.327451 211 201 199
0.014007 -0.142960 2.332723 211 201 199
0.014023 -0.141384 2.335309 211 200 199
0.013972 -0.137420 2.326928 210 200 198
0.013706 -0.124627 2.282552 208 200 197
0.014051 -0.117336 2.340023 207 199 196
0.014081 -0.115843 2.344986 207 199 196
0.013779 -0.109952 2.294744 207 199 196
0.014006 -0.108297 2.332516 205 195 193
0.013140 -0.095101 2.188332 200 195 193
0.013261 -0.094332 2.208379 204 200 198
0.014161 -0.097231 2.358269 207 205 206
0.014178 -0.095593 2.361080 196 198 199
0.014169 -0.093785 2.359696 157 163 167
0.014133 -0.091798 2.353696 101 112 119
0.014126 -0.090005 2.352527 56 72 83
0.014264 -0.089118 2.375458 42 63 79
0.014193 -0.086920 2.363671 46 73 91
0.014198 -0.085195 2.364518 42 72 92
0.014219 -0.083564 2.368069 34 62 85
0.014198 -0.081679 2.364426 32 55 81
0.014315 -0.080584 2.383999 26 48 74
0.014326 -0.078872 2.385772 22 46 70
0.014321 -0.077072 2.384917 23 47 71
0.014325 -0.075324 2.385654 22 46 70
0.014312 -0.073485 2.383463 20 44 68
0.014349 -0.071899 2.389587 20 44 69
0.014322 -0.069991 2.385074 20 43 70
0.014343 -0.068321 2.388614 19 41 66
0.014371 -0.066678 2.393311 24 47 71
0.014343 -0.064775 2.388705 29 54 77
0.014348 -0.063019 2.389409 33 58 79
0.014324 -0.061144 2.385494 33 58 77
0.014348 -0.059470 2.389409 30 57 73
0.014311 -0.057546 2.383246 27 55 69
0.014254 -0.055555 2.373779 27 52 68
0.014171 -0.053480 2.360027 29 52 70
0.014283 -0.052133 2.378571 28 50 65
0.014345 -0.050585 2.388904 16 36 48
0.014173 -0.048226 2.360284 3 17 26
0.013835 -0.040231 2.304024 0 5 10
0.013859 -0.038585 2.307953 29 34 40
0.014051 -0.035645 2.340023 207 197 208
0.013988 -0.033754 2.329463 236 221 231
0.014178 -0.032460 2.361185 233 216 225
0.014202 -0.030757 2.365077 220 210 215
0.014215 -0.029027 2.367285 166 167 166
0.014145 -0.025385 2.355602 6 13 8
0.014065 -0.023502 2.342381 0 6 1
0.014069 -0.021768 2.342970 0 8 4
0.014093 -0.020062 2.347029 0 8 5
0.013873 -0.018034 2.310436 0 7 5
0.013852 -0.016292 2.306896 0 8 9
0.014173 -0.014917 2.360372 0 7 9
0.014125 -0.013119 2.352302 0 7 9
0.014159 -0.011399 2.357921 0 8 11
0.014146 -0.009638 2.355796 0 7 11
0.014101 -0.007863 2.348267 0 6 12
0.014061 -0.006102 2.341650 0 7 11
0.014017 -0.002615 2.334342 0 7 10
0.013970 -0.000878 2.326579 1 6 10
0.013887 0.000845 2.312624 0 5 8
0.013912 0.002567 2.316844 0 5 6
0.013959 0.004302 2.324620 1 6 8
0.013993 0.006044 2.330309 2 7 10
0.013957 0.007755 2.324305 1 8 11
0.013976 0.009494 2.327524 0 8 12
0.013929 0.011185 2.319716 0 11 17
0.013929 0.012909 2.319758 0 15 22
0.013890 0.014591 2.313263 0 18 27
0.013859 0.016271 2.307953 0 20 33
0.013814 0.017927 2.300483 1 24 38
0.013820 0.019645 2.301477 1 24 39
0.013805 0.021331 2.299034 2 25 42
0.013792 0.023018 2.296935 9 31 51
0.013757 0.024661 2.291102 19 40 61
0.013736 0.026323 2.287603 24 45 67
0.013766 0.028082 2.292499 29 51 73
0.013696 0.029634 2.280867 33 57 79
0.013682 0.031295 2.278485 34 59 82
0.013647 0.032904 2.272719 37 61 85
0.013641 0.034578 2.271762 40 63 87
0.013658 0.036309 2.274508 41 63 87
0.013673 0.038041 2.277079 40 63 88
0.013669 0.039721 2.276443 39 63 90
0.013667 0.041404 2.275981 36 61 88
0.013567 0.042781 2.259400 33 60 88
0.013397 0.043901 2.231065 31 60 89
0.013435 0.045689 2.237458 31 60 89
0.013571 0.047828 2.260000 32 60 90
0.013586 0.049562 2.262539 33 59 90
0.013569 0.051181 2.259802 33 59 91
0.013505 0.052607 2.249024 33 59 90
0.013437 0.054005 2.237741 31 58 88
0.013408 0.055549 2.232976 30 57 85
0.013420 0.057259 2.235000 30 57 84
0.013456 0.059077 2.240968 30 57 84
0.013476 0.060831 2.244297 30 57 84
0.013427 0.062270 2.236090 30 57 84
0.013437 0.063978 2.237741 30 58 83
0.013396 0.065440 2.230906 30 58 82
0.013413 0.067185 2.233830 30 58 82
0.013438 0.068972 2.237982 29 57 81
0.013415 0.070513 2.234148 28 56 79
0.013446 0.072336 2.239211 27 55 77
0.013572 0.074695 2.260249 25 53 75
0.013547 0.076230 2.256010 24 52 74
0.013525 0.077781 2.252389 23 51 73
0.013485 0.079218 2.245714 22 50 72
0.013505 0.081010 2.249143 21 47 69
0.013480 0.082528 2.244998 20 45 66
0.013452 0.084020 2.240324 20 45 65
0.013428 0.085532 2.236329 19 44 64
0.013441 0.087276 2.238454 18 44 63
0.013451 0.089003 2.240089 17 44 63
0.013393 0.090274 2.230388 17 42 63
0.013384 0.091871 2.228942 17 41 64
0.013347 0.093268 2.222757 19 41 64
0.013328 0.094786 2.219657 20 41 65
0.013407 0.097008 2.232844 21 40 63
0.013394 0.098564 2.230529 21 39 60
0.013397 0.100247 2.231112 18 38 57
0.013417 0.102058 2.234478 16 37 53
0.013383 0.103456 2.228839 14 36 50
0.013383 0.105108 2.228772 14 35 49
0.013360 0.106583 2.225010 14 34 48
0.013347 0.108130 2.222836 14 31 47
0.013353 0.109824 2.223688 12 29 45
0.013373 0.111649 2.227150 9 26 42
0.013374 0.113311 2.227313 6 24 39
0.013369 0.114924 2.226512 4 22 36
0.013382 0.116690 2.228651 1 19 33
0.013367 0.118211 2.226125 0 18 32
0.013224 0.120219 2.202314 1 19 31
0.013325 0.122782 2.219073 1 19 30
0.013322 0.124405 2.218631 1 19 29
0.013322 0.126054 2.218639 1 19 29
0.013319 0.127667 2.218041 1 19 29
0.013325 0.129375 2.219073 1 19 29
0.013330 0.132722 2.219926 1 20 26
0.013324 0.134315 2.218992 1 20 26
0.013345 0.136174 2.222439 1 20 26
0.013375 0.138139 2.227503 1 20 26
0.013343 0.139450 2.222029 1 20 26
0.013230 0.141544 2.203245 0 19 25
0.013339 0.149310 2.221398 1 18 22
0.013239 0.153103 2.204736 0 16 20
0.013074 0.152816 2.177308 0 16 20
0.013070 0.157613 2.176565 0 12 8
0.013086 0.159435 2.179371 0 11 5
0.013068 0.160822 2.176234 0 10 4
0.013021 0.161862 2.168513 0 8 4
0.013051 0.163844 2.173432 0 7 4
0.013083 0.165871 2.178857 0 5 4
0.013078 0.167417 2.177911 0 4 3
0.013133 0.169748 2.187098 0 3 3
0.013104 0.170999 2.182336 0 3 4
0.013104 0.174241 2.182336 0 2 5
0.013133 0.176251 2.187167 0 0 5
0.013130 0.177830 2.186608 0 0 5
0.013099 0.179036 2.181503 0 0 5
0.013127 0.181034 2.186069 2 0 5
0.013152 0.183010 2.190284 1 0 5
0.013105 0.183978 2.182466 0 1 4
0.013130 0.185951 2.186608 0 2 2
0.013041 0.186307 2.171829 0 1 2
0.013063 0.188232 2.175429 0 1 2
0.013143 0.191014 2.188789 0 1 2
0.012927 0.194267 2.152779 0 0 1
0.012973 0.196562 2.160419 0 0 1
0.013051 0.199371 2.173553 1 1 1
0.013111 0.201902 2.183468 0 0 0
0.013181 0.204606 2.195080 0 0 0
0.013203 0.206579 2.198724 0 0 0
0.013169 0.209306 2.193070 0 0 1
0.013219 0.211746 2.201508 0 0 3
0.013193 0.212950 2.197054 0 1 4
0.013205 0.214785 2.199135 0 1 5
0.013244 0.217064 2.205690 0 1 5
0.013341 0.240107 2.221840 0 1 5
0.013422 0.243219 2.235269 0 1 5
0.013407 0.244610 2.232817 0 1 5
0.013411 0.246339 2.233455 0 1 5
0.013359 0.250345 2.224825 0 1 4
0.013355 0.251911 2.224064 0 1 3
0.018811 -0.632636 2.787899 215 205 213
0.019863 -0.665823 2.943781 215 205 213
0.018823 -0.628897 2.789683 215 205 213
0.018372 -0.611785 2.722749 215 205 213
0.012882 -0.427557 1.909155 215 205 213
0.012973 -0.429145 1.922619 215 205 213
0.012994 -0.428406 1.925719 215 205 213
0.213891 -7.004977 31.699591 215 205 213
0.101217 -3.248024 15.000797 212 207 213
0.017021 -0.544334 2.522628 212 207 213
0.017028 -0.542680 2.523647 211 207 213
0.016990 -0.539589 2.517969 210 208 213
0.019070 -0.597244 2.826200 213 206 210
0.019054 -0.594653 2.823865 214 205 210
0.095007 -2.944161 14.080441 215 204 208
0.093651 -2.891833 13.879488 214 205 208
0.021367 -0.648026 3.166679 213 204 209
0.021390 -0.646376 3.170119 213 204 208
0.021394 -0.644150 3.170754 213 204 206
0.021437 -0.643066 3.177034 213 204 204
0.015459 -0.460333 2.291064 213 205 202
0.011263 -0.332899 1.669173 213 205 202
0.021679 -0.626465 3.212918 212 204 202
0.021504 -0.614301 3.186955 212 204 202
0.021427 -0.609753 3.175597 212 204 202
0.019066 -0.529980 2.825726 212 204 202
0.017137 -0.440508 2.539787 214 206 204
0.017149 -0.438923 2.541534 214 206 204
0.017141 -0.436824 2.540303 214 206 204
0.017157 -0.435360 2.542776 214 206 204
0.017165 -0.433661 2.543891 214 206 204
0.016516 -0.400896 2.447669 214 206 204
0.016429 -0.396994 2.434890 214 206 204
0.016330 -0.392797 2.420173 214 206 204
0.016859 -0.403673 2.498616 212 204 202
0.016873 -0.402149 2.500684 211 203 201
0.016892 -0.378421 2.503450 201 198 200
0.016924 -0.377268 2.508148 195 192 194
0.017091 -0.379127 2.533012 190 188 192
0.016162 -0.337161 2.395273 109 123 137
0.016165 -0.335449 2.395751 110 123 137
0.016126 -0.332862 2.389954 93 106 122
0.016039 -0.329294 2.377016 76 90 106
0.015881 -0.322554 2.353600 75 90 110
0.015744 -0.318051 2.333391 82 97 118
0.015726 -0.315941 2.330610 90 106 126
0.015806 -0.315817 2.342527 91 108 127
0.015917 -0.316282 2.358975 78 95 112
0.015926 -0.314709 2.360317 64 81 95
0.015966 -0.313746 2.366277 61 79 90
0.015989 -0.312424 2.369584 60 78 88
0.015994 -0.310769 2.370385 55 73 84
0.016039 -0.309880 2.377068 53 69 82
0.016025 -0.307842 2.374965 50 66 79
0.015967 -0.304969 2.366364 45 61 74
0.015879 -0.299803 2.353404 43 59 74
0.015821 -0.296954 2.344715 47 63 77
0.015841 -0.295585 2.347674 53 67 80
0.016022 -0.293668 2.374469 52 67 75
0.016060 -0.292612 2.380230 48 63 70
0.016050 -0.290657 2.378695 43 58 65
0.016009 -0.288142 2.372537 37 51 60
0.015841 -0.283379 2.347674 30 44 53
0.015745 -0.279933 2.333483 23 36 45
0.015617 -0.275933 2.314474 18 32 41
0.015577 -0.273518 2.308597 15 28 36
0.015565 -0.271597 2.306846 10 23 31
0.015706 -0.272327 2.327732 5 18 23
0.015633 -0.269332 2.316844 17 30 36
0.015670 -0.268247 2.322349 59 72 77
0.015666 -0.266454 2.321757 107 121 126
0.015778 -0.266619 2.338324 133 146 152
0.015855 -0.266177 2.349759 133 146 155
0.015822 -0.263877 2.344830 82 92 104
0.015837 -0.262396 2.347160 37 46 61
0.015905 -0.261767 2.357193 18 25 43
0.015918 -0.260232 2.359149 25 31 49
0.015933 -0.258712 2.361270 28 32 51
0.015902 -0.256464 2.356732 30 33 51
0.015890 -0.254527 2.355005 45 46 64
0.015864 -0.252362 2.351131 61 61 73
0.015844 -0.250290 2.348081 84 83 85
0.015784 -0.247614 2.339276 111 105 104
0.015777 -0.245769 2.338247 120 108 112
0.015773 -0.243964 2.337594 127 108 119
0.015724 -0.241472 2.330309 167 142 162
0.015724 -0.239742 2.330309 223 197 220
0.015797 -0.239122 2.341194 250 228 250
0.015875 -0.238561 2.352805 247 231 250
0.015839 -0.236265 2.347362 204 195 213
0.015836 -0.234484 2.346981 187 183 198
0.015845 -0.232871 2.348299 195 194 208
0.015646 -0.228229 2.318854 199 199 211
0.015568 -0.223654 2.307200 200 199 205
0.015613 -0.222583 2.313873 201 200 203
0.015646 -0.221341 2.318874 201 201 201
0.015623 -0.219284 2.315341 196 199 199
0.015708 -0.218751 2.327967 193 198 199
0.015690 -0.216782 2.325395 195 200 203
0.015692 -0.215072 2.325578 198 202 206
0.015739 -0.213993 2.332646 194 195 203
0.015695 -0.211664 2.326098 183 182 193
0.015688 -0.209834 2.324967 180 178 191
0.015713 -0.208451 2.328805 192 189 203
0.015682 -0.206305 2.324118 204 201 214
0.015729 -0.205194 2.331106 208 205 216
0.015782 -0.204148 2.338959 208 205 214
0.015621 -0.198623 2.315060 207 205 212
0.015614 -0.196816 2.314029 207 206 212
0.015605 -0.194991 2.312776 207 206 212
0.015560 -0.192709 2.306018 207 206 211
0.015615 -0.191671 2.314169 206 205 208
0.015686 -0.190816 2.324697 205 204 205
0.015615 -0.188233 2.314169 205 204 205
0.015520 -0.185383 2.300135 205 204 205
0.015598 -0.179445 2.311673 207 204 205
0.015487 -0.173059 2.295292 208 203 202
0.015573 -0.172299 2.307953 208 204 200
0.015689 -0.171856 2.325149 209 204 200
0.015666 -0.169883 2.321787 209 204 199
0.015695 -0.168472 2.326113 209 204 197
0.015680 -0.166578 2.323806 209 204 196
0.015351 -0.159706 2.275086 211 203 196
0.015269 -0.152134 2.263000 212 203 196
0.015352 -0.151271 2.275299 212 203 196
0.015715 -0.153113 2.329020 212 203 198
0.015727 -0.151501 2.330837 211 202 197
0.015724 -0.149736 2.330309 211 202 197
0.015700 -0.144328 2.326842 211 201 199
0.015718 -0.142759 2.329436 211 201 199
0.015724 -0.141081 2.330309 211 201 199
0.015355 -0.124250 2.275659 208 200 197
0.015758 -0.117106 2.335437 207 199 196
0.015782 -0.115549 2.339023 207 199 196
0.015713 -0.108119 2.328685 208 198 195
0.014761 -0.095070 2.187628 201 196 196
0.015905 -0.097184 2.357129 200 201 205
0.015911 -0.095472 2.358079 168 173 181
0.015882 -0.093547 2.353726 108 117 127
0.015887 -0.091828 2.354474 57 72 84
0.015932 -0.090336 2.361185 40 58 73
0.016027 -0.089110 2.375247 39 61 80
0.015937 -0.086854 2.361881 38 63 83
0.015956 -0.085205 2.364798 35 61 83
0.015945 -0.083388 2.363093 34 59 82
0.015983 -0.081830 2.368786 31 55 78
0.016057 -0.080439 2.379704 25 50 72
0.016072 -0.078744 2.381907 24 49 71
0.016048 -0.076863 2.378445 26 51 73
0.016025 -0.074988 2.375011 25 50 72
0.016089 -0.073514 2.384420 23 48 70
0.016116 -0.071867 2.388532 22 47 69
0.016115 -0.070088 2.388370 21 46 69
0.016088 -0.068199 2.384344 19 43 67
0.016084 -0.066411 2.383746 23 47 71
0.016088 -0.064656 2.384304 29 53 76
0.016093 -0.062904 2.385025 33 58 79
0.016096 -0.061144 2.385482 34 59 79
0.016194 -0.059735 2.400053 32 57 76
0.016091 -0.057582 2.384734 28 54 70
0.016031 -0.055605 2.375919 24 49 65
0.015983 -0.051917 2.368711 18 38 54
0.016102 -0.050533 2.386417 8 26 39
0.015795 -0.042614 2.340890 0 2 8
0.015465 -0.040021 2.292011 2 6 10
0.015416 -0.038198 2.284782 49 55 59
0.015757 -0.035574 2.335309 221 213 221
0.015879 -0.034101 2.353404 238 224 234
0.015888 -0.032371 2.354735 237 222 231
0.015912 -0.030668 2.358254 192 183 188
0.015912 -0.028916 2.358228 96 97 96
0.015968 -0.027261 2.366570 20 26 23
0.015794 -0.025224 2.340673 0 6 3
0.015744 -0.023412 2.333391 0 6 3
0.015786 -0.021736 2.339535 0 8 5
0.015846 -0.020074 2.348384 0 6 5
0.015657 -0.018111 2.320420 0 7 7
0.015945 -0.013179 2.363058 0 6 9
0.015858 -0.011361 2.350153 0 7 10
0.015875 -0.009626 2.352805 0 6 10
0.015739 -0.007811 2.332623 0 6 10
0.015857 -0.006124 2.350037 0 6 9
0.015828 -0.004370 2.345740 0 6 10
0.015737 -0.002613 2.332245 0 6 9
0.015683 -0.000878 2.324305 0 5 9
0.015633 0.000846 2.316844 0 4 7
0.015768 0.002589 2.336848 0 4 6
0.015700 0.004306 2.326871 0 5 7
0.015725 0.006044 2.330531 0 5 9
0.015698 0.007762 2.326553 0 5 9
0.015671 0.009473 2.322452 0 7 11
0.015649 0.011183 2.319226 0 10 17
0.015656 0.012912 2.320341 0 14 23
0.015554 0.014540 2.305208 0 16 26
0.015536 0.016233 2.302480 0 18 30
0.015518 0.017923 2.299900 0 22 38
0.015496 0.019603 2.296577 2 25 43
0.015501 0.021316 2.297352 6 29 49
0.015495 0.023013 2.296454 17 37 60
0.015426 0.024609 2.286229 28 48 73
0.015366 0.026205 2.277366 35 55 79
0.015365 0.027895 2.277202 38 59 83
0.015375 0.029605 2.278675 39 62 85
0.015342 0.031231 2.273799 38 62 85
0.015336 0.032906 2.272837 37 61 85
0.015347 0.034618 2.274438 38 61 85
0.015366 0.036354 2.277366 39 61 85
0.015359 0.038029 2.276326 39 62 87
0.015373 0.039753 2.278277 38 63 88
0.015355 0.041398 2.275659 35 61 87
0.015316 0.042978 2.269826 33 60 87
0.014926 0.043529 2.212150 31 60 88
0.015208 0.047699 2.253896 32 60 89
0.015233 0.049454 2.257612 33 60 90
0.015222 0.051095 2.256010 33 59 90
0.015090 0.052311 2.236384 33 59 90
0.015069 0.053897 2.233254 31 58 88
0.015038 0.055444 2.228749 31 58 85
0.015044 0.057120 2.229548 31 58 85
0.015109 0.059030 2.239211 31 58 85
0.015119 0.060734 2.240683 31 58 85
0.015036 0.062055 2.228362 31 58 85
0.015042 0.063738 2.229330 31 58 83
0.015039 0.065380 2.228870 31 59 83
0.015092 0.067269 2.236649 30 58 82
0.015149 0.069192 2.245111 29 57 81
0.015043 0.072022 2.229493 27 55 77
0.015180 0.074345 2.249681 25 53 75
0.015228 0.076259 2.256856 24 52 74
0.015295 0.078278 2.266780 23 51 73
0.015165 0.079284 2.247579 22 50 72
0.015147 0.080855 2.244853 21 48 69
0.015156 0.082573 2.246222 21 46 66
0.015096 0.083905 2.237238 20 45 65
0.015055 0.085336 2.231218 20 45 65
0.015119 0.087364 2.240728 18 44 64
0.015053 0.088638 2.230906 17 44 63
0.015001 0.089984 2.223224 17 43 64
0.015011 0.091696 2.224689 18 42 64
0.014973 0.093115 2.219131 19 41 64
0.014985 0.094837 2.220855 20 41 65
