ply
format ascii 1.0
element vertex 1313
property float x
property float y
property float z
property uchar red
property uchar green
property uchar blue
end_header
0.219038 -0.097905 2.075490 9 29 36
0.220282 -0.095360 2.087273 6 19 28
0.219900 -0.093647 2.083650 0 8 17
0.220051 -0.092163 2.085082 0 6 15
0.223031 -0.090271 2.113322 0 6 16
0.222807 -0.088613 2.111202 1 8 18
0.225607 -0.084963 2.137734 0 8 17
0.227238 -0.083978 2.153188 0 6 16
0.224586 -0.075094 2.128057 0 3 10
0.219874 -0.070424 2.083403 0 3 10
0.218999 -0.059354 2.075114 0 7 13
0.219909 -0.050314 2.083742 1 6 12
0.218002 -0.048344 2.065670 1 6 12
0.217807 -0.046767 2.063820 1 6 12
0.217559 -0.045183 2.061473 1 6 12
0.216293 -0.043398 2.049479 1 6 12
0.214095 -0.036930 2.028652 1 6 12
0.213217 -0.035277 2.020325 1 6 12
0.211004 -0.033426 1.999356 1 6 12
0.210542 -0.031871 1.994978 0 6 12
0.209915 -0.030299 1.989038 0 6 12
0.208480 -0.028625 1.975443 0 6 12
0.209685 -0.025838 1.986859 0 5 11
0.215181 -0.023487 2.038939 0 4 10
0.217015 -0.022160 2.056321 0 4 10
0.217745 -0.020702 2.063233 0 4 10
0.211394 -0.018610 2.003055 0 4 10
0.210153 -0.017022 1.991295 0 4 10
0.209913 -0.015525 1.989018 0 4 10
0.216031 -0.012936 2.046989 0 3 10
0.215991 -0.011414 2.046611 0 3 10
0.216547 -0.009919 2.051881 0 4 10
0.215527 -0.006839 2.042215 0 4 10
0.213288 -0.005266 2.021004 0 4 10
0.207818 0.000719 1.969171 1 2 7
0.208935 0.002194 1.979758 1 2 7
0.215278 0.003775 2.039854 1 2 7
0.211511 0.005198 2.004168 1 2 7
0.210153 0.006644 1.991301 1 2 7
0.209533 0.008099 1.985422 1 2 7
0.217509 0.009938 2.060993 1 2 7
0.217224 0.011454 2.058293 0 1 6
0.216240 0.012924 2.048975 0 1 6
0.216035 0.014432 2.047031 0 1 6
0.216213 0.015965 2.048713 0 1 6
0.208885 0.025715 1.979278 1 2 7
0.205381 0.033957 1.946081 1 1 9
0.208749 0.040391 1.977996 0 1 10
0.207996 0.041709 1.970861 0 1 10
0.208680 0.049190 1.977341 0 4 10
0.207142 0.050285 1.962763 0 4 10
0.203033 0.073580 1.923826 1 2 7
0.200257 0.079621 1.897523 1 2 7
0.201568 0.081561 1.909945 1 2 7
0.203705 0.083859 1.930200 1 2 7
0.204361 0.085567 1.936414 1 2 7
0.206826 0.088055 1.959774 1 2 7
0.205196 0.094582 1.944322 1 2 7
0.202972 0.094986 1.923256 1 2 7
0.201203 0.095574 1.906490 1 2 7
0.200985 0.096885 1.904424 1 1 7
0.200571 0.098097 1.900499 1 1 9
0.200688 0.100979 1.901613 0 0 8
0.215404 0.111416 2.041052 0 0 8
0.207131 0.111510 1.962663 0 0 5
0.207569 0.113207 1.966810 0 1 4
0.200267 0.110633 1.897618 0 1 4
0.200661 0.112264 1.901354 0 1 3
0.201315 0.114046 1.907549 0 1 3
0.202704 0.116260 1.920716 0 1 4
0.202729 0.117701 1.920952 0 1 5
0.201763 0.118560 1.911793 0 1 3
0.200385 0.119161 1.898743 0 1 3
0.199590 0.120093 1.891204 0 1 3
0.197218 0.121441 1.868727 0 1 3
0.199893 0.124496 1.894075 0 1 3
0.199563 0.125694 1.890947 0 1 1
0.199102 0.126806 1.886588 0 2 1
0.199983 0.128774 1.894928 0 1 1
0.201038 0.133699 1.904931 1 1 0
0.200982 0.135075 1.904395 0 0 1
0.200607 0.136235 1.900842 0 0 3
0.202775 0.141990 1.921391 1 2 2
0.202914 0.143515 1.922707 1 3 2
0.201499 0.143932 1.909294 0 3 3
0.203906 0.160003 1.932108 0 3 7
0.234224 0.206872 2.219380 81 95 85
0.237778 0.221725 2.253052 142 159 140
0.232514 0.220089 2.203178 147 164 146
0.232083 0.221315 2.199093 144 161 143
0.231998 0.222867 2.198289 146 163 145
0.239363 0.233311 2.268079 146 163 144
0.245479 0.247910 2.326022 140 158 131
0.267903 -0.573889 2.520762 203 195 193
0.295569 -0.631090 2.781083 203 195 193
0.665863 -1.403114 6.265266 203 195 193
0.668178 -1.398652 6.287047 203 195 193
0.670709 -1.399262 6.310861 203 195 193
3.090212 -6.425334 29.076532 203 195 193
0.919133 -1.898264 8.648343 203 195 193
0.331956 -0.680942 3.123457 203 195 193
0.342930 -0.693865 3.226708 203 195 193
0.342562 -0.690727 3.223249 203 195 193
0.919674 -1.809396 8.653433 203 195 193
0.918820 -1.730658 8.645398 203 195 193
0.920126 -1.726685 8.657680 203 195 193
0.921589 -1.716549 8.671446 203 195 193
3.108722 -5.746847 29.250706 203 195 193
0.927395 -1.701439 8.726083 203 195 193
0.925940 -1.692298 8.712389 203 195 193
2.986207 -5.416012 28.097929 203 195 193
0.188197 -0.338698 1.770794 203 195 193
0.188405 -0.336439 1.772752 203 195 193
0.379523 -0.640588 3.571022 203 195 192
0.378388 -0.636027 3.560342 203 195 192
0.909084 -1.515360 8.553788 203 195 192
0.907605 -1.506552 8.539871 203 195 192
0.372236 -0.599672 3.502461 203 195 193
0.265566 -0.424114 2.498770 203 195 193
0.265862 -0.422729 2.501559 203 195 193
0.265929 -0.420977 2.502189 203 195 193
0.266229 -0.419591 2.505014 203 195 193
0.265770 -0.417010 2.500692 203 195 193
0.266496 -0.416286 2.507520 203 195 193
0.266705 -0.414750 2.509494 203 195 193
0.298700 -0.441541 2.810541 204 196 193
0.354778 -0.516998 3.338193 204 196 193
0.354631 -0.514304 3.336805 204 196 193
0.367951 -0.520764 3.462137 204 196 193
0.266012 -0.359758 2.502974 203 195 192
0.265908 -0.357758 2.501988 203 195 192
0.265952 -0.355959 2.502408 203 195 192
0.265853 -0.353968 2.501472 203 195 192
0.240762 -0.285225 2.265387 28 34 35
0.241674 -0.284616 2.273967 23 30 32
0.247467 -0.284521 2.328480 10 23 30
0.251183 -0.281770 2.363437 7 17 27
0.251346 -0.280197 2.364970 7 17 27
0.250888 -0.277934 2.360668 6 16 26
0.234833 -0.243735 2.209596 2 15 21
0.233998 -0.241233 2.201738 0 13 19
0.232121 -0.236053 2.184080 1 12 18
0.236175 -0.235225 2.222229 0 10 16
0.235969 -0.233370 2.220286 0 9 15
0.236415 -0.232159 2.224488 0 8 14
0.236451 -0.230542 2.224825 0 8 13
0.236571 -0.229005 2.225951 0 8 13
0.231935 -0.218034 2.182336 0 10 12
0.232216 -0.216675 2.184979 0 10 12
0.232650 -0.213828 2.189057 0 10 12
0.233303 -0.212798 2.195203 0 10 12
0.243628 -0.217107 2.292351 0 8 13
0.232287 -0.205377 2.185641 0 9 14
0.234103 -0.205347 2.202731 1 8 14
0.235037 -0.204523 2.211516 0 7 13
0.234927 -0.202786 2.210482 0 6 14
0.234273 -0.200584 2.204332 0 5 13
0.234734 -0.199338 2.208668 0 4 13
0.237739 -0.200228 2.236940 0 4 13
0.237317 -0.198215 2.232976 0 4 13
0.237273 -0.196520 2.232562 0 4 13
0.237137 -0.194750 2.231282 0 4 13
0.234422 -0.190881 2.205731 0 4 13
0.235100 -0.189790 2.212113 0 4 13
0.234081 -0.187331 2.202519 1 4 11
0.242525 -0.178835 2.281980 0 3 7
0.242257 -0.175251 2.279454 0 3 7
0.242318 -0.173601 2.280027 0 3 8
0.242252 -0.171861 2.279410 1 4 9
0.242654 -0.170450 2.283189 1 4 9
0.242454 -0.168616 2.281310 0 3 8
0.242026 -0.166626 2.277278 0 3 10
0.242093 -0.164981 2.277915 2 3 14
0.242147 -0.163325 2.278419 2 1 15
0.241960 -0.161508 2.276661 0 0 13
0.242362 -0.160082 2.280441 0 1 12
0.242622 -0.158558 2.282889 0 0 10
0.242589 -0.156841 2.282579 0 0 8
0.241994 -0.154765 2.276974 3 5 12
0.240971 -0.152427 2.267350 12 17 23
0.240668 -0.150553 2.264504 34 44 50
0.240387 -0.148698 2.261861 49 64 70
0.239536 -0.146497 2.253847 47 66 72
0.239040 -0.144523 2.249186 41 59 68
0.234585 -0.140190 2.207266 38 55 65
0.234542 -0.138525 2.206860 36 53 64
0.234059 -0.136604 2.202314 33 50 62
0.226129 -0.128815 2.127699 39 57 67
0.226305 -0.127334 2.129355 38 53 62
0.228708 -0.125489 2.151970 33 50 58
0.224759 -0.121751 2.114808 34 51 59
0.225304 -0.120472 2.119943 36 53 61
0.224864 -0.118665 2.115800 38 56 64
0.222645 -0.114382 2.094919 44 63 72
0.221894 -0.112445 2.087852 46 66 75
0.222170 -0.111033 2.090453 44 64 73
0.222567 -0.109676 2.094190 37 59 67
0.223814 -0.108726 2.105922 30 53 61
0.225239 -0.107844 2.119327 25 47 57
0.225146 -0.106226 2.118456 22 45 55
0.222210 -0.101734 2.090822 20 43 50
0.221284 -0.099764 2.082116 12 33 40
0.220391 -0.094741 2.073716 5 18 27
0.221296 -0.093583 2.082227 0 8 17
0.222410 -0.090945 2.092706 0 7 17
0.223444 -0.088245 2.102440 0 8 18
0.228469 -0.083842 2.149717 0 6 16
0.225691 -0.076514 2.123582 0 3 10
0.224996 -0.074706 2.117041 0 3 10
0.221378 -0.070410 2.082999 0 3 10
0.224183 -0.065035 2.109389 0 6 12
0.222764 -0.063066 2.096042 0 7 13
0.221730 -0.061224 2.086313 0 7 13
0.221913 -0.053520 2.088036 0 7 13
0.222296 -0.052059 2.091632 0 6 12
0.222236 -0.050491 2.091069 0 6 12
0.219059 -0.046708 2.061176 0 6 12
0.218968 -0.045158 2.060323 0 6 12
0.217544 -0.043344 2.046920 0 6 12
0.214418 -0.036727 2.017505 1 6 12
0.213610 -0.035096 2.009908 1 6 12
0.211251 -0.031755 1.987707 0 6 12
0.210870 -0.030224 1.984130 0 6 12
0.215484 -0.023355 2.027539 0 5 11
0.217287 -0.022032 2.044507 0 5 11
0.211330 -0.018474 1.988457 0 5 11
0.211227 -0.016989 1.987485 0 5 11
0.210655 -0.015471 1.982101 0 5 11
0.216004 -0.012844 2.032436 0 4 11
0.216804 -0.011377 2.039964 0 4 11
0.217014 -0.009871 2.041932 0 5 11
0.216043 -0.006807 2.032803 0 5 11
0.214873 -0.005269 2.021794 0 5 11
0.214469 -0.003760 2.017990 0 4 11
0.214825 0.002240 2.021344 1 2 7
0.214200 0.003730 2.015463 1 2 7
0.211838 0.005170 1.993232 1 2 7
0.210743 0.006616 1.982929 1 2 7
0.217839 0.009883 2.049702 0 1 6
0.217020 0.011363 2.041993 0 1 6
0.217253 0.015930 2.044187 0 1 6
0.215877 0.017338 2.031242 0 1 6
0.215071 0.023286 2.023658 1 2 7
0.208989 0.025548 1.966424 1 2 7
0.208255 0.026914 1.959520 1 2 7
0.207072 0.032550 1.948390 0 0 8
0.206716 0.033939 1.945038 1 1 9
0.217663 0.049427 2.048041 0 5 11
0.218659 0.051182 2.057415 0 4 10
0.208646 0.050296 1.963202 0 4 10
0.239496 0.064428 2.253474 0 4 10
0.216943 0.062909 2.041270 0 2 9
0.214832 0.068303 2.021404 0 2 9
0.200340 0.079097 1.885043 1 2 7
0.202699 0.081445 1.907246 1 2 7
0.209377 0.087055 1.970081 1 2 7
0.209473 0.088559 1.970982 1 2 7
0.209203 0.095755 1.968436 1 2 7
0.214934 0.101383 2.022363 1 2 7
0.215151 0.105996 2.024405 0 0 8
0.215099 0.108977 2.023919 0 0 8
0.215263 0.110565 2.025463 0 0 8
0.215087 0.111977 2.023804 0 0 8
0.215335 0.113612 2.026142 0 0 6
0.210934 0.114238 1.984723 0 1 3
0.201490 0.110531 1.895866 0 1 2
0.201247 0.111804 1.893577 0 1 2
0.201581 0.113399 1.896720 0 1 3
0.202563 0.115367 1.905967 0 1 4
0.203039 0.117057 1.910444 0 1 5
0.200947 0.118660 1.890758 0 1 3
0.199715 0.119328 1.879170 0 1 3
0.214988 0.132961 2.022873 0 1 3
0.199900 0.125027 1.880902 0 1 1
0.199323 0.126059 1.875481 0 2 1
0.202454 0.133699 1.904941 1 1 0
0.202489 0.135138 1.905271 0 0 1
0.202722 0.139543 1.907462 0 0 2
0.204270 0.142037 1.922027 1 2 2
0.203355 0.142821 1.913415 1 3 2
0.229799 0.204757 2.162231 159 176 160
0.248349 0.226493 2.336776 144 161 142
0.236731 0.219206 2.227463 141 158 139
0.233597 0.221201 2.197968 146 163 145
0.232549 0.221835 2.188110 146 163 145
0.239360 0.231677 2.252195 145 162 143
0.246519 0.247221 2.319558 139 157 131
0.247950 0.255588 2.333020 147 165 141
0.247691 0.257052 2.330585 147 165 141
0.269775 -0.573889 2.520762 203 195 193
0.297237 -0.630245 2.777360 203 195 193
0.242772 -0.513076 2.268446 203 195 193
0.436507 -0.919487 4.078691 203 195 193
0.670361 -1.402787 6.263807 203 195 193
0.672095 -1.397087 6.280012 203 195 193
0.674512 -1.397429 6.302594 203 195 193
3.111809 -6.425334 29.076532 203 195 193
0.302858 -0.623245 2.829881 203 195 193
0.928561 -1.904425 8.676414 203 195 193
0.340937 -0.685044 3.185689 203 195 193
0.340887 -0.682579 3.185229 203 195 193
0.241589 -0.473687 2.257388 203 195 193
0.922606 -1.802567 8.620771 203 195 193
0.681655 -1.303416 6.369339 203 195 193
0.678405 -1.287785 6.338971 203 195 193
0.918117 -1.717331 8.578828 203 195 193
0.923123 -1.720288 8.625604 203 195 193
0.929125 -1.718576 8.681683 203 195 193
2.975291 -5.462010 27.800922 203 195 193
0.936046 -1.705391 8.746349 203 195 193
0.934410 -1.695924 8.731062 203 195 193
2.982834 -5.372347 27.871401 203 195 193
0.189317 -0.338349 1.768968 203 195 193
0.930888 -1.644308 8.698157 203 195 193
3.140067 -5.394019 29.340578 203 195 193
3.011797 -5.131869 28.142029 203 195 192
0.267845 -0.426645 2.502730 203 195 193
0.267811 -0.424731 2.502408 203 195 193
0.267803 -0.422859 2.502329 203 195 193
0.267888 -0.421134 2.503123 203 195 193
0.268111 -0.419625 2.505212 203 195 193
0.268042 -0.417656 2.504567 203 195 193
0.268303 -0.416201 2.507007 203 195 193
0.268689 -0.414935 2.510616 203 195 193
3.007214 -4.539667 28.099211 203 195 192
0.295302 -0.433489 2.759286 204 196 193
0.695152 -0.991500 6.495451 204 196 193
0.693350 -0.984118 6.478616 204 196 193
0.267627 -0.359430 2.500692 203 195 192
0.267267 -0.357091 2.497329 203 195 192
0.267209 -0.355158 2.496781 203 195 192
0.267231 -0.353334 2.496991 203 195 192
0.265985 -0.349840 2.485346 203 195 191
0.267695 -0.346515 2.501326 202 192 186
0.240733 -0.284882 2.249397 53 60 58
0.252411 -0.279431 2.358507 8 17 27
0.252377 -0.277642 2.358192 7 16 27
0.235448 -0.242678 2.200012 2 15 21
0.234247 -0.239814 2.188789 0 14 20
0.234865 -0.238817 2.194565 0 13 19
0.236795 -0.234205 2.212597 0 9 16
0.236166 -0.231944 2.206722 0 9 15
0.237691 -0.230143 2.220971 0 8 13
0.237467 -0.228277 2.218876 0 8 13
0.237408 -0.226573 2.218321 0 9 14
0.236087 -0.223673 2.205977 0 9 13
0.236089 -0.217122 2.206002 0 10 12
0.243119 -0.218525 2.271689 0 7 12
0.243491 -0.217169 2.275160 0 7 12
0.243377 -0.215378 2.274101 0 8 14
0.233402 -0.204931 2.180897 0 9 15
0.234682 -0.202797 2.192850 1 8 15
0.235647 -0.201995 2.201866 0 7 15
0.235029 -0.199835 2.196100 0 6 14
0.240382 -0.201049 2.246111 0 4 13
0.241170 -0.200034 2.253474 0 4 13
0.242131 -0.199152 2.262460 0 4 13
0.241548 -0.196995 2.257006 0 4 13
0.234911 -0.188322 2.194994 1 4 13
0.226196 -0.171916 2.113562 0 2 7
0.226057 -0.170241 2.112262 0 2 7
0.226284 -0.168842 2.114383 0 2 7
0.244447 -0.179001 2.284099 0 3 7
0.243823 -0.173467 2.278263 0 3 9
0.243652 -0.171654 2.276664 0 3 9
0.243460 -0.169829 2.274870 0 2 8
0.243624 -0.168253 2.276403 0 2 7
0.243617 -0.166557 2.276340 0 1 9
0.243595 -0.164852 2.276132 1 1 14
0.243781 -0.163286 2.277872 1 0 16
0.243971 -0.161720 2.279651 0 0 14
0.244218 -0.160188 2.281952 0 0 12
0.244676 -0.158791 2.286237 0 0 11
0.244715 -0.157118 2.286602 0 0 8
0.243831 -0.154858 2.278337 2 4 10
0.243233 -0.152790 2.272756 7 13 17
0.242350 -0.150553 2.264504 23 35 38
0.242151 -0.148749 2.262645 39 55 59
0.241196 -0.146489 2.253722 45 63 68
0.240862 -0.144614 2.250602 44 61 69
0.236996 -0.139003 2.214477 43 57 68
0.235742 -0.136632 2.202762 36 52 62
0.228487 -0.129255 2.134970 35 51 60
0.227915 -0.124186 2.129624 29 45 54
0.226138 -0.120079 2.113019 31 48 56
0.226136 -0.116939 2.112999 38 56 64
0.223873 -0.111107 2.091856 47 67 74
0.224024 -0.109627 2.093269 45 65 72
0.225232 -0.108655 2.104557 39 59 66
0.226590 -0.107737 2.117237 31 51 58
0.227212 -0.106457 2.123058 26 46 53
0.227644 -0.105079 2.127090 23 44 51
0.223953 -0.101821 2.092600 20 41 48
0.222516 -0.098079 2.079175 8 27 34
0.222485 -0.094977 2.078885 5 17 26
0.221703 -0.093104 2.071579 0 8 17
0.223539 -0.090773 2.088735 0 7 17
0.223881 -0.089357 2.091926 0 7 17
0.225500 -0.086874 2.107057 0 9 18
0.225774 -0.076010 2.109616 0 3 10
0.227369 -0.074969 2.124519 0 3 10
0.222947 -0.070417 2.083202 0 4 10
0.221785 -0.068510 2.072340 0 4 10
0.223984 -0.064526 2.092894 0 6 12
0.223087 -0.062719 2.084512 0 7 13
0.223036 -0.053417 2.084031 0 7 13
0.223423 -0.051959 2.087647 0 6 12
0.222895 -0.050290 2.082718 0 6 12
0.221984 -0.048543 2.074203 0 6 12
0.220582 -0.046706 2.061101 0 6 12
0.220354 -0.045128 2.058977 0 6 12
0.221017 -0.043730 2.065165 0 6 12
0.221501 -0.042289 2.069687 0 6 12
0.221304 -0.040715 2.067851 1 6 12
0.214902 -0.036554 2.008028 1 6 12
0.214053 -0.034924 2.000095 1 6 12
0.228812 -0.029392 2.138006 1 6 12
0.218070 -0.023472 2.037632 0 5 11
0.218000 -0.021951 2.036975 0 5 11
0.234659 -0.020371 2.192640 0 5 11
0.235800 -0.018834 2.203302 0 5 11
0.236098 -0.017219 2.206088 0 5 11
0.219036 -0.011414 2.046662 0 5 11
0.219169 -0.009900 2.047904 0 5 11
0.219444 -0.008389 2.050465 0 5 11
0.218290 0.000745 2.039686 1 2 7
0.217453 0.002251 2.031866 1 2 7
0.214722 0.003713 2.006348 1 2 7
0.213699 0.005179 1.996790 1 2 7
0.219088 0.006830 2.047144 1 2 7
0.218833 0.008341 2.044758 1 2 7
0.219727 0.009900 2.053111 0 1 6
0.225300 0.013278 2.105185 0 1 6
0.218592 0.017434 2.042509 0 1 6
0.208904 0.025361 1.951990 1 2 7
0.208258 0.026728 1.945945 1 2 7
0.208041 0.028144 1.943925 1 2 7
0.207946 0.033904 1.943038 1 1 10
0.238471 0.063707 2.228254 0 4 10
0.217070 0.062509 2.028290 0 2 9
0.216478 0.063841 2.022758 0 2 9
0.210408 0.085416 1.966038 1 2 7
0.211070 0.087150 1.972227 1 2 7
0.210628 0.088429 1.968097 1 2 7
0.210566 0.089864 1.967512 1 2 7
0.211201 0.091601 1.973448 1 2 7
0.212760 0.096708 1.988020 1 2 7
0.214667 0.106514 2.005839 0 0 8
0.215206 0.108274 2.010869 0 0 8
0.214847 0.109585 2.007513 0 0 7
0.214795 0.111050 2.007034 0 0 7
0.215626 0.112976 2.014798 0 0 5
0.211459 0.113727 1.975856 0 1 2
0.203084 0.114861 1.897600 0 1 4
0.201402 0.116705 1.881883 0 1 3
0.200305 0.118850 1.871635 0 1 3
0.214596 0.128819 2.005170 0 1 3
0.213954 0.129918 1.999171 0 1 3
0.215190 0.132163 2.010722 0 1 3
0.216327 0.134362 2.021344 0 1 1
0.199352 0.125203 1.862733 0 2 1
0.203853 0.133689 1.904792 1 1 0
0.217486 0.157724 2.032178 0 3 6
0.214959 0.157383 2.008560 0 2 6
0.244160 0.207570 2.281415 1 6 5
0.243245 0.208480 2.272863 14 23 19
0.242716 0.209711 2.267920 56 67 58
0.245306 0.218759 2.292121 142 159 140
0.247658 0.222576 2.314101 138 155 136
0.248726 0.225262 2.324075 145 162 143
0.247837 0.226177 2.315773 149 166 147
0.238016 0.220518 2.224003 138 155 136
0.243089 0.235341 2.271412 143 161 140
0.242655 0.236605 2.267350 142 160 137
0.248379 0.245634 2.320838 139 158 131
0.246828 0.245813 2.306344 139 157 130
0.245962 0.246658 2.298252 146 162 137
0.247237 0.254800 2.310169 147 165 141
0.271648 -0.573889 2.520762 203 195 193
0.299240 -0.630118 2.776803 203 195 193
0.243345 -0.510742 2.258128 203 195 193
0.439212 -0.918809 4.075684 203 195 193
0.432684 -0.902170 4.015109 203 195 193
0.677909 -1.408805 6.290679 203 195 193
0.678355 -1.400380 6.294818 203 195 193
0.679869 -1.398820 6.308866 203 195 193
3.133406 -6.425334 29.076532 203 195 193
0.303572 -0.620409 2.817003 203 195 193
0.937554 -1.909616 8.700062 203 195 193
0.326961 -0.663702 3.034040 203 195 193
0.341454 -0.679001 3.168533 203 195 193
1.550792 -3.073152 14.390625 203 195 193
0.242662 -0.472512 2.251787 203 195 193
0.932800 -1.809922 8.655950 203 195 193
0.245600 -0.473155 2.279055 203 195 193
0.685177 -1.301120 6.358117 203 195 193
0.678427 -1.278949 6.295479 203 195 193
0.928411 -1.718217 8.615218 203 195 193
0.933827 -1.715367 8.665476 203 195 193
0.943030 -1.725773 8.750879 203 195 193
2.887346 -5.264026 26.793211 203 195 193
1.080787 -1.962973 10.029192 203 195 193
0.938051 -1.697263 8.704668 203 195 193
0.934522 -1.684438 8.671926 203 195 193
2.933564 -5.247190 27.222095 203 195 193
0.189580 -0.336483 1.759211 203 195 193
0.934815 -1.646307 8.674646 203 195 193
0.930408 -1.632132 8.633747 203 195 193
0.189635 -0.327432 1.759724 203 195 193
2.961592 -5.052368 27.482182 203 195 193
0.269502 -0.426324 2.500847 203 195 193
0.269635 -0.424676 2.502083 203 195 193
0.269903 -0.423239 2.504575 203 195 193
0.269767 -0.421166 2.503314 203 195 193
0.270288 -0.420116 2.508148 203 195 193
0.269879 -0.417621 2.504353 203 195 193
0.269873 -0.415750 2.504292 203 195 193
0.270275 -0.414508 2.508027 203 195 193
2.900079 -4.347760 26.911367 203 195 192
0.699976 -0.991500 6.495451 204 196 193
0.698562 -0.984681 6.482324 204 196 193
0.269514 -0.359469 2.500963 203 195 192
0.268751 -0.356599 2.493885 203 195 192
0.268994 -0.355067 2.496137 203 195 192
0.269303 -0.353619 2.499009 203 195 192
0.269807 -0.348701 2.503682 203 193 187
0.270041 -0.347143 2.505856 202 191 183
0.269995 -0.345222 2.505426 204 194 186
0.270145 -0.337967 2.506821 195 190 187
0.272593 -0.339150 2.529536 176 172 169
0.242877 -0.288786 2.253785 99 108 103
0.244990 -0.272724 2.273393 10 18 29
0.250796 -0.275730 2.327273 9 17 28
0.244492 -0.260374 2.268775 4 14 23
0.235519 -0.241078 2.185508 3 16 22
0.235213 -0.239143 2.182666 1 15 21
0.235007 -0.237314 2.180753 1 13 19
0.234833 -0.232282 2.179139 0 9 16
0.235177 -0.229381 2.182336 0 8 15
0.237020 -0.229545 2.199438 0 8 14
0.236966 -0.224592 2.198932 0 8 13
0.236937 -0.222932 2.198663 0 9 13
0.236034 -0.220455 2.190284 0 10 12
0.235926 -0.218729 2.189287 0 10 12
0.235913 -0.217090 2.189162 0 10 12
0.235716 -0.215285 2.187337 0 10 12
0.236442 -0.214317 2.194068 0 10 12
0.238022 -0.214110 2.208737 0 9 12
0.244914 -0.216932 2.272685 0 8 13
0.244250 -0.214661 2.266526 0 9 16
0.234438 -0.204422 2.175478 0 9 16
0.235519 -0.202118 2.185508 1 10 17
0.236477 -0.201310 2.194393 1 8 16
0.236464 -0.199669 2.194279 0 7 15
0.237070 -0.198547 2.199897 0 6 14
0.240674 -0.198247 2.233342 0 5 14
0.240447 -0.196403 2.231236 1 5 14
0.240539 -0.194820 2.232088 1 5 14
0.237500 -0.190722 2.203893 1 5 14
0.235325 -0.187353 2.183702 1 5 14
0.234998 -0.185473 2.180670 2 5 14
0.234404 -0.183389 2.175161 0 1 9
0.227724 -0.175023 2.113173 0 1 8
0.228105 -0.173744 2.116703 0 1 8
0.227119 -0.171428 2.107562 0 2 8
0.227221 -0.169939 2.108506 0 2 8
0.228754 -0.164778 2.122726 0 3 9
0.228789 -0.163227 2.123058 0 2 9
0.245884 -0.173728 2.281686 0 2 9
0.245852 -0.172010 2.281388 0 1 8
0.245722 -0.170226 2.280182 0 1 8
0.245877 -0.168639 2.281622 0 0 7
0.246122 -0.167110 2.283898 0 0 9
0.246069 -0.165378 2.283404 1 0 14
0.245994 -0.163632 2.282705 2 1 18
0.246385 -0.160496 2.286338 0 1 13
0.247534 -0.159538 2.297002 1 1 11
0.246608 -0.157241 2.288402 3 2 10
0.246820 -0.155676 2.290375 5 5 11
0.245492 -0.153146 2.278047 6 9 14
0.243649 -0.150317 2.260948 12 21 25
0.243591 -0.148602 2.260406 25 38 43
0.242830 -0.146464 2.253351 34 50 56
0.242298 -0.144473 2.248408 37 54 61
0.240157 -0.141541 2.228544 44 60 68
0.237174 -0.138149 2.200863 48 62 72
0.236997 -0.136412 2.199217 39 54 65
0.227006 -0.125968 2.106512 31 45 54
0.227024 -0.124412 2.106675 28 42 51
0.226874 -0.122766 2.105281 26 40 49
0.227480 -0.121527 2.110907 25 40 48
0.226596 -0.119492 2.102701 27 42 49
0.227010 -0.118146 2.106550 31 46 53
0.227295 -0.115161 2.109189 37 54 61
0.226968 -0.113431 2.106153 42 59 67
0.227653 -0.112204 2.112515 47 64 72
0.228048 -0.110827 2.116174 50 68 75
0.226798 -0.108657 2.104582 48 67 73
0.227095 -0.107233 2.107333 41 60 66
0.227842 -0.106016 2.114267 34 53 59
0.227865 -0.104456 2.114483 28 47 53
0.226980 -0.102486 2.106265 24 43 50
0.225164 -0.090802 2.089418 1 8 18
0.225419 -0.089351 2.091779 0 8 17
0.226246 -0.088120 2.099453 0 9 18
0.226730 -0.086745 2.103945 0 9 18
0.227417 -0.076036 2.110324 0 3 10
0.229089 -0.075016 2.125834 0 3 10
0.232478 -0.074523 2.157287 0 4 10
0.224019 -0.062547 2.078792 0 7 13
0.224843 -0.053479 2.086440 0 7 13
0.224654 -0.051886 2.084687 0 7 13
0.224218 -0.050239 2.080638 0 7 13
0.222655 -0.048355 2.066132 0 7 13
0.221852 -0.043593 2.058684 0 7 13
0.222455 -0.042178 2.064282 0 7 13
0.223123 -0.040767 2.070479 1 7 13
0.213930 -0.034664 1.985173 1 6 12
0.212670 -0.032994 1.973479 1 6 12
0.228947 -0.029207 2.124519 1 6 12
0.228438 -0.027567 2.119799 0 5 11
0.219202 -0.023431 2.034088 0 5 11
0.236447 -0.020385 2.194119 0 5 11
0.237205 -0.018816 2.201154 0 5 11
0.236940 -0.017161 2.198691 0 5 11
0.238124 -0.015606 2.209683 0 5 11
0.226266 -0.005471 2.099646 0 5 11
0.225234 -0.003894 2.090066 0 5 11
0.224258 0.005397 2.081007 1 2 7
0.222957 0.006903 2.068938 1 2 7
0.221855 0.008398 2.058706 1 2 7
0.228205 0.011784 2.117637 0 1 6
0.228729 0.013387 2.122501 0 1 6
0.227433 0.014879 2.110470 0 1 6
0.227148 0.016426 2.107827 0 1 6
0.220648 0.022039 2.047513 0 1 6
0.208229 0.026540 1.932267 1 2 7
0.220384 0.049355 2.045056 0 5 11
0.220237 0.050840 2.043696 0 4 10
0.237609 0.063039 2.204899 0 4 10
0.211692 0.085345 1.964401 1 2 7
0.211336 0.086658 1.961096 1 2 7
0.211529 0.088195 1.962892 1 2 7
0.211691 0.089722 1.964393 1 2 7
0.211864 0.091256 1.966002 1 2 7
0.214264 0.110011 1.988266 0 0 6
0.213354 0.112485 1.979829 0 1 3
0.212027 0.113247 1.967512 0 1 1
0.204237 0.110494 1.895226 0 2 1
0.204809 0.112215 1.900535 0 2 3
0.203104 0.114081 1.884714 0 1 4
0.202009 0.116250 1.874552 0 1 3
0.213512 0.128756 1.981287 0 1 3
0.214476 0.130816 1.990240 0 1 3
0.216410 0.133487 2.008183 0 1 1
0.206116 0.142765 1.912662 1 3 2
0.205725 0.143912 1.909035 0 3 3
0.217778 0.156847 2.020873 0 3 6
0.220050 0.170617 2.041960 0 5 9
0.245470 0.207245 2.277845 5 10 9
0.244529 0.208137 2.269118 29 37 33
0.243309 0.208775 2.257793 63 73 65
0.244852 0.213474 2.272108 137 151 136
0.244902 0.216894 2.272572 142 159 140
0.249364 0.222564 2.313978 142 159 140
0.250548 0.225348 2.324967 143 160 141
0.249008 0.225680 2.310682 144 161 142
0.239152 0.221692 2.219222 145 162 144
0.243443 0.235737 2.259036 139 157 135
0.243574 0.237542 2.260249 138 156 131
0.248170 0.243736 2.302903 138 156 130
0.250564 0.247813 2.325112 139 158 131
0.247691 0.246679 2.298455 146 162 137
0.244032 0.244718 2.264504 149 164 140
0.248102 0.253929 2.302274 147 165 141
0.246335 0.253818 2.285872 147 165 141
0.273520 -0.573889 2.520762 203 195 193
0.301181 -0.629865 2.775688 203 195 193
0.244334 -0.509308 2.251787 203 195 193
0.441069 -0.916376 4.064894 203 195 193
0.679838 -1.403141 6.265388 203 195 193
0.378553 -0.778717 3.488747 203 195 193
0.679635 -1.388767 6.263525 203 195 193
3.155003 -6.425334 29.076532 203 195 193
0.945494 -1.912604 8.713675 203 195 193
0.243723 -0.471329 2.246151 203 195 193
0.940994 -1.813322 8.672208 203 195 193
0.245116 -0.470667 2.258987 203 195 193
0.245546 -0.469813 2.262955 203 195 193
0.436249 -0.819761 4.020476 203 195 193
0.676833 -1.267212 6.237702 203 195 193
0.930093 -1.715914 8.571747 203 195 193
0.936461 -1.721251 8.630429 203 195 193
0.936385 -1.708291 8.629728 203 195 193
0.936049 -1.701271 8.626634 203 195 193
0.945885 -1.699723 8.717284 203 195 193
0.938694 -1.641821 8.651008 203 195 193
0.936385 -1.631372 8.629728 203 195 193
0.940079 -1.631374 8.663780 203 195 193
0.941247 -1.626957 8.674537 203 195 193
2.816046 -4.771186 25.952703 203 195 193
2.620738 -4.422339 24.152744 203 195 193
0.244658 -0.404471 2.254766 203 195 192
0.244160 -0.401977 2.250179 203 195 192
0.244188 -0.400352 2.250442 203 195 192
0.244129 -0.398583 2.249892 203 195 192
0.270894 -0.427448 2.496565 203 195 193
0.271075 -0.425877 2.498228 203 195 193
0.271432 -0.424581 2.501524 203 195 193
0.271902 -0.423455 2.505852 203 195 193
0.272306 -0.422220 2.509575 203 195 193
0.272278 -0.420313 2.509321 203 195 193
0.271811 -0.417731 2.505014 203 195 193
0.271681 -0.415670 2.503811 203 195 193
0.271641 -0.413751 2.503450 203 195 193
1.453449 -2.174026 13.395000 203 195 192
0.704858 -0.991580 6.495978 204 196 193
0.703219 -0.984460 6.480869 204 196 193
0.702993 -0.950459 6.478792 204 196 193
0.271849 -0.361962 2.505362 203 195 192
0.270906 -0.358852 2.496671 203 195 192
0.270933 -0.355179 2.496925 203 195 192
0.271634 -0.354238 2.503380 203 195 192
0.271472 -0.352168 2.501888 203 195 191
0.271549 -0.350409 2.502596 204 195 189
0.271520 -0.348513 2.502329 203 194 186
0.271612 -0.346773 2.503182 203 193 184
0.271748 -0.345086 2.504435 205 195 187
0.271914 -0.343435 2.505963 202 193 185
0.271490 -0.339183 2.502056 199 192 186
0.271472 -0.337302 2.501888 197 192 188
0.273132 -0.337495 2.517189 184 180 177
0.243650 -0.287722 2.245481 112 119 115
0.244820 -0.274020 2.256259 14 27 34
0.243726 -0.271128 2.246180 11 22 30
0.249608 -0.274254 2.300387 10 18 29
0.250146 -0.273133 2.305351 10 18 29
0.268664 -0.284157 2.476010 5 15 24
0.243977 -0.241345 2.248493 2 10 18
0.244067 -0.239764 2.249326 1 9 16
0.241531 -0.230659 2.225951 0 7 13
0.241755 -0.229217 2.228013 0 7 13
0.236681 -0.213066 2.181257 0 9 11
0.237661 -0.212321 2.190284 0 9 11
0.237346 -0.210415 2.187387 0 7 12
0.245008 -0.215530 2.257993 0 8 13
0.246072 -0.214781 2.267798 0 9 16
0.245714 -0.211106 2.264504 2 11 18
0.245075 -0.208879 2.258617 2 11 18
0.237973 -0.199567 2.193159 1 8 16
0.238475 -0.198356 2.197787 0 6 14
0.236579 -0.195159 2.180312 0 6 14
0.235281 -0.192478 2.168349 1 5 14
0.239377 -0.192552 2.206101 1 5 14
0.237834 -0.189683 2.191880 1 5 14
0.228651 -0.172968 2.107253 6 9 16
0.228774 -0.171495 2.108383 8 13 19
0.247725 -0.180614 2.283039 8 13 19
0.246807 -0.178254 2.274573 5 9 15
0.229173 -0.163950 2.112064 3 6 12
0.229060 -0.162301 2.111023 3 5 12
0.247245 -0.173493 2.278611 3 4 11
0.247191 -0.171764 2.278115 3 5 12
0.246876 -0.169855 2.275212 5 7 14
0.246819 -0.168126 2.274685 6 9 16
0.246803 -0.166425 2.274536 7 10 20
0.247026 -0.164885 2.276590 8 9 24
0.247224 -0.163325 2.278415 11 10 28
0.247854 -0.160347 2.284220 13 15 28
0.248059 -0.158782 2.286111 16 17 27
0.248260 -0.157212 2.287967 22 21 29
0.247478 -0.155022 2.280759 24 24 30
0.246903 -0.152972 2.275460 22 25 30
0.246287 -0.150904 2.269783 23 32 36
0.245832 -0.148943 2.265594 29 43 47
0.244727 -0.146598 2.255406 30 47 51
0.244090 -0.144546 2.249537 28 45 51
0.240633 -0.140851 2.217672 37 52 60
0.239205 -0.138378 2.204515 47 60 69
0.236948 -0.135450 2.183714 42 55 65
0.236975 -0.133844 2.183968 29 45 55
0.228437 -0.121203 2.105281 24 38 46
0.229339 -0.120111 2.113587 24 39 46
0.233373 -0.117431 2.150765 32 47 54
0.232984 -0.115641 2.147185 36 52 59
0.233322 -0.114211 2.150296 39 56 63
0.232805 -0.112365 2.145534 44 61 67
0.229310 -0.109108 2.113322 49 67 71
0.231137 -0.108395 2.130163 49 67 71
0.228994 -0.105822 2.110409 45 63 67
0.229149 -0.104325 2.111838 39 57 61
0.228317 -0.088317 2.104168 0 9 18
0.229355 -0.076159 2.113735 0 3 10
0.230832 -0.075069 2.127352 0 4 10
0.234389 -0.074621 2.160128 0 4 10
0.226356 -0.053470 2.086096 0 7 13
0.226184 -0.051881 2.084512 0 7 13
0.223457 -0.043608 2.059379 0 7 13
0.223762 -0.042135 2.062196 0 7 13
0.224575 -0.040751 2.069687 0 7 13
0.224456 -0.039193 2.068592 0 6 12
0.213985 -0.034435 1.972092 1 6 12
0.213482 -0.032893 1.967453 1 6 12
0.226984 -0.028758 2.091883 1 6 12
0.219630 -0.023316 2.024113 0 6 12
0.236553 -0.020255 2.180076 0 6 12
0.237709 -0.018726 2.190727 0 6 12
0.237482 -0.017083 2.188635 1 6 12
0.238188 -0.015503 2.195145 1 6 12
0.225092 -0.005406 2.074446 0 6 12
0.225188 -0.003867 2.075334 0 6 12
0.222832 0.003801 2.053626 1 2 7
0.223754 0.005348 2.062118 1 2 7
0.228908 0.010172 2.109616 1 2 7
0.229757 0.011783 2.117438 1 2 7
0.229409 0.013335 2.114236 1 3 7
0.228960 0.014876 2.110098 0 3 7
0.228342 0.016399 2.104405 0 3 7
0.226268 0.017799 2.085287 0 3 7
0.221389 0.021962 2.040326 0 2 7
0.213848 0.035853 1.970826 1 1 11
0.236682 0.062363 2.181266 0 4 10
0.217299 0.060231 2.002628 0 2 9
0.212010 0.084888 1.953889 1 2 7
0.211804 0.086256 1.951990 1 2 7
0.212642 0.088053 1.959711 1 2 7
0.212101 0.089280 1.954723 1 2 7
0.212882 0.091066 1.961924 1 2 7
0.213704 0.095807 1.969498 1 2 7
0.213249 0.097062 1.965301 1 2 7
0.211672 0.112283 1.950770 0 1 1
0.205866 0.119068 1.897264 0 1 3
0.213010 0.127574 1.963101 0 1 3
0.213911 0.129579 1.971410 0 1 3
0.215242 0.131858 1.983676 0 1 1
0.205109 0.132671 1.890288 1 1 0
0.208844 0.142235 1.924709 1 2 2
0.210948 0.148000 1.944096 0 4 5
0.219352 0.168911 2.021548 0 5 9
0.244467 0.210006 2.253011 94 109 95
0.244716 0.211895 2.255305 139 155 137
0.251193 0.222662 2.314999 143 160 141
0.252911 0.225916 2.330830 143 160 141
0.250074 0.225094 2.304685 144 161 142
0.244262 0.233239 2.251122 141 159 138
0.243488 0.234166 2.243985 138 156 133
0.243280 0.235632 2.242073 136 154 130
0.248064 0.241964 2.286162 138 156 129
0.251512 0.247049 2.317937 140 158 131
0.250472 0.247742 2.308356 146 163 137
0.245714 0.244718 2.264504 149 164 140
0.248152 0.252241 2.286967 147 165 141
0.250429 0.257984 2.307953 147 165 141
0.233077 0.244896 2.148041 147 161 136
0.274243 -0.571494 2.510242 203 195 193
0.303243 -0.629865 2.775688 203 195 193
0.245853 -0.508990 2.250383 203 195 193
0.439419 -0.906742 4.022157 203 195 193
0.684601 -1.403366 6.266393 203 195 193
0.381365 -0.779169 3.490772 203 195 193
0.683779 -1.387734 6.258869 203 195 193
3.176600 -6.425334 29.076532 203 195 193
0.371888 -0.749692 3.404020 203 195 193
0.952424 -1.913525 8.717872 203 195 193
0.350262 -0.689426 3.206067 203 195 193
0.347901 -0.682415 3.184462 203 195 193
1.472512 -2.838302 13.478415 203 195 193
0.245274 -0.471104 2.245080 203 195 193
0.245637 -0.468461 2.248399 203 195 193
0.246007 -0.467494 2.251787 203 195 193
0.683779 -1.271512 6.258869 203 195 193
0.943261 -1.721962 8.633994 203 195 193
0.926145 -1.678122 8.477325 203 195 193
0.923301 -1.666693 8.451299 203 195 193
3.079950 -5.538818 28.191866 203 195 193
0.953183 -1.701192 8.724818 203 195 193
0.547688 -0.970039 5.013184 203 195 192
0.945210 -1.641979 8.651842 203 195 192
0.945922 -1.636784 8.658357 203 195 193
0.949396 -1.636341 8.690156 203 195 193
0.946716 -1.625285 8.665623 203 195 193
0.247047 -0.407325 2.261311 203 195 192
0.272445 -0.426972 2.493782 203 195 193
0.272811 -0.425691 2.497133 203 195 193
0.273144 -0.424354 2.500186 203 195 193
0.274096 -0.423969 2.508899 203 195 193
0.274284 -0.422395 2.510616 203 195 193
0.274426 -0.420748 2.511919 203 195 193
0.273718 -0.417801 2.505437 203 195 193
0.273273 -0.415265 2.501367 203 195 193
0.273166 -0.413245 2.500386 203 195 193
0.346175 -0.497803 3.168665 204 196 193
0.710353 -0.992516 6.502110 204 196 193
0.708320 -0.984859 6.483497 204 196 193
0.714507 -0.964316 6.540137 204 196 193
0.709222 -0.952362 6.491761 204 196 193
0.273523 -0.356136 2.503654 203 195 192
0.274326 -0.355316 2.511004 203 195 192
0.273762 -0.352724 2.505838 203 195 191
0.273377 -0.350370 2.502319 204 195 189
0.273253 -0.348353 2.501181 204 195 187
0.272626 -0.345700 2.495441 206 196 188
0.272742 -0.343993 2.496506 207 198 190
0.271644 -0.340761 2.486448 203 194 186
0.273356 -0.335474 2.502119 192 187 184
0.243216 -0.285257 2.226238 125 130 126
0.242396 -0.282648 2.218740 103 108 105
0.245265 -0.272653 2.244998 15 27 33
0.251005 -0.273913 2.297534 11 19 29
0.269538 -0.283144 2.467180 5 15 24
0.270738 -0.282563 2.478157 4 14 23
0.238708 -0.242642 2.184979 4 19 24
0.247047 -0.239362 2.261311 1 8 16
0.243437 -0.230898 2.228261 0 7 13
0.245967 -0.226609 2.251426 0 7 10
0.246422 -0.225353 2.255587 0 7 10
0.246986 -0.224189 2.260749 0 7 10
0.247142 -0.222651 2.262181 0 7 10
0.248069 -0.221799 2.270660 0 8 10
0.245771 -0.216403 2.249630 0 8 12
0.247058 -0.215856 2.261408 0 9 13
0.246677 -0.213846 2.257923 0 10 16
0.242981 -0.208990 2.224090 1 11 18
0.246839 -0.210630 2.259400 3 12 19
0.246409 -0.208587 2.255464 3 11 18
0.244128 -0.204997 2.234589 3 10 18
0.243106 -0.197527 2.225231 1 6 14
0.241170 -0.194315 2.207510 1 6 14
0.244542 -0.192044 2.238378 2 6 14
0.246700 -0.192061 2.258128 2 6 13
0.248216 -0.191554 2.272006 5 8 15
0.248177 -0.189837 2.271655 11 14 20
0.248481 -0.186690 2.274430 28 32 38
0.249635 -0.185861 2.285001 36 40 45
0.246748 -0.178678 2.258571 40 45 50
0.246715 -0.176977 2.258269 32 36 42
0.246561 -0.175190 2.256856 28 32 37
0.248519 -0.173202 2.274782 25 27 34
0.248456 -0.171469 2.274209 27 30 36
0.248155 -0.169574 2.271447 34 37 44
0.247936 -0.167739 2.269446 42 44 52
0.247874 -0.166012 2.268880 48 50 60
0.248180 -0.164529 2.271678 55 54 70
0.248473 -0.163034 2.274362 65 63 83
0.249028 -0.161705 2.279438 74 74 90
0.249028 -0.160012 2.279438 79 79 91
0.249808 -0.158815 2.286583 84 84 93
0.249194 -0.156730 2.280956 92 91 97
0.248842 -0.154817 2.277736 93 93 99
0.248331 -0.152811 2.273063 87 91 95
0.247549 -0.150646 2.265900 80 89 93
0.247523 -0.148948 2.265667 72 85 90
0.246299 -0.146536 2.254458 51 67 73
0.245837 -0.144590 2.250229 30 46 52
0.238618 -0.135478 2.184157 41 54 63
0.237256 -0.133091 2.171688 31 45 54
0.233725 -0.127932 2.139364 29 43 52
0.230728 -0.121586 2.111930 25 40 47
0.230811 -0.120060 2.112690 24 39 46
0.232255 -0.119232 2.125914 24 37 44
0.235159 -0.119124 2.152489 24 36 42
0.234944 -0.117418 2.150523 26 39 45
0.234874 -0.115786 2.149884 25 38 44
0.233754 -0.113645 2.139636 22 35 41
0.232688 -0.111544 2.129873 26 39 44
0.231065 -0.109196 2.115021 37 51 54
0.231360 -0.107762 2.117719 48 62 65
0.229658 -0.102285 2.102142 38 57 61
0.231519 -0.076355 2.119172 0 3 11
0.232364 -0.075054 2.126910 0 4 10
0.234472 -0.074140 2.146202 0 5 11
0.231785 -0.071715 2.121605 0 5 11
0.232926 -0.070484 2.132051 1 6 12
0.232598 -0.068804 2.129047 0 6 12
0.232263 -0.065547 2.125989 0 7 13
0.229795 -0.060163 2.103390 0 7 13
0.232308 -0.059241 2.126397 0 7 13
0.231192 -0.057385 2.116182 0 7 13
0.227011 -0.053260 2.077910 0 7 13
0.231449 -0.051154 2.118533 0 8 14
0.224688 -0.040495 2.056650 0 7 13
0.224172 -0.038877 2.051924 0 6 13
0.223780 -0.037288 2.048339 0 6 12
0.225543 -0.032981 2.064477 1 5 12
0.225545 -0.031448 2.064496 1 5 12
0.225104 -0.028326 2.060453 1 5 12
0.220666 -0.023267 2.019834 0 7 13
0.236106 -0.023289 2.161163 0 7 13
0.236702 -0.021739 2.166613 0 7 13
0.233050 -0.015066 2.133185 1 7 13
0.214950 -0.010973 1.967512 0 7 13
0.228869 -0.007015 2.094919 0 7 13
0.225434 -0.005377 2.063474 0 7 13
0.224721 -0.003832 2.056946 0 7 13
0.229337 0.002326 2.099202 1 2 7
0.222611 0.003771 2.037632 1 2 7
0.223422 0.005304 2.045056 1 2 7
0.223929 0.006838 2.049702 1 2 7
0.230071 0.010154 2.105922 1 2 7
0.230558 0.011743 2.110381 2 3 8
0.230499 0.013308 2.109842 1 3 7
0.230880 0.014899 2.113322 0 4 7
0.230029 0.016408 2.105534 0 4 7
0.212257 0.026685 1.942865 1 1 7
0.212795 0.028200 1.947790 1 1 9
0.216972 0.033179 1.986025 1 1 9
0.215879 0.034479 1.976018 1 1 11
0.215182 0.035831 1.969632 1 1 11
0.216139 0.037460 1.978392 1 1 13
0.215880 0.038883 1.976027 1 1 13
0.214990 0.041646 1.967875 1 0 13
0.215296 0.043169 1.970677 1 0 14
0.235572 0.061649 2.156271 0 4 10
0.215256 0.060723 1.970313 0 2 9
0.221475 0.068500 2.027236 0 2 9
0.215238 0.082668 1.970148 1 2 7
0.214512 0.083848 1.963508 1 2 7
0.214107 0.085145 1.959798 1 2 7
0.214138 0.086613 1.960080 1 2 7
0.214101 0.088054 1.959746 1 2 7
0.212924 0.089017 1.948964 1 2 7
0.214979 0.095723 1.967775 1 2 7
0.214933 0.097164 1.967361 1 2 7
0.215014 0.103048 1.968097 0 1 6
0.214663 0.105798 1.964882 0 1 6
0.210764 0.109609 1.929201 0 1 3
0.210648 0.110981 1.928137 0 1 1
0.208673 0.111359 1.910058 0 2 1
0.209094 0.113005 1.913909 0 1 3
0.212085 0.117505 1.941290 0 1 4
0.212236 0.119032 1.942669 0 1 5
0.212479 0.124947 1.944898 0 1 3
0.213014 0.126710 1.949796 0 1 3
0.214339 0.128955 1.961924 0 1 3
0.215102 0.130876 1.968903 0 1 1
0.197476 0.125522 1.807566 1 1 0
0.210031 0.136359 1.922487 0 0 1
0.210688 0.141082 1.928498 0 0 2
0.210600 0.142456 1.927699 1 2 2
0.210435 0.143774 1.926182 1 3 2
0.211099 0.147099 1.932267 0 4 5
0.219320 0.179667 2.007513 0 3 6
0.249534 0.209509 2.284076 41 48 43
0.248885 0.210655 2.278127 74 85 75
0.245763 0.211355 2.249557 144 158 141
0.251371 0.219596 2.300890 142 159 140
0.252935 0.222682 2.315206 143 160 141
0.254628 0.225903 2.330696 143 160 141
0.252456 0.225693 2.310814 144 161 142
0.252143 0.227127 2.307953 145 162 143
0.253904 0.230440 2.324075 145 162 143
0.254882 0.233060 2.333020 145 162 144
0.257185 0.238663 2.354103 145 162 144
0.255080 0.238444 2.334832 145 162 144
0.254956 0.240062 2.333700 145 162 143
0.254314 0.241186 2.327824 142 159 139
0.253560 0.247367 2.320925 140 158 131
0.251248 0.246819 2.299758 146 163 137
0.246646 0.243976 2.257638 149 164 140
0.249212 0.248208 2.281128 147 164 141
0.249927 0.252319 2.287671 147 165 141
0.277265 -0.573889 2.520762 203 195 193
0.305305 -0.629865 2.775688 203 195 193
0.247679 -0.509308 2.251787 203 195 193
0.383785 -0.778818 3.489197 203 195 193
0.688428 -1.387734 6.258869 203 195 193
3.198197 -6.425334 29.076532 203 195 193
0.367942 -0.736728 3.345156 203 195 193
0.958900 -1.913525 8.717872 203 195 193
0.366312 -0.728517 3.330338 203 195 193
0.365805 -0.725040 3.325734 203 195 193
0.350487 -0.685211 3.186468 203 195 193
0.348045 -0.678087 3.164265 203 195 193
1.467024 -2.808629 13.337506 203 195 193
0.247402 -0.471981 2.249260 203 195 193
0.246007 -0.465998 2.236582 203 195 193
0.431173 -0.799279 3.920026 203 195 193
3.111586 -5.557923 28.289106 203 195 193
0.959049 -1.700103 8.719230 203 195 193
0.552421 -0.971814 5.022357 203 195 192
0.955143 -1.648029 8.683722 203 195 192
0.954892 -1.641147 8.681433 203 195 192
0.955143 -1.635129 8.683722 203 195 192
0.952178 -1.623623 8.656763 203 195 192
0.242313 -0.388640 2.202999 202 194 192
0.367061 -0.573847 3.337146 202 194 192
0.273354 -0.425503 2.485204 202 194 192
0.274013 -0.424679 2.491199 202 194 192
0.275037 -0.424409 2.500508 202 194 192
0.275706 -0.423580 2.506594 203 195 193
0.275981 -0.422138 2.509089 203 195 193
0.276179 -0.420577 2.510896 203 195 193
0.275479 -0.417649 2.504525 203 195 193
0.274227 -0.413900 2.493146 203 195 193
0.273677 -0.411222 2.488146 203 195 193
0.252935 -0.366391 2.299570 203 195 192
0.342813 -0.489639 3.116695 203 195 193
0.710490 -0.986004 6.459445 203 195 193
0.709574 -0.979940 6.451115 203 195 193
0.713400 -0.961137 6.485899 204 196 193
0.714332 -0.957568 6.494372 204 196 193
0.710931 -0.948209 6.463458 204 196 193
0.275924 -0.354973 2.508576 203 195 192
0.274587 -0.351398 2.496420 203 195 191
0.274624 -0.349591 2.496756 203 195 190
0.274242 -0.347253 2.493283 204 195 190
0.274414 -0.345618 2.494849 206 197 191
0.273031 -0.342032 2.482269 206 197 191
0.272295 -0.339271 2.475578 203 194 188
0.271331 -0.336238 2.466820 199 191 185
0.242025 -0.281943 2.200380 140 143 141
0.241815 -0.280066 2.198472 119 121 122
0.242114 -0.278777 2.201190 109 112 112
0.247371 -0.271466 2.248980 11 20 28
0.270992 -0.282748 2.463734 4 15 23
0.271242 -0.281177 2.466006 3 16 24
0.271807 -0.279927 2.471141 6 20 27
0.248445 -0.245801 2.258743 1 12 18
0.248144 -0.230422 2.256010 0 7 12
0.248144 -0.225395 2.256010 0 7 10
0.248340 -0.223896 2.257793 0 7 9
0.248953 -0.222768 2.263368 0 6 9
0.249318 -0.221410 2.266683 0 6 10
0.248693 -0.219176 2.260999 0 6 11
0.248247 -0.217107 2.256951 1 9 15
0.249401 -0.216432 2.267439 0 9 16
0.249784 -0.215077 2.270917 0 8 16
0.249796 -0.211714 2.271030 2 10 18
0.247853 -0.208394 2.253369 3 11 19
0.247374 -0.206320 2.249014 4 11 19
0.242291 -0.198808 2.202798 1 9 14
0.243576 -0.198218 2.214477 0 7 12
0.242448 -0.195663 2.204226 0 6 11
0.241949 -0.193626 2.199687 1 6 10
0.247131 -0.194435 2.246798 1 5 10
0.247834 -0.193315 2.253193 5 8 13
0.248377 -0.192061 2.258128 8 11 15
0.249078 -0.190921 2.264504 20 23 26
0.249450 -0.189522 2.267887 28 31 33
0.248738 -0.187301 2.261408 39 43 44
0.249462 -0.186162 2.267998 52 56 57
0.249568 -0.184556 2.268961 63 67 68
0.248124 -0.178461 2.255830 73 75 79
0.248277 -0.176895 2.257220 74 76 81
0.248716 -0.175528 2.261209 75 76 80
0.250102 -0.173128 2.273815 79 78 84
0.250010 -0.171376 2.272979 86 85 91
0.249459 -0.169314 2.267966 97 96 104
0.249554 -0.167693 2.268827 110 108 116
0.249620 -0.166052 2.269434 119 116 127
0.249620 -0.164366 2.269434 131 128 141
0.250209 -0.163064 2.274782 145 142 157
0.250338 -0.161458 2.275954 157 154 168
0.250817 -0.160073 2.280310 164 161 172
0.250569 -0.158223 2.278062 169 168 176
0.250347 -0.156392 2.276037 176 174 180
0.250222 -0.154624 2.274905 176 174 179
0.249752 -0.152647 2.270629 169 168 173
0.249262 -0.150664 2.266174 148 151 155
0.248571 -0.148568 2.259895 126 133 136
0.247699 -0.146374 2.251965 87 97 100
0.247679 -0.144690 2.251787 45 55 61
0.246816 -0.142519 2.243933 32 42 50
0.243068 -0.138713 2.209859 40 51 60
0.240850 -0.135821 2.189700 39 52 62
0.236695 -0.130282 2.151925 30 42 54
0.234791 -0.127648 2.134614 31 43 55
0.231791 -0.119756 2.107333 25 40 43
0.236945 -0.117619 2.154196 22 33 35
0.237133 -0.116111 2.155908 15 25 28
0.234897 -0.113429 2.135575 6 16 18
0.233230 -0.111049 2.120418 7 17 19
0.231612 -0.108715 2.105705 21 32 35
0.232340 -0.107488 2.112332 39 50 54
0.229588 -0.101563 2.087304 41 60 64
0.228910 -0.088897 2.081146 0 8 18
0.232654 -0.076211 2.115180 0 4 11
0.233898 -0.075039 2.126493 0 5 11
0.235763 -0.074045 2.143448 0 5 12
0.232264 -0.071378 2.111635 0 5 13
0.233681 -0.068657 2.124519 1 6 14
0.232654 -0.058929 2.115180 0 7 13
0.232164 -0.050966 2.110726 0 8 15
0.231970 -0.047790 2.108963 0 8 15
0.232299 -0.046290 2.111955 0 8 15
0.225412 -0.040351 2.049344 0 7 15
0.225105 -0.038775 2.046547 0 6 14
0.223741 -0.037030 2.034149 0 6 14
0.226174 -0.032850 2.056267 1 5 14
0.223705 -0.027960 2.033818 1 5 14
0.231534 -0.017994 2.105001 0 7 13
0.232103 -0.016470 2.110171 0 7 13
0.232776 -0.014946 2.116296 0 7 13
0.232670 -0.013368 2.115331 0 7 13
0.227728 -0.006933 2.070400 0 7 13
0.223799 -0.005302 2.034678 0 7 13
0.223666 -0.003789 2.033464 0 7 13
0.228589 0.002303 2.078223 1 2 7
0.228952 0.003852 2.081522 1 2 7
0.222919 0.005256 2.026679 1 2 7
0.224941 0.006823 2.045056 1 2 7
0.227409 0.008433 2.067498 1 2 7
0.229713 0.010070 2.088443 0 2 7
0.231344 0.011704 2.103271 0 3 7
0.230948 0.013243 2.099673 0 3 7
0.229533 0.014712 2.086812 0 4 7
0.230097 0.016302 2.091938 0 4 7
0.215514 0.024001 1.959354 1 2 7
0.213323 0.026638 1.939436 1 1 7
0.214585 0.028245 1.950909 1 1 9
0.216530 0.031425 1.968593 1 1 9
0.216547 0.032890 1.968741 1 1 9
0.216528 0.034350 1.968577 1 1 11
0.216353 0.035783 1.966978 1 1 11
0.216432 0.037257 1.967701 1 1 13
0.216560 0.038742 1.968864 1 0 13
0.216398 0.040174 1.967389 1 0 13
0.215951 0.041550 1.963331 1 0 13
0.215885 0.042994 1.962723 0 0 13
0.225088 0.049387 2.046394 0 5 11
0.225170 0.050926 2.047144 0 4 10
0.224797 0.052360 2.043753 0 4 10
0.224469 0.053799 2.040770 0 5 11
0.224813 0.055400 2.043898 0 5 11
0.224735 0.056898 2.043185 0 5 11
0.215068 0.060260 1.955300 0 2 9
0.215984 0.061975 1.963627 0 2 9
0.216361 0.063544 1.967059 0 2 9
0.222248 0.068275 2.020580 0 2 9
0.213390 0.075641 1.940041 1 2 7
0.215179 0.082087 1.956305 1 2 7
0.214990 0.083467 1.954594 1 2 7
0.215519 0.085128 1.959396 1 2 7
0.215285 0.086489 1.957275 1 2 7
0.215376 0.087980 1.958095 1 2 7
0.212991 0.088444 1.936414 1 2 7
0.216358 0.095686 1.967024 1 2 7
0.215850 0.096919 1.962409 1 2 7
0.214918 0.099404 1.953939 1 2 7
0.215770 0.101255 1.961678 1 2 7
0.215511 0.102588 1.959323 0 1 6
0.213751 0.106081 1.943330 0 1 5
0.211967 0.106627 1.927107 0 1 4
0.210249 0.108603 1.911489 0 2 3
0.210254 0.110025 1.911529 0 2 0
0.209068 0.110816 1.900745 0 2 0
0.209304 0.112355 1.902898 0 1 2
0.210313 0.114316 1.912069 0 1 2
0.212649 0.119894 1.933302 0 1 3
0.210283 0.119980 1.911793 0 1 3
0.211560 0.122138 1.923410 0 1 3
0.212197 0.123938 1.929201 0 0 2
0.213272 0.126006 1.938968 0 0 2
0.215149 0.128568 1.956034 0 1 3
0.215450 0.130203 1.958774 0 1 1
0.216041 0.132019 1.964142 0 2 1
0.210074 0.134047 1.909896 1 1 0
0.210121 0.135496 1.910327 0 0 1
0.211365 0.139153 1.921634 0 0 3
0.211513 0.140679 1.922978 0 0 2
0.211850 0.142334 1.926045 1 2 2
0.211232 0.143345 1.920424 1 3 2
0.210189 0.144056 1.910943 0 4 4
0.216881 0.163289 1.971784 0 3 8
0.250525 0.208920 2.277653 45 54 48
0.250493 0.210585 2.277366 78 91 79
0.250020 0.211875 2.273063 109 124 108
0.249295 0.212945 2.266473 146 163 145
0.252867 0.219411 2.298951 143 160 141
0.255223 0.223179 2.320372 143 160 141
0.256288 0.225841 2.330054 144 161 142
0.254835 0.226282 2.316844 144 161 142
0.254468 0.229392 2.313502 146 163 144
0.255905 0.232416 2.326569 146 163 145
0.258396 0.236423 2.349213 146 163 145
0.258842 0.240327 2.353276 146 163 145
0.256093 0.239504 2.328279 145 162 143
0.253955 0.244364 2.308839 139 157 130
0.255092 0.247180 2.319175 140 159 132
0.248018 0.243676 2.254867 149 164 140
0.249784 0.247097 2.270917 147 164 141
0.250209 0.250897 2.274782 147 165 141
0.247559 0.249912 2.250688 147 165 141
0.255704 0.259862 2.324746 147 165 141
0.216791 0.221780 1.970963 147 164 141
0.279137 -0.573889 2.520762 203 194 194
0.307366 -0.629865 2.775688 203 194 193
0.249703 -0.510024 2.254953 203 195 193
0.937529 -1.902350 8.466405 203 195 193
0.385879 -0.777815 3.484704 203 195 193
0.693426 -1.388433 6.262022 203 194 194
3.219795 -6.425334 29.076532 203 194 194
0.365091 -0.726116 3.296973 203 194 193
0.965375 -1.913525 8.717872 203 195 193
0.363750 -0.718570 3.284864 203 195 193
0.363542 -0.715721 3.282988 203 195 193
0.363266 -0.712740 3.280490 203 195 193
0.351388 -0.682365 3.173231 203 195 192
0.348652 -0.674713 3.148523 203 195 192
0.492573 -0.940013 4.448206 203 195 193
0.249862 -0.473479 2.256395 203 194 194
0.427125 -0.786464 3.857176 203 195 193
0.963518 -1.748272 8.701104 203 195 193
3.128825 -5.551228 28.255028 203 195 193
0.965358 -1.699809 8.717721 203 195 193
0.557977 -0.975004 5.038841 203 195 192
0.557513 -0.970454 5.034652 203 195 192
0.557958 -0.967486 5.038673 203 195 192
0.964225 -1.652540 8.707490 204 196 192
0.960853 -1.640316 8.677040 203 195 192
0.961408 -1.634815 8.682050 203 195 192
0.961692 -1.628846 8.684610 203 195 192
0.974678 -1.644304 8.801888 203 195 192
