ply
format ascii 1.0
element vertex 1333
property float x
property float y
property float z
property uchar red
property uchar green
property uchar blue
end_header
0.088973 -0.290813 2.256523 77 110 151
0.088970 -0.289127 2.256444 74 108 146
0.088605 -0.286273 2.247198 69 103 140
0.088096 -0.282968 2.234278 63 95 133
0.088139 -0.281446 2.235370 59 90 128
0.088240 -0.280104 2.237918 50 79 117
0.088021 -0.277752 2.232375 24 52 90
0.087996 -0.276015 2.231733 21 48 85
0.087919 -0.274119 2.229796 39 65 101
0.087821 -0.272159 2.227313 49 75 110
0.087800 -0.270440 2.226776 59 85 119
0.087489 -0.267834 2.218889 67 94 125
0.087597 -0.266513 2.221616 61 86 118
0.087140 -0.263482 2.210039 42 65 101
0.087152 -0.261876 2.210335 37 59 97
0.087217 -0.260428 2.211978 41 60 99
0.087161 -0.258620 2.210570 44 61 99
0.087264 -0.257280 2.213167 49 64 99
0.087078 -0.255091 2.208454 52 66 99
0.086988 -0.253189 2.206170 46 58 90
0.086912 -0.251330 2.204240 32 43 73
0.086867 -0.249566 2.203121 21 33 61
0.087245 -0.249008 2.212700 16 30 56
0.087050 -0.246811 2.207750 12 26 51
0.086986 -0.244991 2.206132 7 22 43
0.086712 -0.242586 2.199182 6 21 39
0.086513 -0.240399 2.194128 5 21 36
0.086594 -0.238994 2.196195 3 20 31
0.086894 -0.238183 2.203781 1 18 28
0.086748 -0.236151 2.200101 0 16 24
0.086677 -0.234324 2.198289 0 15 23
0.086710 -0.232780 2.199135 0 14 22
0.086743 -0.231234 2.199969 0 13 21
0.086677 -0.229425 2.198289 0 11 20
0.086912 -0.228409 2.204240 0 10 19
0.086691 -0.226195 2.198638 0 8 18
0.086466 -0.223981 2.192945 0 7 18
0.086272 -0.221851 2.188007 0 6 18
0.086076 -0.219726 2.183038 1 7 19
0.086069 -0.218088 2.182874 0 7 19
0.086718 -0.218099 2.199338 0 7 20
0.086795 -0.216657 2.201277 0 7 21
0.086681 -0.214740 2.198398 0 7 21
0.086496 -0.212653 2.193707 0 7 22
0.086415 -0.210826 2.191652 0 7 22
0.086685 -0.209851 2.198493 0 6 19
0.086649 -0.208132 2.197591 0 3 15
0.086727 -0.206684 2.199553 0 3 14
0.086816 -0.205261 2.201810 0 3 15
0.086853 -0.203714 2.202762 0 3 15
0.086662 -0.201631 2.197897 0 3 15
0.086836 -0.200400 2.202314 0 3 15
0.086855 -0.198809 2.202808 0 3 14
0.086736 -0.196904 2.199797 0 3 14
0.086680 -0.195141 2.198353 1 5 14
0.086672 -0.193492 2.198164 1 5 13
0.086701 -0.191924 2.198907 0 5 11
0.086732 -0.190357 2.199678 0 4 11
0.086640 -0.188525 2.197362 0 4 10
0.086660 -0.186934 2.197849 0 3 10
0.086708 -0.185406 2.199082 0 2 11
0.086526 -0.183386 2.194465 0 2 11
0.086625 -0.181965 2.196982 0 1 9
0.086659 -0.180404 2.197843 0 1 9
0.086851 -0.179167 2.202704 0 2 9
0.086975 -0.177785 2.205860 0 2 9
0.086860 -0.175912 2.202925 0 2 9
0.086721 -0.173997 2.199398 0 2 9
0.086743 -0.172408 2.199975 0 3 9
0.086836 -0.170956 2.202314 0 3 9
0.087845 -0.171287 2.227901 0 5 11
0.086882 -0.167773 2.203485 0 5 11
0.085931 -0.164319 2.179371 0 5 11
0.085162 -0.161243 2.159856 0 5 11
0.086283 -0.161740 2.188291 0 4 10
0.085840 -0.159294 2.177070 0 3 10
0.086383 -0.158674 2.190840 0 3 10
0.086333 -0.156955 2.189559 0 4 14
0.087038 -0.156597 2.207433 7 22 38
0.086891 -0.154697 2.203722 26 44 64
0.086908 -0.153089 2.204148 29 50 69
0.087315 -0.152162 2.214477 21 42 61
0.085840 -0.147974 2.177070 19 42 60
0.085946 -0.146538 2.179761 17 42 60
0.085918 -0.144871 2.179042 11 38 55
0.085428 -0.142436 2.166613 13 39 56
0.085829 -0.141488 2.176786 10 36 52
0.085911 -0.140004 2.178857 8 34 50
0.086942 -0.140046 2.205006 6 30 47
0.086020 -0.136940 2.181616 4 26 44
0.086204 -0.135611 2.186303 3 22 41
0.085356 -0.132668 2.164785 3 21 40
0.085810 -0.131757 2.176297 4 20 40
0.085747 -0.130045 2.174692 5 20 38
0.086298 -0.129256 2.188689 5 22 35
0.085822 -0.126926 2.176610 5 23 34
0.086635 -0.126496 2.197232 7 25 38
0.085980 -0.123919 2.180605 10 28 42
0.085954 -0.122264 2.179963 13 30 46
0.086470 -0.121369 2.193048 16 33 51
0.086836 -0.120246 2.202314 17 36 55
0.086223 -0.117774 2.186787 18 36 56
0.085292 -0.114895 2.163164 20 38 58
0.085944 -0.114154 2.179700 19 40 59
0.085879 -0.112450 2.178046 22 44 65
0.085221 -0.109983 2.161369 26 53 74
0.084861 -0.107920 2.152234 29 60 81
0.083832 -0.105031 2.126129 30 63 87
0.083775 -0.103382 2.124683 27 63 89
0.084821 -0.103076 2.151227 27 59 91
0.083984 -0.100476 2.129991 22 45 88
0.084289 -0.099253 2.137734 24 43 86
0.083842 -0.097148 2.126397 14 34 67
0.084886 -0.096758 2.152864 2 22 47
0.084582 -0.094818 2.145147 0 19 35
0.084482 -0.093115 2.142630 1 18 33
0.084871 -0.091944 2.152489 0 13 30
0.084644 -0.090104 2.146727 0 5 24
0.083417 -0.087226 2.115609 10 17 38
0.083388 -0.085626 2.114886 0 4 27
0.083141 -0.083805 2.108607 0 3 26
0.083571 -0.082665 2.119528 10 24 46
0.084166 -0.081668 2.134614 23 43 62
0.083966 -0.079892 2.129534 19 45 62
0.082337 -0.076791 2.088219 9 39 57
0.082101 -0.075024 2.082227 7 38 57
0.082438 -0.073779 2.090792 9 35 56
0.082694 -0.072451 2.097282 7 32 54
0.081999 -0.070296 2.079644 6 29 52
0.081916 -0.068683 2.077551 4 26 49
0.081877 -0.067107 2.076544 2 22 43
0.082627 -0.066166 2.095583 1 19 39
0.082558 -0.064555 2.093835 0 17 35
0.082793 -0.063179 2.099795 0 15 30
0.083345 -0.062030 2.113786 0 12 24
0.083842 -0.060821 2.126397 0 12 21
0.083874 -0.059264 2.127203 0 13 20
0.083643 -0.057525 2.121349 0 12 20
0.083167 -0.055631 2.109279 0 12 21
0.083787 -0.054467 2.124989 0 12 21
0.083596 -0.052768 2.120151 0 12 21
0.083689 -0.051250 2.122501 0 12 21
0.082890 -0.049200 2.102242 0 10 19
0.081685 -0.046946 2.071683 0 10 19
0.082413 -0.045812 2.090159 0 10 19
0.082522 -0.044318 2.092920 0 10 19
0.082198 -0.042595 2.084687 0 10 19
0.081797 -0.040846 2.074511 0 11 21
0.081369 -0.039100 2.063678 0 11 21
0.081166 -0.037473 2.058513 1 9 22
0.081165 -0.035944 2.058502 1 9 25
0.081191 -0.034426 2.059145 0 8 26
0.081427 -0.032992 2.065147 0 10 28
0.081344 -0.031426 2.063025 0 12 29
0.081311 -0.029882 2.062196 0 17 32
0.081257 -0.028331 2.060822 0 22 36
0.081033 -0.026726 2.055135 1 26 39
0.080602 -0.025066 2.044211 2 29 41
0.080341 -0.023471 2.037595 2 29 44
0.080367 -0.021965 2.038251 3 31 46
0.080580 -0.020505 2.043653 5 32 46
0.080226 -0.018904 2.034678 5 29 46
0.080342 -0.017418 2.037632 3 24 44
0.080373 -0.015910 2.038402 2 20 39
0.080278 -0.014379 2.035997 2 17 36
0.080195 -0.012854 2.033884 4 17 32
0.080310 -0.011359 2.036817 2 12 24
0.080644 -0.009887 2.045278 4 10 21
0.081167 -0.008422 2.058555 3 8 19
0.080767 -0.006859 2.048407 2 4 18
0.080692 -0.005333 2.046501 0 2 17
0.080395 -0.003799 2.038978 0 0 17
0.080155 -0.002277 2.032868 0 0 16
0.079835 -0.000764 2.024758 1 0 15
0.079835 0.000739 2.024766 1 0 13
0.080360 0.002258 2.038074 2 0 14
0.080379 0.003773 2.038558 0 0 15
0.080124 0.005270 2.032100 0 1 15
0.080050 0.006773 2.030214 0 3 19
0.080041 0.008280 2.029996 0 10 27
0.080095 0.009795 2.031365 6 23 40
0.079864 0.011271 2.025511 16 36 54
0.079681 0.012746 2.020856 30 54 73
0.079508 0.014216 2.016462 30 57 79
0.079344 0.015682 2.012310 29 58 83
0.079359 0.017180 2.012680 25 56 82
0.078993 0.018588 2.003397 23 55 83
0.079152 0.020117 2.007434 24 56 86
0.079187 0.021618 2.008325 23 55 86
0.079068 0.023075 2.005310 20 52 83
0.079106 0.024576 2.006272 19 53 79
0.079039 0.026044 2.004568 19 53 78
0.079384 0.027653 2.013330 19 53 77
0.079319 0.029125 2.011674 20 53 76
0.079248 0.030592 2.009886 22 52 74
0.079083 0.032018 2.005697 24 51 74
0.079158 0.033539 2.007597 25 50 74
0.079006 0.034963 2.003732 27 48 73
0.078972 0.036436 2.002872 24 44 71
0.078807 0.037844 1.998701 24 44 72
0.078767 0.039309 1.997669 26 43 73
0.078758 0.040788 1.997451 26 43 73
0.078784 0.042286 1.998110 26 43 73
0.078829 0.043795 1.999246 26 43 73
0.078781 0.045252 1.998035 24 43 73
0.078396 0.046508 1.988266 25 44 74
0.078140 0.047828 1.981788 25 46 73
0.078176 0.049323 1.982695 23 44 71
0.077670 0.050466 1.969855 20 42 66
0.077801 0.052017 1.973170 16 38 62
0.077374 0.053189 1.962352 13 35 59
0.077065 0.054428 1.954506 10 32 55
0.076499 0.055470 1.940162 9 29 53
0.076133 0.056639 1.930870 9 30 51
0.075887 0.057885 1.924632 13 31 53
0.075921 0.059341 1.925498 12 30 52
0.075739 0.060626 1.920869 9 30 51
0.075819 0.062118 1.922907 8 29 51
0.075607 0.063369 1.917540 6 28 50
0.075663 0.064841 1.918957 5 27 49
0.075550 0.066168 1.916093 5 27 49
0.075725 0.067747 1.920514 4 26 47
0.075544 0.069009 1.915940 3 24 42
0.075535 0.070423 1.915701 2 23 40
0.075511 0.071823 1.915095 2 23 40
0.075537 0.073271 1.915758 1 22 39
0.075490 0.074647 1.914560 2 21 38
0.075308 0.075887 1.909960 1 21 38
0.075757 0.077766 1.921336 2 20 37
0.075450 0.078872 1.913554 1 19 36
0.075314 0.080149 1.910106 0 15 32
0.075601 0.081878 1.917380 0 13 31
0.075561 0.083258 1.916362 0 12 29
0.075569 0.084691 1.916580 0 11 28
0.075371 0.085889 1.911559 0 10 26
0.075369 0.087306 1.911504 0 9 25
0.075558 0.088949 1.916295 0 7 25
0.075433 0.090222 1.913115 0 7 24
0.075421 0.091628 1.912807 1 10 23
0.075536 0.094614 1.915733 0 9 19
0.075305 0.095743 1.909868 0 8 18
0.075351 0.097221 1.911034 0 7 16
0.075433 0.098748 1.913115 0 6 13
0.075421 0.100153 1.912807 1 6 11
0.075216 0.101298 1.907624 0 5 9
0.075273 0.102792 1.909053 0 3 7
0.075057 0.103912 1.903581 0 4 7
0.075142 0.105445 1.905735 0 4 7
0.074832 0.106419 1.897871 0 3 7
0.075023 0.108104 1.902721 1 2 7
0.075206 0.109785 1.907363 0 1 6
0.074971 0.110854 1.901405 0 0 5
0.075200 0.112609 1.907203 0 1 6
0.075385 0.114306 1.911893 0 2 9
0.075464 0.115847 1.913895 0 3 9
0.075546 0.117397 1.915980 0 3 8
0.075809 0.119234 1.922658 0 3 8
0.075462 0.120110 1.913861 0 3 8
0.075869 0.122187 1.924187 0 3 7
0.076408 0.124494 1.937854 0 3 6
0.076020 0.125294 1.928004 0 3 6
0.075719 0.126223 1.920363 0 1 3
0.075688 0.127599 1.919598 0 1 1
0.075725 0.129086 1.920514 0 2 1
0.075840 0.130711 1.923435 0 2 0
0.075658 0.131823 1.918823 0 2 0
0.075415 0.132821 1.912662 0 2 0
0.075641 0.137494 1.918399 0 0 0
0.075844 0.139292 1.923552 0 0 0
0.075922 0.140864 1.925512 0 0 0
0.075977 0.142398 1.926919 0 0 0
0.076658 0.145118 1.944185 0 0 0
0.076744 0.146727 1.946367 0 0 0
0.076829 0.148336 1.948513 0 0 0
0.076484 0.149112 1.939787 0 0 0
0.076819 0.151211 1.948263 0 0 0
0.076846 0.152713 1.948964 0 0 0
0.076935 0.154339 1.951222 0 0 1
0.076876 0.155669 1.949727 0 0 1
0.076899 0.157164 1.950311 0 0 1
0.076991 0.158801 1.952627 0 0 1
0.076975 0.160220 1.952240 0 0 1
0.076777 0.161254 1.947211 0 0 2
0.076499 0.162111 1.940162 0 1 4
0.076490 0.167855 1.939928 0 1 6
0.076639 0.169627 1.943715 0 1 6
0.076499 0.170758 1.940162 0 1 6
0.076745 0.172751 1.946390 0 1 6
0.077190 0.175208 1.957687 0 1 6
0.077340 0.177005 1.961490 0 1 6
0.077398 0.180054 1.962958 0 1 6
0.084065 0.203482 2.132051 0 0 7
0.084043 0.205012 2.131493 0 0 8
0.083894 0.206228 2.127699 0 0 10
0.072634 0.200442 1.842138 0 2 11
0.072434 0.209440 1.837048 0 0 10
0.073139 0.212858 1.854944 1 1 11
0.319448 -1.810388 7.951981 208 197 211
0.544021 -3.073041 13.542266 208 197 210
0.548147 -3.086214 13.644979 208 198 208
0.091660 -0.510986 2.281686 210 200 208
0.091426 -0.507990 2.275855 210 200 206
0.125381 -0.689703 3.121109 210 201 206
0.125201 -0.686394 3.116610 210 200 207
1.136750 -6.126970 28.297029 208 198 209
0.125925 -0.674065 3.134634 208 198 209
0.125386 -0.668861 3.121213 208 198 209
0.127415 -0.674975 3.171732 208 198 208
0.127369 -0.672374 3.170574 205 195 204
0.143415 -0.751781 3.570028 207 198 204
0.143541 -0.749787 3.573162 208 199 204
0.142825 -0.740764 3.555331 208 199 204
0.143399 -0.741087 3.569610 207 197 204
0.143399 -0.738436 3.569610 205 195 203
0.172100 -0.838502 4.284063 206 196 204
0.347094 -1.678274 8.640189 206 196 204
0.077576 -0.365054 1.931085 206 196 204
0.077509 -0.363307 1.929426 206 196 204
0.336838 -1.572630 8.384881 206 196 204
0.336838 -1.566402 8.384881 206 196 204
0.336078 -1.556655 8.365968 206 196 204
0.345400 -1.593444 8.598006 206 196 204
0.348350 -1.600613 8.671446 206 196 204
0.350160 -1.602454 8.716496 206 196 204
0.349783 -1.594264 8.707123 206 196 204
0.350649 -1.591729 8.728689 206 196 204
0.350178 -1.583115 8.716956 206 196 204
0.125796 -0.554756 3.131441 206 196 204
0.126105 -0.553787 3.139132 206 196 204
0.126311 -0.552356 3.144261 206 196 204
0.128636 -0.560143 3.202128 206 196 204
0.129675 -0.555076 3.227989 206 196 204
0.129438 -0.551667 3.222083 206 196 204
0.129530 -0.549667 3.224386 206 196 204
0.128944 -0.544794 3.209787 206 196 204
0.127556 -0.536571 3.175238 206 196 204
0.126474 -0.529683 3.148315 206 196 204
0.127152 -0.501958 3.165184 199 196 203
0.096724 -0.365742 2.407739 132 134 143
0.096669 -0.363747 2.406376 121 126 137
0.097452 -0.364892 2.425867 98 105 121
0.092761 -0.338752 2.309097 56 76 105
0.092348 -0.335536 2.298817 36 58 87
0.091907 -0.332234 2.287834 34 58 86
0.092700 -0.333385 2.307568 44 68 96
0.092214 -0.329932 2.295463 52 77 104
0.092076 -0.327738 2.292046 54 79 107
0.091963 -0.325636 2.289238 56 82 112
0.091735 -0.323132 2.283557 59 87 116
0.091850 -0.321838 2.286417 59 89 117
0.091707 -0.319642 2.282860 58 89 118
0.091171 -0.316088 2.269520 60 92 121
0.091248 -0.314666 2.271423 60 94 122
0.091120 -0.312542 2.268253 57 90 117
0.091048 -0.310609 2.266440 55 86 114
0.091269 -0.309678 2.271960 53 83 112
0.091082 -0.307357 2.267288 53 82 112
0.091135 -0.305851 2.268604 54 83 116
0.090901 -0.303387 2.262800 55 83 118
0.091274 -0.302945 2.272087 58 86 125
0.091234 -0.301125 2.271091 68 96 137
0.091329 -0.299750 2.273453 79 108 150
0.091141 -0.297448 2.268775 83 114 158
0.091007 -0.295325 2.265418 79 112 155
0.091033 -0.293729 2.266084 74 107 148
0.090404 -0.290027 2.250426 69 102 142
0.090405 -0.288357 2.250437 67 101 139
0.090391 -0.286643 2.250102 68 102 139
0.089678 -0.282724 2.232354 66 99 136
0.089683 -0.281081 2.232472 65 95 133
0.089682 -0.279419 2.232443 56 85 122
0.089660 -0.277693 2.231899 28 56 93
0.089584 -0.275802 2.230015 18 44 81
0.089405 -0.273597 2.225551 31 57 93
0.089341 -0.271749 2.223958 44 70 105
0.089267 -0.269875 2.222128 56 83 115
0.089249 -0.268169 2.221670 63 90 120
0.089119 -0.266130 2.218429 57 83 114
0.088933 -0.263932 2.213807 35 59 93
0.088822 -0.261959 2.211037 26 48 84
0.088764 -0.260147 2.209596 27 47 82
0.089015 -0.259236 2.215837 30 47 82
0.089213 -0.258164 2.220776 37 52 85
0.088901 -0.255618 2.213011 42 57 88
0.088727 -0.253476 2.208668 41 53 83
0.088472 -0.251111 2.202314 33 44 72
0.088625 -0.249908 2.206141 23 36 63
0.089072 -0.249522 2.217267 16 31 56
0.089071 -0.247870 2.217226 11 26 49
0.088668 -0.245111 2.207206 6 21 42
0.088261 -0.242355 2.197084 4 19 37
0.087851 -0.239604 2.186870 4 20 34
0.087901 -0.238114 2.188110 3 20 32
0.088425 -0.237900 2.201162 3 20 30
0.088324 -0.235994 2.198638 2 18 28
0.088514 -0.234865 2.203366 2 16 25
0.088109 -0.232160 2.193279 1 15 24
0.088156 -0.230655 2.194453 1 14 23
0.088333 -0.229485 2.198863 0 13 22
0.088161 -0.227409 2.194587 0 11 21
0.087897 -0.225102 2.188007 0 10 20
0.087803 -0.223237 2.185662 0 8 19
0.087969 -0.222033 2.189795 0 8 19
0.088194 -0.220970 2.195395 0 7 19
0.088323 -0.219661 2.198617 1 7 19
0.087834 -0.216820 2.186440 1 7 19
0.088223 -0.216149 2.196120 0 7 20
0.088276 -0.214647 2.197444 0 8 21
0.087889 -0.212081 2.187811 0 8 21
0.087908 -0.210502 2.188291 0 7 20
0.087944 -0.208961 2.189171 0 6 19
0.087678 -0.206709 2.182559 0 2 14
0.087812 -0.205402 2.185905 0 2 14
0.088012 -0.204241 2.190867 0 2 15
0.088379 -0.203459 2.200012 0 2 15
0.088537 -0.202185 2.203940 0 2 15
0.088424 -0.200292 2.201122 0 2 14
0.088459 -0.198736 2.201996 0 2 14
0.088527 -0.197252 2.203684 0 2 13
0.088526 -0.195614 2.203682 1 4 13
0.088303 -0.193489 2.198125 1 4 13
0.088189 -0.191608 2.195280 0 5 11
0.088167 -0.189930 2.194736 0 4 10
0.088303 -0.188590 2.198114 0 4 10
0.087988 -0.186291 2.190284 0 3 10
0.087988 -0.184664 2.190284 0 2 11
0.087706 -0.182451 2.183268 0 2 10
0.087936 -0.181303 2.188991 0 1 9
0.088073 -0.179957 2.192397 0 1 9
0.088462 -0.179116 2.202077 0 2 9
0.088688 -0.177933 2.207703 0 2 9
0.088408 -0.175737 2.200737 0 2 9
0.088389 -0.174066 2.200269 0 2 9
0.088339 -0.172334 2.199020 0 3 9
0.089124 -0.172217 2.218561 0 3 9
0.089416 -0.171128 2.225825 0 5 11
0.088655 -0.168033 2.206893 0 5 11
0.087116 -0.163504 2.168566 0 5 11
0.086580 -0.160898 2.155237 0 4 11
0.088237 -0.160714 2.196476 0 3 10
0.088386 -0.159351 2.200181 0 3 10
0.088715 -0.158304 2.208379 0 5 15
0.089362 -0.157807 2.224488 8 22 39
0.088801 -0.155174 2.210518 26 44 64
0.089237 -0.154285 2.221365 30 49 69
0.088988 -0.152210 2.215176 21 42 61
0.089072 -0.150706 2.217261 19 42 60
0.087409 -0.146277 2.175876 17 41 59
0.087431 -0.144697 2.176413 11 38 55
0.087307 -0.142877 2.173323 12 39 56
0.087255 -0.141179 2.172030 9 35 52
0.089330 -0.141233 2.223688 6 29 47
0.087510 -0.135120 2.178384 3 21 41
0.086916 -0.132595 2.163595 3 20 40
0.087497 -0.131863 2.178046 4 19 40
0.087415 -0.130124 2.176019 4 19 38
0.088062 -0.129459 2.192126 4 22 35
0.087933 -0.127644 2.188917 5 23 35
0.089012 -0.127563 2.215765 7 25 39
0.087721 -0.124091 2.183626 10 28 43
0.087477 -0.122129 2.177559 13 30 48
0.087805 -0.120964 2.185735 16 33 51
0.089085 -0.121080 2.217595 17 35 55
0.089058 -0.119397 2.216926 18 36 56
0.087123 -0.115191 2.168744 20 40 59
0.087316 -0.113832 2.173553 20 41 60
0.087528 -0.112490 2.178822 23 45 66
0.086607 -0.109705 2.155908 27 54 75
0.086077 -0.107442 2.142709 31 60 82
0.085243 -0.104825 2.121955 30 63 88
0.085552 -0.103624 2.129648 27 62 88
0.085992 -0.102566 2.140587 26 58 89
0.085740 -0.100680 2.134320 20 43 86
0.085822 -0.099190 2.136360 21 40 82
0.085335 -0.097049 2.124231 11 31 64
0.086391 -0.096652 2.150523 1 20 43
0.086359 -0.095020 2.149717 0 17 33
0.085712 -0.092723 2.133615 2 17 30
0.086107 -0.091558 2.143448 0 12 28
0.085761 -0.089605 2.134842 0 5 24
0.084684 -0.086914 2.108031 4 9 31
0.084864 -0.085530 2.112515 0 1 24
0.085041 -0.084135 2.116913 0 4 25
0.084971 -0.082495 2.115180 7 21 41
0.085121 -0.081067 2.118906 17 35 53
0.085296 -0.079657 2.123270 12 36 52
0.083835 -0.076742 2.086890 5 33 50
0.083620 -0.074999 2.081539 6 34 52
0.084011 -0.073796 2.091277 6 30 50
0.083855 -0.072109 2.087394 6 27 50
0.083416 -0.070189 2.076476 5 24 48
0.083604 -0.068801 2.081146 2 22 44
0.083931 -0.067519 2.089296 1 19 41
0.084011 -0.066030 2.091277 0 17 37
0.084152 -0.064584 2.094779 0 15 31
0.084094 -0.062985 2.093334 0 13 29
0.084470 -0.061705 2.102701 0 11 22
0.084659 -0.060277 2.107398 0 11 19
0.084874 -0.058862 2.112761 0 11 18
0.084769 -0.057221 2.110144 0 11 17
0.085119 -0.054310 2.118852 0 11 19
0.085364 -0.052888 2.124949 0 11 20
0.084599 -0.050850 2.105922 1 11 21
0.083928 -0.048894 2.089201 0 9 18
0.083616 -0.047167 2.081455 0 9 18
0.083813 -0.045728 2.086344 0 10 19
0.083760 -0.044151 2.085027 0 10 19
0.083803 -0.042624 2.086096 0 10 19
0.083171 -0.040764 2.070359 0 9 19
0.082724 -0.039016 2.059235 1 9 20
0.081989 -0.037153 2.040941 1 8 22
0.082182 -0.035721 2.045752 1 8 24
0.082486 -0.034328 2.053307 0 8 26
0.082775 -0.032918 2.060511 0 9 28
0.082913 -0.031440 2.063937 0 13 30
0.082447 -0.029739 2.052338 0 18 33
0.082378 -0.028191 2.050625 0 25 38
0.081970 -0.026535 2.040465 1 31 42
0.081968 -0.025019 2.040419 1 32 43
0.081673 -0.023419 2.033091 0 32 43
0.082120 -0.022029 2.044205 1 32 44
0.081878 -0.020450 2.038184 4 31 43
0.081823 -0.018924 2.036817 3 27 40
0.081808 -0.017407 2.036437 0 19 37
0.081655 -0.015865 2.032641 0 13 32
0.081691 -0.014362 2.033532 0 12 30
0.081577 -0.012833 2.030689 2 12 27
0.081791 -0.011355 2.036026 1 9 18
0.082787 -0.009962 2.060822 3 9 14
0.082474 -0.008400 2.053014 2 7 13
0.082180 -0.006850 2.045708 1 4 13
0.081962 -0.005317 2.040275 1 1 14
0.081700 -0.003789 2.033761 0 0 14
0.081371 -0.002269 2.025567 0 0 14
0.081430 -0.000765 2.027037 2 0 14
0.081808 0.000744 2.036430 2 0 12
0.081820 0.002257 2.036745 1 0 14
0.081712 0.003765 2.034053 0 1 16
0.081550 0.005265 2.030026 0 4 20
0.081494 0.006768 2.028623 0 10 26
0.081534 0.008279 2.029619 4 23 39
0.081342 0.009763 2.024850 17 40 57
0.081204 0.011248 2.021404 27 52 69
0.081101 0.012734 2.018838 28 55 71
0.080696 0.014162 2.008751 28 55 73
0.080884 0.015691 2.013442 27 55 75
0.080988 0.017208 2.016016 27 55 77
0.080404 0.018571 2.001500 25 55 81
0.080695 0.020130 2.008731 25 54 84
0.080559 0.021586 2.005357 24 55 86
0.080494 0.023056 2.003719 24 54 85
0.080599 0.024577 2.006348 24 52 80
0.081035 0.026208 2.017201 25 51 78
0.080885 0.027655 2.013458 25 51 78
0.080903 0.029157 2.013919 25 50 78
0.080898 0.030651 2.013786 24 50 78
0.080783 0.032101 2.010937 24 49 76
0.080608 0.033522 2.006575 24 48 75
0.080528 0.034978 2.004568 24 47 73
0.080361 0.036391 2.000418 20 42 68
0.080088 0.037748 1.993633 20 42 68
0.080067 0.039219 1.993098 20 42 68
0.080318 0.040827 1.999343 20 42 68
0.080274 0.042289 1.998256 20 42 68
0.080387 0.043835 2.001076 20 42 68
0.080273 0.045257 1.998237 20 42 68
0.080001 0.046582 1.991449 20 41 68
0.079762 0.047918 1.985510 17 41 65
0.079649 0.049323 1.982695 17 41 64
0.079501 0.050701 1.979014 15 40 62
0.079014 0.051852 1.966900 14 38 60
0.078753 0.053136 1.960399 12 37 59
0.077625 0.055246 1.932317 11 33 54
0.077405 0.056521 1.926843 11 33 52
0.077169 0.057775 1.920952 9 30 49
0.077245 0.059260 1.922853 9 29 48
0.077290 0.060723 1.923967 9 28 48
0.077330 0.062185 1.924972 8 27 47
0.077339 0.063622 1.925198 6 27 46
0.077271 0.064995 1.923503 5 27 46
0.077376 0.066513 1.926107 5 26 46
0.077316 0.067891 1.924611 4 26 45
0.077278 0.069288 1.923683 3 25 43
0.077006 0.070467 1.916907 3 25 42
0.077172 0.072046 1.921027 3 23 42
0.077235 0.073533 1.922606 3 22 41
0.077156 0.074884 1.920626 2 20 39
0.077296 0.076449 1.924129 1 17 36
0.077198 0.077779 1.921674 1 15 34
0.076998 0.079001 1.916694 0 14 32
0.077160 0.080595 1.920748 0 13 29
0.077296 0.082166 1.924135 0 11 28
0.077151 0.083438 1.920514 0 11 26
0.077132 0.084844 1.920033 0 10 25
0.076943 0.086059 1.915333 0 8 24
0.076875 0.087404 1.913632 0 8 23
0.077088 0.089072 1.918954 0 7 23
0.077101 0.090513 1.919281 0 7 21
0.077386 0.092277 1.926357 1 9 20
0.077257 0.093552 1.923146 0 9 18
0.077438 0.095203 1.927652 0 8 17
0.077285 0.096445 1.923859 0 8 16
0.077790 0.098512 1.936414 0 6 14
0.077363 0.099402 1.925785 0 6 12
0.076905 0.100236 1.914401 1 6 11
0.077223 0.102078 1.922303 0 5 10
0.077416 0.105196 1.927107 0 3 7
0.077790 0.107142 1.936414 0 3 7
0.077457 0.108116 1.928137 0 3 7
0.077568 0.109705 1.930888 1 2 7
0.076719 0.109923 1.909770 0 1 6
0.076828 0.112920 1.912469 0 1 6
0.076810 0.114314 1.912036 0 1 9
0.076862 0.115812 1.913314 0 2 9
0.078252 0.120800 1.947912 0 2 7
0.078032 0.121904 1.942445 0 3 8
0.077620 0.122696 1.932200 0 3 7
0.077948 0.124654 1.940344 0 3 6
0.077888 0.126000 1.938870 0 2 5
0.076748 0.125575 1.910492 0 2 3
0.076580 0.126716 1.906311 0 2 1
0.076585 0.128140 1.906432 0 2 1
0.076643 0.129654 1.907873 0 2 0
0.076684 0.131141 1.908895 0 2 0
0.076477 0.135028 1.903725 0 2 0
0.076529 0.136535 1.905025 0 0 0
0.076661 0.138189 1.908327 0 0 0
0.076728 0.139728 1.909988 0 0 0
0.077902 0.144746 1.939204 0 0 0
0.078064 0.146491 1.943240 0 0 0
0.078005 0.147823 1.941773 0 0 0
0.077561 0.148415 1.930716 0 0 0
0.078379 0.151429 1.951072 0 0 0
0.078421 0.152961 1.952127 0 0 0
0.078463 0.154494 1.953184 0 0 0
0.078366 0.155753 1.950770 1 1 1
0.078517 0.157503 1.954506 0 0 0
0.078595 0.159113 1.956457 0 0 0
0.078548 0.160471 1.955300 0 0 0
0.078238 0.161285 1.947584 1 1 2
0.077565 0.161330 1.930819 0 1 4
0.077379 0.162374 1.926182 0 1 5
0.077479 0.166883 1.928690 0 1 6
0.077693 0.170216 1.934004 0 1 6
0.077576 0.171393 1.931085 0 1 6
0.078022 0.173821 1.942186 0 1 6
0.078740 0.176878 1.960080 0 1 6
0.079080 0.179104 1.968541 0 1 6
0.076473 0.197236 1.903637 0 0 10
0.073772 0.209367 1.836410 0 1 11
0.074528 0.214269 1.855228 1 1 11
0.325354 -1.810388 7.951981 208 197 211
0.554080 -3.073041 13.542266 208 197 210
0.558078 -3.085085 13.639987 208 198 208
0.093237 -0.510341 2.278805 210 200 208
0.128115 -0.696597 3.131256 210 201 206
0.127888 -0.693041 3.125709 210 201 206
0.128191 -0.692359 3.133129 210 201 206
0.128071 -0.689381 3.130173 210 200 207
0.263653 -1.390480 6.443952 208 198 209
0.128836 -0.677129 3.148882 208 198 209
0.128942 -0.675345 3.151469 208 198 209
0.129299 -0.674867 3.160194 208 198 209
0.129576 -0.673962 3.166972 208 198 208
0.129383 -0.670606 3.162240 205 195 204
0.140842 -0.724889 3.442322 207 198 204
0.141563 -0.723459 3.459941 209 200 205
0.142649 -0.726420 3.486487 208 199 204
0.142753 -0.724360 3.489036 207 197 204
0.078693 -0.363590 1.923341 206 196 204
0.078727 -0.362319 1.924175 206 196 204
0.344465 -1.560284 8.419082 206 196 204
0.352603 -1.584341 8.617967 206 196 204
0.354100 -1.584641 8.654565 206 196 204
0.354822 -1.581430 8.672208 206 196 204
0.354467 -1.573411 8.663526 206 196 204
0.145743 -0.644279 3.562099 206 196 204
0.145665 -0.641291 3.560201 206 196 204
0.128886 -0.555720 3.150094 206 196 204
0.129531 -0.556151 3.165862 206 196 204
0.130959 -0.559906 3.200772 206 196 204
0.130976 -0.557602 3.201192 206 196 204
0.130071 -0.551385 3.179059 206 196 204
0.130104 -0.549164 3.179871 206 196 204
0.131078 -0.548517 3.203684 206 196 204
0.130684 -0.544495 3.194049 206 196 204
0.129922 -0.538961 3.175423 206 196 204
0.129328 -0.534148 3.160896 206 196 204
0.128376 -0.527888 3.137644 206 196 204
0.128540 -0.521562 3.141655 206 196 204
0.094159 -0.361543 2.301330 197 195 208
0.094290 -0.339797 2.304552 81 99 128
0.094214 -0.337812 2.302689 59 79 110
0.093935 -0.335105 2.295865 46 68 99
0.094528 -0.335506 2.310371 43 66 98
0.094334 -0.333105 2.305625 46 70 101
0.093325 -0.327848 2.280965 48 73 103
0.093452 -0.326596 2.284062 50 75 106
0.093411 -0.324756 2.283054 55 80 111
0.093790 -0.324371 2.292315 58 85 115
0.093616 -0.322073 2.288082 59 88 118
0.093791 -0.320972 2.292359 59 89 120
0.093497 -0.318266 2.285154 57 88 119
0.093257 -0.315757 2.279294 57 91 120
0.092914 -0.312909 2.270917 61 94 122
0.092722 -0.310578 2.266211 62 93 122
0.092910 -0.309522 2.270818 60 91 120
0.092942 -0.307941 2.271594 60 89 121
0.092608 -0.305153 2.263428 59 88 122
0.092751 -0.303941 2.266927 57 85 122
0.092471 -0.301344 2.260079 60 88 127
0.092652 -0.300252 2.264504 72 100 141
0.092780 -0.298983 2.267641 84 113 155
0.092571 -0.296630 2.262539 87 118 162
0.092773 -0.295591 2.267459 82 113 157
0.092413 -0.292767 2.258664 68 100 141
0.091931 -0.289570 2.246880 52 85 124
0.091498 -0.286547 2.236307 49 81 119
0.091739 -0.285637 2.242201 56 89 127
0.091699 -0.283846 2.241214 67 98 135
0.091232 -0.280743 2.229794 72 102 138
0.091248 -0.279136 2.230182 65 93 130
0.091301 -0.277642 2.231488 37 64 101
0.091216 -0.275728 2.229419 20 45 81
0.090783 -0.272770 2.218823 25 50 86
0.090646 -0.270714 2.215486 38 63 97
0.090833 -0.269621 2.220039 48 74 105
0.090769 -0.267785 2.218483 50 77 107
0.090561 -0.265527 2.213398 46 72 102
0.090630 -0.264083 2.215081 28 52 83
0.090390 -0.261744 2.209226 18 40 72
0.090359 -0.260015 2.208472 14 34 66
0.090454 -0.258646 2.210791 15 33 64
0.090628 -0.257498 2.215046 22 38 67
0.090438 -0.255317 2.210408 28 43 71
0.090605 -0.254142 2.214477 29 42 69
0.090248 -0.251502 2.205750 25 37 63
0.090194 -0.249715 2.204433 21 34 59
0.090473 -0.248845 2.211251 16 31 55
0.090329 -0.246808 2.207724 10 25 47
0.090213 -0.244854 2.204895 5 20 40
0.089788 -0.242071 2.194515 3 18 36
0.089535 -0.239763 2.188324 3 19 34
0.089457 -0.237932 2.186431 4 20 33
0.089934 -0.237566 2.198072 4 21 32
0.090107 -0.236388 2.202314 3 20 29
0.090145 -0.234852 2.203245 3 17 26
0.089615 -0.231843 2.190284 2 16 25
0.089743 -0.230545 2.193409 2 15 24
0.089414 -0.228078 2.185377 1 14 23
0.089636 -0.227017 2.190804 1 13 22
0.089437 -0.224889 2.185941 1 11 21
0.089313 -0.222956 2.182912 1 11 21
0.089511 -0.221824 2.187741 1 9 20
0.089896 -0.221145 2.197142 0 7 18
0.089508 -0.218567 2.187664 0 7 18
0.089347 -0.216553 2.183742 0 6 18
0.089272 -0.214749 2.181896 0 6 19
0.089600 -0.213911 2.189910 0 7 20
0.089601 -0.212289 2.189951 0 7 20
0.089546 -0.210532 2.188606 0 7 19
0.089842 -0.209595 2.195820 0 5 17
0.088734 -0.205400 2.168744 0 2 14
0.089336 -0.205173 2.183468 0 1 14
0.089447 -0.203804 2.186178 0 1 15
0.089933 -0.203277 2.198042 0 1 15
0.089918 -0.201613 2.197699 0 2 15
0.089602 -0.199276 2.189960 0 2 14
0.089751 -0.197978 2.193602 0 2 14
0.089845 -0.196555 2.195899 0 2 13
0.089849 -0.194932 2.195996 1 4 12
0.089804 -0.193204 2.194895 0 4 12
0.089615 -0.191171 2.190284 0 4 10
0.089674 -0.189669 2.191726 0 4 10
0.089755 -0.188211 2.193707 0 3 9
0.089718 -0.186505 2.192806 0 3 10
0.089128 -0.183661 2.178384 0 2 11
0.089741 -0.181665 2.193365 0 1 9
0.089667 -0.179887 2.191544 0 1 9
0.089959 -0.178840 2.198691 0 2 9
0.090061 -0.177408 2.201185 0 2 9
0.089960 -0.175577 2.198724 0 2 9
0.089908 -0.173842 2.197444 0 2 9
0.090186 -0.172743 2.204244 0 3 9
0.090800 -0.172270 2.219244 0 3 9
0.090561 -0.170172 2.213391 0 5 11
0.089856 -0.167216 2.196169 0 5 11
0.089007 -0.164021 2.175429 0 5 11
0.088084 -0.160721 2.152864 0 4 11
0.089978 -0.162544 2.199163 0 3 10
0.090016 -0.160979 2.200094 0 3 10
0.090062 -0.159426 2.201215 0 3 10
0.090075 -0.157813 2.201529 0 5 15
0.090545 -0.156992 2.213011 8 21 38
0.090397 -0.155095 2.209393 27 44 64
0.090206 -0.153130 2.204736 30 48 68
0.090234 -0.151538 2.205402 21 40 60
0.090069 -0.149627 2.201384 18 40 59
0.090016 -0.147905 2.200094 17 40 58
0.089256 -0.145035 2.181503 11 37 54
0.089673 -0.142457 2.191692 8 34 51
0.089707 -0.140883 2.192529 7 31 49
0.090237 -0.140076 2.205474 6 27 46
0.090069 -0.138181 2.201384 4 23 43
0.090062 -0.136536 2.201215 3 20 40
0.088700 -0.132860 2.167915 2 19 39
0.089537 -0.132488 2.188371 3 18 39
0.089642 -0.131017 2.190948 3 18 37
0.090210 -0.130209 2.204820 4 22 35
0.089995 -0.128264 2.199558 5 23 34
0.090447 -0.127267 2.210622 7 25 38
0.089935 -0.124914 2.198102 10 28 43
0.089743 -0.123018 2.193409 13 30 47
0.089662 -0.121279 2.191424 16 33 51
0.090649 -0.120969 2.215565 17 35 55
0.089991 -0.118457 2.199471 18 36 56
0.089420 -0.114458 2.185508 20 43 61
0.089074 -0.112399 2.177070 24 47 68
0.088345 -0.109875 2.159244 28 55 76
0.088255 -0.108161 2.157049 32 60 82
0.087476 -0.105618 2.138006 31 61 86
0.087314 -0.103838 2.134053 26 60 86
0.088113 -0.103188 2.153579 24 55 85
0.087627 -0.101028 2.141687 17 40 80
0.087788 -0.099620 2.145633 16 35 75
0.087912 -0.098165 2.148669 7 26 58
0.088311 -0.097007 2.158417 0 18 40
0.087310 -0.092737 2.133942 1 15 28
0.087519 -0.091370 2.139050 0 11 27
0.087047 -0.089298 2.127526 0 6 24
0.087995 -0.087075 2.150675 0 0 22
0.086414 -0.083942 2.112046 0 5 26
0.086495 -0.082450 2.114029 5 17 37
0.085210 -0.076585 2.082623 1 26 43
0.084772 -0.074652 2.071916 3 27 47
0.085315 -0.073581 2.085180 3 23 43
0.085094 -0.071846 2.079772 3 21 42
0.084860 -0.070108 2.074062 2 19 41
0.085580 -0.069149 2.091660 1 16 39
0.085505 -0.067536 2.089823 0 13 36
0.085863 -0.066260 2.098574 0 12 33
0.085746 -0.064613 2.095712 0 12 29
0.085607 -0.062954 2.092316 0 10 24
0.085967 -0.061658 2.101112 0 9 21
0.085941 -0.060080 2.100486 0 9 19
0.086116 -0.058639 2.104763 0 9 18
0.086557 -0.057368 2.115552 0 9 16
0.086915 -0.056027 2.124285 0 9 18
0.086542 -0.054216 2.115180 0 9 18
0.086289 -0.052491 2.108999 0 9 19
0.085950 -0.050724 2.100702 0 9 19
0.085929 -0.049152 2.100202 0 8 17
0.085240 -0.047210 2.083359 0 8 17
0.085238 -0.045662 2.083309 0 9 16
0.085022 -0.044002 2.078030 0 9 16
0.084907 -0.042402 2.075222 0 9 16
0.084598 -0.040711 2.067654 0 8 18
0.083946 -0.038873 2.051715 1 7 19
0.083108 -0.036977 2.031242 1 7 21
0.083477 -0.035625 2.040253 1 7 23
0.083994 -0.034322 2.052909 0 7 25
0.084415 -0.032961 2.063199 0 9 28
0.084259 -0.031370 2.059379 0 14 31
0.083942 -0.029728 2.051626 0 20 35
0.083658 -0.028109 2.044696 2 26 39
0.083424 -0.026516 2.038973 3 32 43
0.083345 -0.024978 2.037034 3 34 45
0.083440 -0.023492 2.039365 0 33 43
0.083445 -0.021978 2.039492 2 32 43
0.083515 -0.020480 2.041200 3 29 41
0.083088 -0.018867 2.030765 2 24 37
0.083052 -0.017351 2.029881 0 16 32
0.083123 -0.015857 2.031613 0 11 28
0.083013 -0.014329 2.028913 0 8 26
0.083046 -0.012827 2.029719 1 8 21
0.083112 -0.011329 2.031343 0 7 13
0.083801 -0.009901 2.048190 2 7 10
0.083982 -0.008398 2.052603 1 6 10
0.083546 -0.006838 2.041950 1 4 10
0.083130 -0.005295 2.031779 1 1 12
0.082842 -0.003772 2.024750 0 0 13
0.083236 -0.002279 2.034374 0 0 12
0.083094 -0.000767 2.030913 2 0 13
0.083011 0.000741 2.028864 2 0 13
0.083149 0.002252 2.032236 0 0 15
0.083041 0.003756 2.029608 0 3 19
0.082964 0.005259 2.027718 1 11 28
0.082951 0.006764 2.027416 5 22 38
0.082858 0.008261 2.025125 12 34 52
0.082766 0.009754 2.022873 21 48 65
0.082561 0.011229 2.017871 27 55 72
0.082132 0.012661 2.007393 28 56 71
0.082132 0.014152 2.007390 28 56 73
0.081973 0.015613 2.003500 29 56 75
0.082030 0.017113 2.004894 28 56 77
0.081858 0.018563 2.000694 27 55 80
0.082028 0.020091 2.004836 26 55 84
0.081864 0.021537 2.000834 25 55 87
0.081712 0.022980 1.997121 26 54 85
0.082099 0.024580 2.006589 26 51 80
0.082320 0.026140 2.011990 26 50 78
0.082314 0.027633 2.011837 25 49 77
0.082103 0.029052 2.006675 25 49 77
0.082279 0.030608 2.010988 24 47 78
0.082132 0.032045 2.007386 24 47 78
0.082012 0.033487 2.004462 23 47 75
0.081830 0.034898 2.000015 22 46 74
0.081755 0.036350 1.998175 17 41 67
0.081256 0.037603 1.985969 17 41 67
0.081448 0.039171 1.990664 17 41 65
0.081624 0.040737 1.994978 17 41 65
0.081701 0.042259 1.996848 17 41 65
0.081755 0.043771 1.998175 17 41 66
0.081635 0.045189 1.995244 17 41 67
0.081289 0.046473 1.986789 17 41 65
0.081430 0.049510 1.990240 15 40 60
0.080979 0.050706 1.979200 14 39 59
0.080498 0.051866 1.967453 13 38 58
0.080323 0.053212 1.963184 10 37 57
0.079395 0.055479 1.940489 10 35 53
0.078813 0.056504 1.926266 9 33 51
0.078658 0.057821 1.922487 7 29 48
0.078766 0.059330 1.925125 8 28 47
0.078815 0.060797 1.926314 8 27 45
0.078822 0.062234 1.926490 7 26 44
0.078831 0.063672 1.926716 5 26 43
0.078837 0.065108 1.926850 5 26 43
0.078751 0.066467 1.924755 4 25 42
0.078801 0.067940 1.925988 3 25 42
0.078645 0.069233 1.922172 2 25 43
0.078612 0.070631 1.921358 2 25 43
0.078685 0.072125 1.923146 3 23 43
0.078661 0.073531 1.922565 3 21 41
0.078736 0.075030 1.924387 1 18 38
0.078397 0.076130 1.916093 0 14 35
0.078583 0.077738 1.920646 0 12 31
0.078585 0.079166 1.920686 0 10 28
0.078569 0.080576 1.920299 0 10 26
0.078423 0.081851 1.916743 1 10 25
0.078500 0.083356 1.918624 1 9 23
0.078301 0.084566 1.913744 0 8 22
0.078294 0.085980 1.913582 0 7 22
0.078061 0.087141 1.907881 0 7 22
0.078116 0.088621 1.909238 0 7 21
0.078266 0.090212 1.912899 0 7 18
0.078487 0.091891 1.918297 0 7 15
0.078439 0.093259 1.917125 0 6 13
0.078366 0.094595 1.915345 0 6 14
0.078231 0.095853 1.912052 0 6 13
0.078693 0.097846 1.923326 0 6 12
0.078384 0.098885 1.915775 0 6 12
0.078106 0.099952 1.908981 1 6 12
0.078077 0.101333 1.908281 0 5 11
0.078522 0.103336 1.919156 0 4 8
0.078160 0.104279 1.910312 0 3 8
0.078649 0.106359 1.922268 0 3 8
0.078832 0.108038 1.926737 0 3 8
0.078372 0.108830 1.915499 0 3 8
0.078526 0.110469 1.919250 0 3 8
0.078221 0.111460 1.911793 0 2 7
0.078168 0.112804 1.910501 0 1 7
0.078185 0.114248 1.910925 1 1 9
0.078061 0.115483 1.907881 0 1 8
0.078586 0.117687 1.920716 0 1 6
0.079353 0.120277 1.939473 0 2 7
0.079502 0.121946 1.943117 0 2 7
0.079188 0.122901 1.935430 0 2 7
0.079260 0.124451 1.937183 0 2 6
0.078822 0.125195 1.926490 0 2 5
0.077482 0.124473 1.893734 0 1 4
0.077401 0.125748 1.891749 0 1 2
0.077310 0.127003 1.889524 0 1 2
0.077431 0.128608 1.892485 0 1 2
0.077421 0.129997 1.892245 0 1 2
0.077299 0.132600 1.889273 0 2 0
0.077207 0.133844 1.887026 0 2 0
0.077229 0.135283 1.887553 0 0 0
0.077437 0.137054 1.892651 0 0 0
0.077557 0.138674 1.895571 0 0 0
0.078822 0.143797 1.926490 0 0 0
0.078780 0.145152 1.925474 0 0 0
0.078930 0.146860 1.929123 0 0 0
0.078520 0.147523 1.919113 0 0 0
0.079052 0.149957 1.932108 0 0 0
0.079824 0.154320 1.950976 0 0 0
0.079548 0.155231 1.944239 0 0 0
0.079791 0.157154 1.950179 0 0 0
0.079972 0.158961 1.954594 0 0 0
0.079855 0.160178 1.951731 0 0 0
0.079531 0.160972 1.943811 0 0 2
0.078210 0.159719 1.911529 0 0 4
0.077869 0.160437 1.903206 0 1 5
0.078221 0.165421 1.911793 0 1 6
0.078692 0.167845 1.923301 0 1 6
0.078554 0.168977 1.919930 0 1 5
0.078320 0.169897 1.914227 0 1 5
0.078836 0.172446 1.926827 0 1 5
0.081323 0.185268 1.987609 0 1 5
0.081843 0.189424 2.000322 0 1 5
0.084856 0.199480 2.073969 0 0 8
0.084456 0.200073 2.064198 0 0 9
0.074888 0.181485 1.830340 0 0 8
0.075150 0.208042 1.836751 0 2 11
0.075121 0.209324 1.836033 0 0 10
0.075578 0.211970 1.847204 0 0 10
0.075705 0.213700 1.850304 0 0 10
0.331260 -1.810388 7.951981 208 197 211
0.564138 -3.073041 13.542266 208 197 210
0.569322 -3.091128 13.666707 208 198 208
0.585848 -3.170409 14.063411 208 198 208
0.560641 -3.004007 13.458308 210 200 206
0.130452 -0.696658 3.131530 210 201 206
0.130201 -0.692996 3.125506 210 201 206
0.130505 -0.692286 3.132796 210 201 206
0.130378 -0.689290 3.129760 210 200 207
0.268316 -1.389840 6.440983 208 198 209
0.131342 -0.677992 3.152896 208 198 209
0.131557 -0.676756 3.158057 208 198 209
0.131759 -0.675446 3.162905 208 198 209
0.132027 -0.674466 3.169340 208 198 207
0.139162 -0.705952 3.340614 205 195 203
0.139922 -0.707312 3.358856 207 198 204
0.138954 -0.697463 3.335615 209 200 205
0.139843 -0.699434 3.356964 208 199 204
0.140583 -0.700626 3.374719 207 197 204
0.174103 -0.836638 4.179375 206 196 204
0.079600 -0.361225 1.910827 206 196 204
0.080036 -0.361776 1.921293 206 196 204
0.358568 -1.576023 8.607498 206 196 204
0.360586 -1.578465 8.655950 206 196 204
0.360329 -1.570914 8.649777 206 196 204
0.146941 -0.637995 3.527356 206 196 204
0.146912 -0.635247 3.526646 206 196 204
0.069510 -0.296843 1.668600 206 196 204
0.131584 -0.557240 3.158710 206 196 204
0.131682 -0.555304 3.161045 206 196 204
0.132388 -0.555923 3.178001 206 196 204
0.132107 -0.552388 3.171263 206 196 204
0.131501 -0.547508 3.156707 206 196 204
0.131296 -0.544314 3.151787 206 196 204
0.131516 -0.540535 3.157064 206 196 204
0.130703 -0.530204 3.137558 206 196 204
0.130461 -0.526896 3.131751 206 196 204
0.096197 -0.342200 2.309219 80 98 126
0.095712 -0.338771 2.297594 68 88 118
0.095654 -0.336860 2.296205 54 76 107
0.095919 -0.336083 2.302565 43 66 98
0.095700 -0.333609 2.297308 38 62 93
0.096098 -0.333281 2.306846 36 61 92
0.095095 -0.326411 2.282768 46 71 102
0.095127 -0.324828 2.283557 56 82 112
0.095283 -0.323662 2.287301 63 90 121
0.095256 -0.321870 2.286643 67 96 128
0.095230 -0.320085 2.286022 64 95 126
0.094954 -0.317462 2.279380 53 85 116
0.094821 -0.315327 2.276191 49 82 113
0.094816 -0.313622 2.276087 55 88 118
0.094573 -0.311129 2.270236 59 90 120
0.094721 -0.309929 2.273803 58 89 119
0.094959 -0.309013 2.279500 59 88 121
0.094928 -0.307220 2.278765 59 87 122
0.094423 -0.303902 2.266638 56 84 122
0.094452 -0.302313 2.267350 60 88 127
0.094416 -0.300513 2.266473 74 102 142
0.094532 -0.299199 2.269273 87 115 157
0.094271 -0.296691 2.263000 88 117 160
0.094232 -0.294889 2.262071 82 114 156
0.094360 -0.293607 2.265144 64 96 136
0.093826 -0.290271 2.252314 39 71 109
0.093448 -0.287435 2.243238 30 62 100
0.093316 -0.285366 2.240074 42 74 110
0.093229 -0.283437 2.237982 61 92 128
0.093219 -0.281744 2.237741 72 101 138
0.093076 -0.279652 2.234302 72 99 136
0.092862 -0.277353 2.229165 47 73 109
0.092930 -0.275900 2.230809 23 48 84
0.092129 -0.271879 2.211575 22 46 81
0.091991 -0.269833 2.208272 31 56 89
0.092130 -0.268597 2.211603 36 61 93
0.091993 -0.266558 2.208324 35 61 91
0.091993 -0.264917 2.208312 32 58 87
0.091738 -0.262546 2.202184 25 49 78
0.091784 -0.261043 2.203302 15 38 66
0.091820 -0.259508 2.204165 7 29 56
0.091673 -0.257457 2.200631 8 27 53
0.091686 -0.255858 2.200940 14 31 57
0.091611 -0.254015 2.199135 19 34 59
0.091784 -0.252859 2.203295 20 33 58
0.091649 -0.250852 2.200048 19 31 56
0.091596 -0.249076 2.198792 18 32 55
0.091630 -0.247533 2.199595 15 30 52
0.091682 -0.246038 2.200840 9 24 45
0.091727 -0.244524 2.201924 5 20 39
0.091598 -0.242548 2.198834 3 19 36
0.091375 -0.240328 2.193479 4 20 35
0.091213 -0.238274 2.189580 5 21 34
0.091776 -0.238109 2.203100 5 21 32
0.091571 -0.235946 2.198191 4 21 30
0.091642 -0.234495 2.199897 3 19 27
0.091500 -0.232500 2.196485 2 17 26
0.091135 -0.229947 2.187723 2 16 25
0.091242 -0.228590 2.190284 2 15 24
0.091371 -0.227283 2.193376 2 14 23
0.091063 -0.224894 2.185985 2 12 22
0.091136 -0.223449 2.187741 2 11 22
0.091358 -0.222365 2.193079 1 10 20
0.091036 -0.219956 2.185328 0 7 16
0.091178 -0.218676 2.188757 0 7 16
0.091470 -0.217744 2.195755 0 5 17
0.091128 -0.215305 2.187541 0 5 17
0.091211 -0.213875 2.189536 0 5 17
0.091284 -0.212420 2.191303 0 5 17
0.091418 -0.211101 2.194515 0 5 17
0.091528 -0.209722 2.197142 1 4 16
0.091137 -0.207202 2.187768 0 2 14
0.090832 -0.204889 2.180444 2 1 14
0.091058 -0.203774 2.185861 2 1 15
0.091526 -0.203189 2.197091 1 1 15
0.091481 -0.201460 2.196028 0 2 15
0.091313 -0.199461 2.191994 0 2 14
0.091442 -0.198112 2.195080 0 2 13
0.091444 -0.196486 2.195137 0 2 13
0.091333 -0.194618 2.192461 1 4 12
0.091426 -0.193186 2.194693 0 3 10
0.091459 -0.191625 2.195485 0 3 10
0.091392 -0.189856 2.193879 0 3 9
0.091167 -0.187763 2.188479 0 3 9
0.091055 -0.185910 2.185806 0 2 9
0.090962 -0.184098 2.183574 0 2 11
0.090712 -0.181974 2.177559 0 1 10
0.091242 -0.181410 2.190284 0 1 9
0.091266 -0.179830 2.190854 0 1 9
0.091416 -0.178496 2.194453 0 2 9
0.091645 -0.177309 2.199956 0 2 9
0.091544 -0.175481 2.197524 0 2 9
0.091694 -0.174134 2.201129 0 2 9
0.091867 -0.172825 2.205292 0 2 9
0.092191 -0.171791 2.213067 0 2 9
0.093598 -0.172744 2.246849 0 5 11
0.091279 -0.166836 2.191170 0 4 11
0.090746 -0.164244 2.178384 0 4 11
0.090670 -0.162490 2.176565 0 4 11
0.091668 -0.161009 2.200514 0 3 10
0.091642 -0.159330 2.199897 0 3 10
0.091542 -0.157523 2.197486 0 5 15
0.092439 -0.157418 2.219016 7 20 37
0.091898 -0.154858 2.206023 26 43 61
0.091713 -0.152913 2.201602 29 48 66
0.091536 -0.150985 2.197345 21 40 57
0.091528 -0.149339 2.197142 18 40 57
0.091214 -0.147201 2.189619 16 39 56
0.091396 -0.145864 2.193971 11 37 52
0.090668 -0.143087 2.176517 12 38 53
0.090746 -0.141592 2.178384 7 31 47
0.090904 -0.140217 2.182168 6 29 45
0.091815 -0.139985 2.204043 4 25 42
0.091285 -0.137550 2.191324 3 22 39
0.090331 -0.132891 2.168416 2 17 36
0.090812 -0.131979 2.179963 3 17 36
0.091535 -0.131398 2.197325 2 18 34
0.091817 -0.130166 2.204094 4 22 34
0.091925 -0.128679 2.206677 5 23 35
0.092114 -0.127302 2.211221 7 25 39
0.091413 -0.124703 2.194393 10 28 43
0.091242 -0.122843 2.190284 13 30 48
0.092291 -0.122609 2.215456 16 33 51
0.092123 -0.120743 2.211424 17 35 55
0.091242 -0.117962 2.190284 18 36 56
0.090406 -0.115270 2.170221 20 41 60
0.091268 -0.114741 2.190913 22 43 62
0.090331 -0.111952 2.168416 25 48 68
0.089988 -0.109922 2.160173 28 55 76
0.089657 -0.107919 2.152229 32 60 82
0.089144 -0.105713 2.139928 29 59 83
0.089148 -0.104128 2.140016 24 56 81
0.089807 -0.103296 2.155827 21 52 80
0.089118 -0.100915 2.139290 14 36 73
0.089536 -0.099792 2.149340 11 29 65
0.089661 -0.098333 2.152339 3 21 49
0.090033 -0.097136 2.161274 0 16 37
0.089610 -0.095081 2.151114 0 14 29
0.088876 -0.092718 2.133495 0 12 26
0.090141 -0.092430 2.163862 0 9 25
0.089603 -0.090280 2.150936 0 5 23
0.089457 -0.088539 2.147441 0 2 22
0.088816 -0.086321 2.132051 0 2 24
0.090327 -0.082958 2.168328 5 20 38
0.090020 -0.081070 2.160951 2 21 37
0.086802 -0.076625 2.083702 0 22 37
0.086450 -0.074772 2.075242 1 23 41
0.086625 -0.073379 2.079461 0 16 35
0.086432 -0.071674 2.074819 0 13 34
0.086411 -0.070117 2.074327 0 12 33
0.086769 -0.068860 2.082903 0 10 32
0.087281 -0.066154 2.095200 0 8 27
0.087102 -0.064465 2.090894 0 8 25
0.086891 -0.062759 2.085837 0 7 22
0.087126 -0.061376 2.091491 0 7 18
0.087111 -0.059812 2.091112 0 8 17
0.087939 -0.058813 2.111004 0 8 15
0.088654 -0.056129 2.128155 0 8 17
0.088805 -0.054641 2.131774 0 7 17
0.086469 -0.051662 2.075702 0 7 18
0.087291 -0.050597 2.095440 0 7 18
0.086763 -0.048744 2.082757 0 7 16
0.086272 -0.046930 2.070983 0 7 16
0.086591 -0.045559 2.078629 0 8 15
0.086004 -0.043717 2.064548 0 8 15
0.085953 -0.042158 2.063312 0 8 15
0.085970 -0.040634 2.063731 0 7 15
0.085379 -0.038832 2.049536 0 6 17
0.084691 -0.037009 2.033028 0 6 18
0.085037 -0.035644 2.041337 0 6 20
0.085327 -0.034244 2.048298 0 7 23
0.085812 -0.032909 2.059940 1 10 27
0.085641 -0.031316 2.055833 1 15 32
0.084932 -0.029543 2.038816 1 21 36
0.085210 -0.028120 2.045473 3 26 40
0.084910 -0.026507 2.038286 4 32 43
0.085051 -0.025035 2.041679 4 34 44
0.084946 -0.023489 2.039142 3 33 44
0.085138 -0.022024 2.043753 2 30 41
0.085042 -0.020483 2.041459 2 26 36
0.084606 -0.018869 2.030978 1 20 32
0.084505 -0.017340 2.028558 0 13 29
0.084578 -0.015847 2.030315 0 7 24
0.084719 -0.014363 2.033695 0 4 22
0.084515 -0.012821 2.028795 0 5 16
0.084810 -0.011354 2.035894 0 5 10
0.085379 -0.009908 2.049536 0 5 8
0.085343 -0.008382 2.048666 0 4 7
0.084912 -0.006826 2.038329 0 3 8
0.084518 -0.005287 2.028870 0 1 11
0.084783 -0.003792 2.035244 0 0 12
0.084853 -0.002282 2.036913 0 0 12
0.084607 -0.000767 2.031018 1 0 13
0.084508 0.000741 2.028639 0 0 14
0.084630 0.002251 2.031566 0 2 17
0.084650 0.003761 2.032045 0 8 25
0.084536 0.005263 2.029305 5 21 37
0.084371 0.006757 2.025357 14 35 52
0.084321 0.008257 2.024150 22 47 65
0.084198 0.009746 2.021193 27 55 74
0.083440 0.011146 2.002997 29 58 76
0.083507 0.012644 2.004603 28 57 74
0.083391 0.014113 2.001826 28 57 74
0.083265 0.015576 1.998788 29 56 75
0.083740 0.017158 2.010196 29 56 77
0.082827 0.018448 1.988292 28 56 81
0.082922 0.021426 1.990570 26 55 87
0.083448 0.023050 2.003199 26 54 85
0.083437 0.024535 2.002916 26 50 80
0.083568 0.026064 2.006078 26 50 78
0.083451 0.027515 2.003257 25 49 77
0.083563 0.029042 2.005937 24 48 77
0.083207 0.030402 1.997404 23 46 77
0.083255 0.031904 1.998548 22 46 76
0.083156 0.033349 1.996185 22 46 74
0.082805 0.034684 1.987762 20 44 72
0.082687 0.036109 1.984908 16 40 66
0.082568 0.037529 1.982067 16 40 66
0.082707 0.039067 1.985389 16 40 64
0.082534 0.040457 1.981249 16 40 64
0.082542 0.041933 1.981446 16 40 64
0.082721 0.043499 1.985734 16 40 65
0.082594 0.044905 1.982695 16 40 66
0.082508 0.046329 1.980628 16 40 64
0.082526 0.047811 1.981063 15 40 61
0.082670 0.049368 1.984523 14 39 59
0.082424 0.050691 1.978603 13 38 58
0.082255 0.052054 1.974558 11 37 56
0.081871 0.053270 1.965320 9 36 55
0.081313 0.054357 1.951941 8 35 53
0.080722 0.055401 1.937751 8 34 51
0.080459 0.056655 1.931439 9 32 50
0.080310 0.057982 1.927859 6 28 46
0.080363 0.059454 1.929143 6 27 45
0.080098 0.060685 1.922759 7 26 43
0.080267 0.062245 1.926827 6 25 42
0.080265 0.063674 1.926780 4 25 42
0.080118 0.064986 1.923246 3 24 41
0.080178 0.066465 1.924700 3 24 41
0.080169 0.067886 1.924465 2 24 41
0.080041 0.069206 1.921409 1 24 40
0.079935 0.070539 1.918866 1 24 41
0.079905 0.071937 1.918131 2 22 42
0.080133 0.073571 1.923607 2 20 40
0.080019 0.074893 1.920865 1 17 37
0.079904 0.076210 1.918108 0 13 34
0.080026 0.077754 1.921040 0 11 30
0.080034 0.079188 1.921231 0 9 27
0.079793 0.080373 1.915446 1 10 26
0.079937 0.081943 1.918895 1 9 24
0.079783 0.083208 1.915218 1 9 22
0.079936 0.084793 1.918887 0 8 20
0.079434 0.085677 1.906834 0 8 20
0.079402 0.087058 1.906062 0 7 20
0.079439 0.089931 1.906944 0 6 16
0.079711 0.091660 1.913471 0 5 13
0.079847 0.093240 1.916743 0 5 11
0.079683 0.094470 1.912807 0 5 11
0.079952 0.096215 1.919275 0 5 11
0.079818 0.097477 1.916057 0 6 12
0.080069 0.099210 1.922068 0 6 12
0.079377 0.099768 1.905461 0 5 11
0.079138 0.100878 1.899716 0 5 11
0.079480 0.102732 1.907934 0 4 8
0.080190 0.105079 1.924972 0 3 8
0.080068 0.106347 1.922042 0 3 8
0.079895 0.107542 1.917889 0 3 8
0.080123 0.109278 1.923370 0 3 8
0.079758 0.110203 1.914619 0 3 8
0.079411 0.111139 1.906284 0 3 8
0.079226 0.112292 1.901836 0 2 8
0.079051 0.113453 1.897625 0 1 8
0.079003 0.114793 1.896475 0 1 8
0.079618 0.117106 1.911241 0 1 6
0.080347 0.119611 1.928743 0 1 6
0.080712 0.121594 1.937515 1 2 7
0.080666 0.122964 1.936414 1 2 7
0.080694 0.124445 1.937083 1 2 6
0.079514 0.124043 1.908759 0 1 6
0.078487 0.123839 1.884094 0 1 4
0.078184 0.124755 1.876818 0 1 4
0.078174 0.126133 1.876575 0 1 3
0.078164 0.127510 1.876334 0 1 3
0.078198 0.128960 1.877150 0 1 3
0.078155 0.133070 1.876120 0 1 2
0.078182 0.134510 1.876769 0 0 0
0.078229 0.135987 1.877911 0 0 0
0.078303 0.137511 1.879678 0 0 0
0.079683 0.141355 1.912807 0 0 0
0.079657 0.142729 1.912173 0 0 0
