ply
format ascii 1.0
element vertex 1361
property float x
property float y
property float z
property uchar red
property uchar green
property uchar blue
end_header
0.211812 -0.160447 2.261705 29 41 32
0.211706 -0.158688 2.260576 31 43 38
0.211689 -0.156996 2.260396 29 42 43
0.211743 -0.155356 2.260968 25 40 45
0.211374 -0.153409 2.257032 23 39 48
0.211936 -0.152136 2.263030 24 39 50
0.211293 -0.149999 2.256164 23 39 51
0.211739 -0.148636 2.260929 20 37 48
0.211870 -0.147048 2.262329 18 35 43
0.211605 -0.145186 2.259500 14 31 38
0.211320 -0.143314 2.256456 10 28 33
0.209877 -0.140671 2.241043 7 25 28
0.210247 -0.139251 2.244998 6 24 26
0.210124 -0.137503 2.243677 5 23 25
0.209573 -0.135480 2.237797 5 23 26
0.209205 -0.133583 2.233865 8 23 28
0.209538 -0.132134 2.237427 10 23 29
0.210166 -0.130863 2.244126 8 19 25
0.209847 -0.129000 2.240728 2 12 18
0.211215 -0.128166 2.255333 0 8 13
0.210346 -0.125970 2.246053 0 6 12
0.210090 -0.124151 2.243319 0 4 10
0.210126 -0.122505 2.243700 0 2 9
0.210358 -0.120972 2.246180 1 2 7
0.210532 -0.119402 2.248033 1 2 7
0.208878 -0.116808 2.230372 1 2 7
0.208079 -0.114711 2.221840 1 2 7
0.209174 -0.113656 2.233541 1 2 7
0.208928 -0.111865 2.230906 1 2 7
0.210096 -0.110824 2.243387 1 2 7
0.208857 -0.108514 2.230153 1 2 7
0.206892 -0.104211 2.209172 1 2 7
0.203535 -0.092834 2.173323 1 2 7
0.202673 -0.090834 2.164118 1 2 7
0.202765 -0.089267 2.165103 1 2 7
0.205593 -0.088881 2.195303 1 2 7
0.206502 -0.087636 2.205006 1 2 7
0.206040 -0.085806 2.200076 1 2 7
0.207860 -0.084916 2.219506 1 2 7
0.206887 -0.082877 2.209121 1 2 7
0.207008 -0.081284 2.210408 0 1 6
0.206250 -0.079350 2.202314 0 1 6
0.204067 -0.076892 2.179007 0 1 6
0.202147 -0.074565 2.158499 0 1 6
0.204194 -0.073701 2.180358 0 1 6
0.205524 -0.072551 2.194565 0 1 6
0.205833 -0.071028 2.197866 0 1 6
0.205856 -0.069403 2.198102 0 1 6
0.203707 -0.067063 2.175161 0 1 6
0.202684 -0.065118 2.164240 0 1 6
0.203594 -0.063796 2.173955 0 1 6
0.202120 -0.061731 2.158216 0 1 6
0.202112 -0.060126 2.158132 0 1 6
0.205740 -0.053046 2.196872 0 2 9
0.205497 -0.051354 2.194279 0 2 9
0.206054 -0.049858 2.200219 0 2 9
0.205187 -0.048021 2.190967 0 2 9
0.207794 -0.038743 2.218802 0 2 9
0.207575 -0.037056 2.216468 0 2 9
0.205891 -0.035122 2.198480 0 2 9
0.206441 -0.033579 2.204358 0 2 9
0.205300 -0.031765 2.192174 0 2 9
0.204177 -0.029972 2.180178 0 2 9
0.205755 -0.026940 2.197034 0 2 9
0.205742 -0.025306 2.196890 0 2 9
0.205873 -0.023689 2.198289 0 2 9
0.205471 -0.022014 2.193997 0 2 9
0.205055 -0.020343 2.189559 0 2 9
0.202778 -0.018508 2.165236 0 2 9
0.203438 -0.016955 2.172293 0 2 9
0.205490 -0.013867 2.194197 0 5 11
0.204888 -0.012201 2.187768 0 5 11
0.206205 -0.010644 2.201830 0 5 11
0.206502 -0.009022 2.205006 0 5 11
0.206226 -0.007374 2.202057 0 5 11
0.205268 -0.005712 2.191828 0 5 11
0.203640 -0.002436 2.174446 0 5 11
0.204379 -0.000824 2.182336 1 6 12
0.200839 0.000783 2.144540 0 6 12
0.202178 0.007203 2.158836 1 5 12
0.203965 0.008884 2.177911 0 5 14
0.201983 0.010400 2.156751 0 6 16
0.202147 0.012011 2.158499 0 10 20
0.202996 0.013672 2.167569 1 11 19
0.203186 0.015296 2.169597 2 10 15
0.204507 0.017017 2.183702 2 7 13
0.201259 0.019940 2.149018 0 0 21
0.201275 0.021538 2.149193 0 3 38
0.197223 0.027361 2.105922 216 247 252
0.195746 0.028708 2.090159 185 218 234
0.197569 0.030543 2.109616 184 219 242
0.197448 0.032090 2.108326 187 222 251
0.197030 0.033585 2.103859 181 218 247
0.192232 0.034292 2.052637 183 222 254
0.190927 0.035573 2.038702 184 222 254
0.190971 0.037096 2.039166 188 227 254
0.189532 0.038320 2.023804 186 224 249
0.187875 0.039475 2.006108 182 220 242
0.188173 0.041030 2.009292 199 235 253
0.187876 0.042455 2.006121 208 242 251
0.188433 0.044075 2.012070 158 191 213
0.187938 0.045450 2.006784 78 103 124
0.188304 0.047032 2.010691 5 15 33
0.187847 0.048408 2.005808 0 3 20
0.188301 0.050018 2.010656 0 3 18
0.188429 0.051547 2.012025 0 7 18
0.189088 0.053227 2.019066 0 5 15
0.190885 0.055246 2.038245 1 9 18
0.191914 0.057067 2.049237 5 14 22
0.192562 0.058787 2.056160 0 7 15
0.187967 0.058875 2.007094 0 7 16
0.189452 0.062345 2.022946 0 6 15
0.186760 0.062940 1.994200 0 6 15
0.187308 0.064610 2.000051 0 6 12
0.187225 0.066067 1.999171 0 6 11
0.187367 0.067603 2.000689 0 6 10
0.186929 0.068927 1.996005 0 6 10
0.187652 0.070682 2.003732 0 5 11
0.188212 0.072386 2.009710 0 5 11
0.187990 0.073792 2.007336 0 5 11
0.189111 0.075731 2.019308 0 4 10
0.188581 0.077015 2.013649 0 4 10
0.188325 0.078404 2.010914 0 4 10
0.188337 0.079903 2.011045 0 4 10
0.189041 0.081701 2.018558 0 4 10
0.189768 0.083520 2.026324 0 5 11
0.189801 0.085040 2.026679 0 5 11
0.189568 0.086439 2.024188 0 5 11
0.189780 0.088041 2.026452 0 5 11
0.189251 0.089297 2.020804 0 5 11
0.189285 0.090814 2.021170 0 5 11
0.189101 0.092225 2.019195 1 6 12
0.190229 0.094284 2.031242 1 6 12
0.189957 0.095656 2.028344 0 4 12
0.188924 0.096634 2.017307 0 4 11
0.187568 0.097428 2.002833 0 4 8
0.190068 0.100234 2.029529 0 4 7
0.189668 0.101528 2.025257 0 3 4
0.189477 0.102928 2.023218 0 3 4
0.189230 0.104295 2.020580 0 1 3
0.189589 0.105996 2.024405 0 1 3
0.189566 0.107487 2.024168 0 1 3
0.190839 0.109722 2.037758 0 1 3
0.190183 0.110853 2.030752 0 1 4
0.190321 0.112443 2.032223 0 1 5
0.190926 0.114315 2.038683 0 1 5
0.191197 0.115994 2.041585 0 1 5
0.191061 0.117427 2.040127 1 2 4
0.191930 0.119483 2.049411 0 1 3
0.192762 0.121530 2.058293 0 1 4
0.194026 0.123865 2.071784 0 1 5
0.193032 0.124762 2.061176 0 1 5
0.190410 0.124577 2.033177 0 1 5
0.190364 0.126057 2.032682 0 1 5
0.191522 0.128343 2.045056 0 1 5
0.191522 0.129862 2.045056 0 1 5
0.189469 0.129973 2.023129 0 1 5
0.187559 0.131638 2.002738 0 1 5
0.187303 0.132944 2.000002 0 1 5
0.187670 0.134693 2.003923 0 1 5
0.188826 0.137020 2.016261 0 1 5
0.189350 0.138901 2.021853 0 1 5
0.190799 0.141478 2.037329 0 1 5
0.192191 0.144034 2.052193 0 1 5
0.192012 0.145423 2.050284 0 1 5
0.192561 0.147366 2.056142 0 1 6
0.189857 0.146803 2.027271 0 1 5
0.189270 0.147850 2.021004 0 1 4
0.189424 0.149472 2.022645 0 1 3
0.189525 0.151055 2.023724 0 1 1
0.193557 0.157340 2.066784 0 2 0
0.194499 0.159647 2.076834 0 2 0
0.195342 0.161889 2.085837 0 2 1
0.194566 0.162789 2.077551 0 1 1
0.192975 0.162989 2.060570 0 1 1
0.192370 0.164003 2.054104 0 1 1
0.193297 0.166326 2.064005 0 1 1
0.195555 0.169821 2.088120 0 1 1
0.196535 0.172230 2.098574 0 1 1
0.195017 0.172446 2.082366 0 1 3
0.195053 0.174026 2.082757 0 1 4
0.195990 0.176415 2.092755 0 1 5
0.196819 0.178723 2.101609 0 1 5
0.195419 0.183651 2.086660 0 1 5
0.186143 0.189697 1.987609 0 1 3
0.188200 0.194779 2.009576 0 1 5
0.187132 0.195158 1.998175 0 1 5
0.195887 0.208949 2.091660 0 1 5
0.195724 0.210327 2.089914 0 1 5
0.195381 0.211508 2.086255 0 1 5
0.195433 0.213115 2.086812 0 1 6
0.195851 0.215124 2.091277 0 1 6
0.195807 0.216629 2.090808 0 1 6
0.188225 0.214212 2.009846 0 0 6
0.188132 0.215598 2.008853 0 1 5
0.195282 0.225340 2.085196 0 1 3
0.195530 0.227178 2.087852 0 1 3
0.195766 0.229005 2.090369 0 1 2
0.197638 0.232762 2.110356 0 1 0
0.197866 0.234600 2.112792 0 2 0
0.198172 0.236535 2.116061 0 2 0
0.197991 0.237889 2.114125 0 2 0
0.197673 0.239074 2.110726 0 2 0
0.198247 0.241340 2.116855 0 2 0
0.198194 0.242849 2.116296 0 2 0
0.196716 0.242598 2.100514 0 1 1
0.344801 -0.828895 3.652771 207 199 197
0.338173 -0.791674 3.582560 207 199 197
2.865213 -6.594830 30.353685 208 200 198
3.016222 -6.894938 31.953455 208 200 198
0.167381 -0.374723 1.773213 208 200 198
0.821113 -1.831798 8.698768 208 200 198
0.818935 -1.820494 8.675692 208 200 198
0.346788 -0.768181 3.673822 208 200 198
0.348029 -0.768193 3.686977 208 200 198
0.462985 -1.018287 4.904802 208 200 198
0.156536 -0.318417 1.658316 207 199 197
0.156540 -0.317193 1.658359 207 199 197
0.156540 -0.315961 1.658359 207 199 197
0.184201 -0.370343 1.951396 207 199 197
0.156352 -0.313122 1.656372 207 199 197
0.156220 -0.311628 1.654972 207 199 197
0.156072 -0.310106 1.653408 207 199 197
0.817235 -1.559488 8.657680 207 199 196
0.236419 -0.436264 2.504591 206 198 195
0.149709 -0.275079 1.585993 206 198 195
0.239102 -0.433688 2.533012 206 198 195
0.222038 -0.348576 2.352246 19 40 54
0.218968 -0.342033 2.319716 17 36 50
0.219448 -0.341056 2.324804 15 32 45
0.218121 -0.337276 2.310740 12 29 39
0.218482 -0.336116 2.314567 12 26 37
0.220418 -0.335625 2.335077 7 20 29
0.220297 -0.331974 2.333797 3 16 25
0.219907 -0.329656 2.329664 1 14 23
0.218994 -0.326565 2.319998 1 14 23
0.217025 -0.321920 2.299131 1 13 24
0.217542 -0.320975 2.304607 1 13 25
0.217857 -0.319727 2.307953 3 15 29
0.218090 -0.318352 2.310416 4 16 30
0.219266 -0.318343 2.322870 4 15 27
0.217971 -0.314748 2.309155 4 14 24
0.217857 -0.312870 2.307953 2 12 22
0.216855 -0.309724 2.297338 1 11 20
0.213953 -0.303896 2.266594 0 11 18
0.213526 -0.301609 2.262071 0 11 15
0.214607 -0.301446 2.273515 0 9 15
0.215414 -0.300886 2.282069 0 8 15
0.215543 -0.299370 2.283437 0 8 15
0.216104 -0.298449 2.289382 0 8 15
0.216283 -0.296994 2.291278 0 8 15
0.216478 -0.295558 2.293341 0 8 15
0.216665 -0.294109 2.295323 0 8 15
0.217104 -0.292995 2.299968 0 8 15
0.217191 -0.291404 2.300890 0 8 15
0.217252 -0.289777 2.301541 1 10 17
0.216344 -0.286863 2.291915 1 10 17
0.216198 -0.284969 2.290375 1 10 17
0.215995 -0.283001 2.288222 0 10 17
0.215924 -0.281209 2.287472 0 11 17
0.215977 -0.279578 2.288029 0 11 17
0.216038 -0.277957 2.288677 0 11 17
0.216011 -0.276223 2.288394 0 11 16
0.215636 -0.274047 2.284418 0 11 15
0.215720 -0.272457 2.285313 1 11 15
0.215993 -0.271101 2.288197 0 9 14
0.216865 -0.270490 2.297442 0 9 14
0.216402 -0.268209 2.292532 0 9 14
0.215930 -0.265925 2.287534 0 7 13
0.214821 -0.262869 2.275790 1 7 13
0.214839 -0.261201 2.275981 1 6 12
0.215261 -0.260020 2.280450 0 5 11
0.214270 -0.257136 2.269943 0 5 11
0.214110 -0.255260 2.268253 0 5 11
0.213082 -0.252358 2.257365 0 5 11
0.213465 -0.251131 2.261421 0 5 11
0.212984 -0.248890 2.256329 0 5 11
0.213056 -0.247297 2.257088 0 5 11
0.212787 -0.245310 2.254237 0 5 9
0.215287 -0.246499 2.280725 6 10 14
0.216836 -0.246566 2.297135 5 9 12
0.215908 -0.243812 2.287301 2 7 8
0.213016 -0.238869 2.256661 0 5 5
0.212205 -0.236291 2.248074 0 3 3
0.212000 -0.234394 2.245901 5 9 10
0.212106 -0.232842 2.247020 29 28 30
0.212489 -0.231591 2.251085 55 50 54
0.212662 -0.230106 2.252917 88 79 83
0.212566 -0.228329 2.251897 114 103 107
0.212478 -0.226563 2.250966 131 119 122
0.212594 -0.225014 2.252195 135 123 125
0.212422 -0.223160 2.250367 136 125 124
0.212350 -0.221413 2.249609 143 132 128
0.212384 -0.219777 2.249965 144 133 127
0.212207 -0.217924 2.248089 135 124 117
0.212214 -0.216262 2.248170 126 117 112
0.212189 -0.214566 2.247897 127 118 114
0.212092 -0.212800 2.246875 133 124 121
0.212492 -0.211529 2.251111 139 131 126
0.212821 -0.210182 2.254594 141 132 127
0.212995 -0.208678 2.256440 137 129 122
0.212997 -0.207004 2.256463 129 121 115
0.212884 -0.205219 2.255266 121 114 109
0.212712 -0.203379 2.253445 101 96 92
0.212661 -0.201657 2.252900 75 72 69
0.212954 -0.200259 2.256010 51 49 46
0.212795 -0.198435 2.254319 26 25 23
0.212977 -0.196929 2.256252 11 10 8
0.213135 -0.195398 2.257923 5 3 2
0.213420 -0.193980 2.260941 3 2 0
0.213395 -0.192278 2.260674 2 1 0
0.213459 -0.190656 2.261355 0 1 0
0.213691 -0.189182 2.263813 0 2 0
0.213521 -0.187351 2.262011 0 2 0
0.213515 -0.185666 2.261949 0 2 0
0.213177 -0.183694 2.258369 0 2 0
0.213568 -0.182351 2.262513 0 2 0
0.213492 -0.180606 2.261710 0 2 0
0.213274 -0.178744 2.259400 0 2 0
0.213388 -0.177160 2.260603 0 2 0
0.213333 -0.175436 2.260026 0 1 0
0.213027 -0.173508 2.256779 0 1 0
0.213382 -0.172118 2.260542 1 4 2
0.213653 -0.170655 2.263416 4 9 6
0.213709 -0.169018 2.264003 5 11 9
0.213972 -0.167542 2.266790 6 12 10
0.214455 -0.166233 2.271907 9 16 13
0.214153 -0.164314 2.268711 13 22 17
0.213577 -0.162192 2.262611 17 28 22
0.214049 -0.160866 2.267609 21 33 28
0.214417 -0.159455 2.271502 25 38 36
0.213661 -0.157211 2.263495 25 40 42
0.213546 -0.155447 2.262282 23 40 45
0.213185 -0.153506 2.258451 21 39 47
0.213282 -0.151897 2.259477 21 39 49
0.213575 -0.150426 2.262587 21 38 50
0.213373 -0.148604 2.260442 18 34 47
0.213705 -0.147154 2.263960 16 33 43
0.213174 -0.145111 2.258333 13 30 38
0.213140 -0.143411 2.257980 9 27 33
0.212317 -0.141186 2.249260 7 25 29
0.211790 -0.139170 2.243677 6 25 26
0.210831 -0.136880 2.233517 5 25 25
0.212244 -0.136127 2.248484 6 24 26
0.211079 -0.133719 2.236144 8 23 27
0.211414 -0.132268 2.239692 10 23 29
0.212597 -0.131335 2.252223 7 17 24
0.211456 -0.128967 2.240138 2 10 17
0.212476 -0.127917 2.250944 0 7 13
0.211994 -0.125958 2.245837 0 5 11
0.211369 -0.123924 2.239211 0 3 10
0.210780 -0.121920 2.232976 0 2 9
0.211960 -0.120935 2.245481 1 2 7
0.212014 -0.119297 2.246053 1 2 7
0.211369 -0.117271 2.239211 1 2 7
0.209785 -0.114742 2.222439 1 2 7
0.210126 -0.113274 2.226048 1 2 7
0.210362 -0.111746 2.228544 1 2 7
0.212075 -0.110988 2.246696 1 2 7
0.211022 -0.108776 2.235539 0 1 6
0.210638 -0.106921 2.231476 0 1 6
0.207949 -0.103919 2.202986 0 1 6
0.208128 -0.100733 2.204883 0 1 6
0.207658 -0.098872 2.199897 0 1 6
0.207855 -0.097330 2.201987 0 1 6
0.206883 -0.095247 2.191692 0 1 6
0.205451 -0.092971 2.176517 0 1 6
0.204310 -0.090847 2.164430 1 2 7
0.204470 -0.089309 2.166125 1 2 7
0.206988 -0.088780 2.192806 1 2 7
0.207134 -0.087213 2.194355 1 2 7
0.207294 -0.085649 2.196042 1 2 7
0.207544 -0.084119 2.198691 1 2 7
0.208049 -0.082687 2.204043 1 2 7
0.207692 -0.080911 2.200262 0 1 6
0.207420 -0.079173 2.197376 0 1 6
0.207033 -0.074138 2.193279 0 1 6
0.206686 -0.072387 2.189600 0 1 6
0.206100 -0.070560 2.183392 0 1 6
0.206281 -0.068999 2.185310 0 1 6
0.206750 -0.067529 2.190284 0 1 6
0.204415 -0.065158 2.165549 1 2 7
0.204516 -0.063580 2.166613 0 2 7
0.205503 -0.062270 2.177070 0 2 7
0.204369 -0.058710 2.165053 0 2 7
0.207440 -0.056328 2.197591 0 2 7
0.207162 -0.054622 2.194643 0 2 7
0.207351 -0.053041 2.196651 0 2 9
0.206779 -0.051267 2.190594 0 2 9
0.206171 -0.049494 2.184147 0 2 9
0.205838 -0.047795 2.180625 0 2 9
0.203801 -0.044114 2.159045 0 2 9
0.207308 -0.036717 2.196190 0 2 9
0.205474 -0.034775 2.176761 0 2 9
0.206468 -0.033319 2.187296 0 2 9
0.205927 -0.031611 2.181564 0 2 9
0.204018 -0.029713 2.161338 0 2 9
0.205520 -0.026697 2.177249 0 2 9
0.205392 -0.025064 2.175895 0 2 9
0.205454 -0.023455 2.176555 0 2 9
0.205123 -0.021803 2.173047 0 2 9
0.204986 -0.020176 2.171600 0 2 9
0.204126 -0.018485 2.162488 0 2 9
0.203249 -0.016806 2.153188 0 2 9
0.205582 -0.015381 2.177911 0 2 9
0.205206 -0.013739 2.173922 0 5 11
0.205568 -0.012145 2.177761 0 5 11
0.206015 -0.010551 2.182498 0 5 11
0.206797 -0.008963 2.190782 0 5 11
0.207112 -0.007347 2.194119 0 5 11
0.205956 -0.005686 2.181870 0 5 11
0.205515 -0.004056 2.177201 0 5 11
0.204048 -0.000816 2.161657 1 6 12
0.202546 0.000784 2.145742 0 6 12
0.202329 0.002375 2.143448 0 6 12
0.201593 0.003953 2.135651 0 6 12
0.202706 0.007165 2.147441 1 5 12
0.205000 0.008859 2.171747 0 5 14
0.204454 0.010444 2.165963 0 6 16
0.204369 0.012048 2.165053 0 10 19
0.204601 0.013671 2.167514 1 11 19
0.203711 0.015215 2.158091 1 10 15
0.204221 0.016860 2.163495 0 8 12
0.205383 0.018572 2.175798 0 3 13
0.194931 0.022228 2.065068 16 26 67
0.197464 0.030286 2.091909 184 221 241
0.198855 0.033629 2.106642 181 218 247
0.192306 0.034035 2.037263 185 224 254
0.190867 0.036784 2.022023 190 226 254
0.190328 0.038178 2.016313 187 225 251
0.189588 0.039521 2.008470 187 224 247
0.189140 0.040916 2.003719 200 236 255
0.189546 0.042495 2.008028 207 243 253
0.189182 0.043902 2.004168 182 216 238
0.189410 0.045446 2.006589 142 169 191
0.189238 0.046893 2.004757 64 80 100
0.189278 0.048393 2.005184 4 13 32
0.189578 0.049961 2.008366 0 6 23
0.190060 0.051584 2.013472 3 13 27
0.190944 0.053326 2.022834 2 9 22
0.191685 0.055042 2.030689 0 6 17
0.194799 0.057469 2.063678 4 9 20
0.193506 0.058610 2.049976 1 8 18
0.191022 0.060864 2.023658 0 6 16
0.191414 0.062495 2.027818 0 6 16
0.189831 0.063472 2.011045 0 6 16
0.188054 0.064357 1.992218 0 6 14
0.188000 0.065818 1.991643 0 6 13
0.189109 0.067694 2.003397 0 7 11
0.187358 0.068542 1.984848 0 6 11
0.189846 0.070946 2.011204 0 5 11
0.189718 0.072391 2.009846 0 5 11
0.190594 0.074225 2.019132 0 5 11
0.191334 0.076019 2.026964 0 4 10
0.190870 0.077336 2.022049 0 4 10
0.189882 0.078430 2.011585 0 4 10
0.190391 0.080138 2.016974 0 4 10
0.190669 0.081756 2.019918 0 3 10
0.191376 0.083565 2.027416 0 3 10
0.190691 0.084766 2.020155 0 3 10
0.191180 0.086488 2.025335 0 3 10
0.191359 0.088075 2.027236 0 4 10
0.191296 0.089551 2.026559 0 4 10
0.191056 0.090942 2.024027 0 5 11
0.190946 0.092392 2.022858 1 6 12
0.191356 0.094096 2.027197 1 6 12
0.190839 0.095344 2.021719 0 5 13
0.190598 0.096723 2.019170 0 4 13
0.189400 0.097606 2.006482 0 4 11
0.191470 0.100179 2.028413 0 4 8
0.191770 0.101845 2.031585 0 3 5
0.192177 0.103573 2.035894 0 3 4
0.190935 0.104407 2.022743 0 1 3
0.191230 0.106072 2.025867 0 1 3
0.191248 0.107587 2.026055 0 1 3
0.191339 0.109144 2.027024 0 1 3
0.191338 0.110649 2.027007 0 1 4
0.191498 0.112248 2.028701 0 1 5
0.192112 0.114120 2.035208 0 1 5
0.192550 0.115896 2.039854 0 1 5
0.193117 0.117756 2.045859 1 2 4
0.192620 0.118969 2.040596 0 1 3
0.193440 0.120998 2.049281 0 1 4
0.194326 0.123081 2.058667 0 1 5
0.193402 0.124017 2.048871 0 1 5
0.192941 0.125240 2.043992 0 1 5
0.191608 0.125883 2.029871 0 1 5
0.191688 0.127443 2.030715 0 1 5
0.192125 0.129246 2.035345 0 1 5
0.191604 0.130403 2.029831 0 1 5
0.189775 0.130651 2.010448 0 1 5
0.189227 0.131763 2.004645 0 1 5
0.189214 0.133243 2.004513 0 1 5
0.189109 0.134657 2.003397 0 1 5
0.189878 0.136699 2.011541 0 1 5
0.190888 0.138928 2.022239 0 1 5
0.191853 0.141140 2.032468 0 1 5
0.192821 0.143370 2.042723 0 1 5
0.192579 0.144705 2.040159 0 1 5
0.192279 0.145992 2.036975 0 1 6
0.190985 0.146513 2.023270 0 1 5
0.190592 0.147711 2.019104 0 1 3
0.190875 0.149432 2.022100 0 1 2
0.191180 0.151175 2.025335 0 1 1
0.194263 0.156670 2.057994 0 2 0
0.194928 0.158741 2.065047 0 2 0
0.195094 0.160411 2.066798 0 2 1
0.194280 0.161271 2.058178 0 2 1
0.193674 0.162291 2.051754 0 2 1
0.193331 0.163526 2.048128 0 2 1
0.193797 0.165445 2.053063 0 2 1
0.195535 0.168467 2.071469 0 2 1
0.195108 0.171170 2.066952 0 1 2
0.195031 0.172636 2.066132 0 1 4
0.195757 0.174819 2.073819 0 1 5
0.196332 0.176878 2.079912 0 1 5
0.196267 0.178364 2.079227 0 1 5
0.195260 0.182058 2.068555 0 1 5
0.186105 0.186702 1.971571 0 1 4
0.187592 0.189670 1.987324 0 1 3
0.187942 0.191502 1.991031 0 1 3
0.188475 0.193529 1.996682 0 1 5
0.187774 0.194286 1.989253 0 1 5
0.189317 0.197373 2.005599 0 1 5
0.195816 0.207230 2.074446 0 1 5
0.195498 0.208431 2.071078 0 1 5
0.195232 0.209684 2.068264 0 1 5
0.195397 0.211399 2.070011 0 1 6
0.195741 0.213311 2.073652 0 1 6
0.195453 0.214536 2.070607 0 1 6
0.189280 0.213717 2.005204 0 0 6
0.189371 0.215311 2.006173 0 1 5
0.194601 0.222788 2.061579 0 1 3
0.194830 0.224583 2.064005 0 1 3
0.195761 0.227197 2.073871 0 1 2
0.198733 0.235338 2.105355 0 2 0
0.198894 0.237093 2.107057 0 2 0
0.199080 0.240448 2.109031 0 2 0
0.198787 0.241658 2.105922 0 2 0
0.348167 -0.830453 3.659635 207 199 197
0.340850 -0.797034 3.582729 207 199 197
0.340834 -0.794335 3.582560 207 199 197
0.340890 -0.791805 3.583150 207 199 197
3.180761 -7.263965 33.433475 208 200 198
3.169101 -7.187851 33.310913 208 200 198
0.290750 -0.654911 3.056115 208 200 198
0.168439 -0.376778 1.770493 208 200 198
0.168646 -0.375923 1.772663 208 200 198
0.168762 -0.374865 1.773888 208 200 198
0.831830 -1.841216 8.743494 208 200 198
0.192232 -0.389477 2.020580 207 199 197
0.157487 -0.311704 1.655375 207 199 197
0.297741 -0.575351 3.129604 207 199 197
0.237824 -0.435431 2.499808 206 198 195
0.238767 -0.431564 2.509718 206 198 195
0.239818 -0.431591 2.520762 206 198 195
0.298336 -0.525258 3.135859 201 195 195
0.293646 -0.505538 3.086563 183 182 187
0.221660 -0.364301 2.329899 89 101 118
0.223648 -0.351855 2.350803 32 54 72
0.224967 -0.352173 2.364666 23 44 61
0.222561 -0.346669 2.339373 19 38 54
0.222188 -0.344354 2.335457 18 35 51
0.220026 -0.339285 2.312732 17 34 48
0.220013 -0.337547 2.312592 14 29 41
0.219643 -0.335264 2.308704 10 24 35
0.221209 -0.335927 2.325161 8 21 30
0.223430 -0.337556 2.348508 7 20 29
0.222841 -0.334927 2.342320 4 17 26
0.221270 -0.330837 2.325803 3 16 25
0.221413 -0.329322 2.327303 1 14 23
0.220418 -0.326121 2.316844 1 14 23
0.218628 -0.320059 2.298033 1 13 25
0.219650 -0.319841 2.308777 3 15 29
0.221368 -0.320614 2.326832 4 16 30
0.221238 -0.318698 2.325464 3 15 27
0.219870 -0.315012 2.311091 2 14 25
0.219011 -0.312071 2.302064 2 12 22
0.218367 -0.309449 2.295292 1 11 20
0.218315 -0.307670 2.294744 0 11 18
0.216252 -0.303075 2.273063 0 11 16
0.216679 -0.301981 2.277544 0 9 15
0.216862 -0.300543 2.279474 0 7 15
0.217417 -0.299615 2.285309 0 7 15
0.218083 -0.298829 2.292301 0 7 15
0.218211 -0.297302 2.293651 0 7 15
0.218048 -0.295377 2.291938 0 8 15
0.218483 -0.294261 2.296508 0 8 15
0.218470 -0.292537 2.296372 0 8 15
0.218467 -0.290827 2.296337 0 8 15
0.217867 -0.288328 2.290035 1 10 17
0.217799 -0.286537 2.289315 1 10 17
0.217630 -0.284616 2.287541 1 10 17
0.217372 -0.282582 2.284831 0 10 17
0.217842 -0.281492 2.289774 0 10 17
0.217648 -0.279542 2.287732 0 10 17
0.217584 -0.277761 2.287063 0 10 17
0.217141 -0.275501 2.282408 0 10 16
0.216976 -0.273597 2.280674 1 12 16
0.217099 -0.272056 2.281956 1 11 15
0.217205 -0.270494 2.283072 1 11 15
0.218131 -0.269944 2.292812 1 10 15
0.217814 -0.267851 2.289473 1 9 14
0.218135 -0.266543 2.292853 1 8 14
0.216389 -0.262720 2.274495 0 7 13
0.215608 -0.260089 2.266290 0 6 12
0.216355 -0.259300 2.274137 0 6 12
0.216048 -0.257246 2.270917 0 6 12
0.214831 -0.254120 2.258128 0 6 12
0.214711 -0.252301 2.256856 0 6 12
0.213878 -0.249652 2.248105 0 6 12
0.213140 -0.247127 2.240349 0 6 12
0.212974 -0.245272 2.238601 0 6 12
0.218580 -0.248315 2.297534 6 10 14
0.217428 -0.245309 2.285423 6 8 12
0.217056 -0.243195 2.281513 4 8 11
0.214362 -0.238502 2.253193 2 7 9
0.212993 -0.235316 2.238801 0 4 7
0.212756 -0.233394 2.236315 3 7 10
0.213235 -0.232254 2.241349 23 22 26
0.213408 -0.230776 2.243167 46 41 46
0.213919 -0.229658 2.248532 93 86 92
0.214107 -0.228189 2.250511 131 124 128
0.214418 -0.226847 2.253785 158 151 155
0.214492 -0.225250 2.254562 168 162 164
0.214612 -0.223700 2.255818 172 166 165
0.214753 -0.222170 2.257298 178 172 169
0.214622 -0.220360 2.255928 177 169 165
0.214568 -0.218629 2.255363 164 155 151
0.214605 -0.216991 2.255750 155 149 145
0.214663 -0.215374 2.256361 154 148 145
0.214646 -0.213681 2.256183 153 147 144
0.214557 -0.211917 2.255241 146 140 136
0.214540 -0.210225 2.255064 131 125 120
0.214429 -0.208443 2.253896 107 101 97
0.214414 -0.206754 2.253742 81 76 71
0.214265 -0.204938 2.252176 60 56 52
0.214219 -0.203221 2.251689 36 34 31
0.214541 -0.201851 2.255070 18 18 17
0.214532 -0.200168 2.254980 10 10 11
0.214638 -0.198591 2.256095 3 4 4
0.214565 -0.196848 2.255324 0 1 2
0.215377 -0.195911 2.263857 1 2 3
0.214902 -0.193802 2.258864 1 2 2
0.215168 -0.192362 2.261666 1 2 1
0.215400 -0.190887 2.264098 0 1 1
0.214953 -0.188813 2.259400 0 2 2
0.215055 -0.187224 2.260473 0 2 2
0.214858 -0.185375 2.258404 0 2 2
0.214856 -0.183695 2.258382 0 2 2
0.214859 -0.182021 2.258416 0 2 2
0.214734 -0.180238 2.257102 0 2 2
0.214362 -0.178253 2.253193 0 2 2
0.214785 -0.176927 2.257638 0 2 2
0.214902 -0.175346 2.258871 0 2 2
0.215210 -0.173917 2.262109 0 2 2
0.215052 -0.172110 2.260442 0 4 4
0.215068 -0.170444 2.260609 1 6 7
0.215581 -0.169168 2.266010 1 6 7
0.216220 -0.167981 2.272719 1 5 7
0.216136 -0.166228 2.271836 3 9 10
0.215759 -0.164254 2.267875 8 18 17
0.216500 -0.163127 2.275666 16 27 25
0.216662 -0.161558 2.277366 20 33 31
0.216207 -0.159531 2.272585 24 38 38
0.216739 -0.158231 2.278175 24 40 43
0.215272 -0.155479 2.262753 21 39 44
0.214593 -0.153314 2.255625 18 37 45
0.215566 -0.152326 2.265851 18 36 46
0.215655 -0.150705 2.266780 17 35 47
0.215881 -0.149178 2.269164 16 32 45
0.215156 -0.146996 2.261534 14 30 42
0.214944 -0.145173 2.259306 12 28 37
0.214805 -0.143403 2.257851 9 26 33
0.213531 -0.140885 2.244458 7 25 29
0.212659 -0.138649 2.235288 7 25 26
0.212865 -0.137122 2.237458 7 26 25
0.213102 -0.135611 2.239947 8 25 26
0.213032 -0.133903 2.239211 9 23 27
0.212909 -0.132163 2.237918 10 22 28
0.213744 -0.131013 2.246696 6 16 22
0.213460 -0.129172 2.243710 1 9 16
0.213789 -0.127702 2.247169 0 5 11
0.213032 -0.125587 2.239211 0 5 11
0.211849 -0.123235 2.226776 0 3 10
0.212768 -0.120448 2.236436 1 2 7
0.213509 -0.119200 2.244225 1 2 7
0.212395 -0.116920 2.232521 1 2 7
0.211614 -0.114838 2.224305 1 2 7
0.212849 -0.113846 2.237289 1 2 7
0.211145 -0.111287 2.219380 1 2 7
0.212511 -0.110347 2.233735 1 2 7
0.211911 -0.106727 2.227427 0 1 6
0.208377 -0.100066 2.190284 0 1 6
0.208748 -0.096985 2.194186 0 1 6
0.207416 -0.093127 2.180178 0 1 6
0.205585 -0.089095 2.160932 1 2 7
0.207998 -0.088517 2.186303 1 2 7
0.208819 -0.087236 2.194925 1 2 7
0.208662 -0.085541 2.193279 1 2 7
0.208070 -0.083674 2.187055 1 2 7
0.209139 -0.082471 2.198289 1 2 7
0.208930 -0.080758 2.196100 0 1 6
0.209000 -0.079153 2.196829 0 1 6
0.210124 -0.077938 2.208643 0 1 6
0.207809 -0.075457 2.184318 0 1 6
0.209080 -0.074286 2.197671 0 1 6
0.207539 -0.072118 2.181476 0 1 6
0.206125 -0.070018 2.166613 0 1 6
0.205561 -0.068221 2.160688 0 1 6
0.207982 -0.067401 2.186130 0 1 6
0.206284 -0.065240 2.168287 1 2 7
0.205908 -0.063513 2.164331 1 2 7
0.206068 -0.061954 2.166013 0 2 7
0.206870 -0.060580 2.174446 0 2 7
0.205061 -0.058449 2.155432 0 2 7
0.209228 -0.056370 2.199224 0 2 7
0.209436 -0.054791 2.201418 0 2 7
0.209184 -0.053092 2.198762 0 2 9
0.206846 -0.050883 2.174192 0 2 9
0.206297 -0.049138 2.168416 0 2 9
0.206597 -0.047596 2.171577 0 2 9
0.205293 -0.045693 2.157868 0 2 9
0.204950 -0.044017 2.154259 0 2 9
0.210214 -0.038582 2.209596 0 2 9
0.206895 -0.036358 2.174704 0 2 9
0.204925 -0.034412 2.154004 0 2 9
0.206191 -0.033014 2.167302 0 2 9
0.206231 -0.031411 2.167728 0 2 9
0.205191 -0.026446 2.156799 0 2 9
0.204974 -0.024818 2.154514 0 2 9
0.205007 -0.023221 2.154862 0 2 9
0.204917 -0.021611 2.153916 0 2 9
0.204669 -0.019987 2.151309 0 2 9
0.203989 -0.018328 2.144165 0 2 9
0.204979 -0.015217 2.154569 0 2 9
0.204982 -0.013616 2.154595 0 5 11
0.205680 -0.012057 2.161940 0 5 11
0.206683 -0.010502 2.172482 0 5 11
0.206695 -0.008889 2.172607 0 5 11
0.207621 -0.007308 2.182336 0 5 11
0.207191 -0.005675 2.177820 0 5 11
0.205459 -0.004024 2.159611 0 5 11
0.204042 -0.000810 2.144722 0 6 12
0.204073 0.000783 2.145041 0 6 12
0.202957 0.002364 2.133311 0 6 12
0.202529 0.003940 2.128816 0 6 12
0.202717 0.005526 2.130792 1 5 12
0.202754 0.007110 2.131179 1 5 13
0.205175 0.008797 2.156624 0 5 15
0.205702 0.010426 2.162162 0 6 16
0.205218 0.012003 2.157076 0 10 18
0.205163 0.013602 2.156499 0 11 16
0.205102 0.015199 2.155859 0 11 13
0.204687 0.016766 2.151499 1 10 13
0.205175 0.018408 2.156624 0 4 14
0.195471 0.022116 2.054624 16 24 64
0.203269 0.027759 2.136595 219 250 252
0.193002 0.033891 2.028673 189 226 254
0.192424 0.035292 2.022603 186 222 254
0.192111 0.036735 2.019308 191 226 254
0.191628 0.038138 2.014235 191 227 254
0.190896 0.039483 2.006543 190 226 250
0.190077 0.040798 1.997926 195 231 252
0.190520 0.042380 2.002587 201 238 254
0.190534 0.043871 2.002738 199 234 252
0.190195 0.045278 1.999171 189 219 238
0.190811 0.046914 2.005647 146 166 188
0.190423 0.048305 2.001564 34 50 72
0.190902 0.049917 2.006599 0 7 28
0.191076 0.051455 2.008426 2 11 29
0.192484 0.053337 2.023227 3 14 30
0.194395 0.055384 2.043319 0 5 19
0.196290 0.057456 2.063233 0 6 19
0.195986 0.058898 2.060041 2 10 22
0.194249 0.061409 2.041783 0 7 17
0.192526 0.062367 2.023675 0 7 16
0.191560 0.063550 2.013513 0 7 16
0.189047 0.064192 1.987104 0 7 15
0.189126 0.065696 1.987938 0 7 15
0.190333 0.067601 2.000619 0 7 14
0.189487 0.068779 1.991723 0 7 13
0.189301 0.070190 1.989769 0 5 12
0.190670 0.072186 2.004168 0 5 11
0.191388 0.073952 2.011709 0 5 11
0.192545 0.075902 2.023868 0 4 11
0.192111 0.077231 2.019308 0 3 10
0.190611 0.078117 2.003542 0 3 10
0.190520 0.079567 2.002587 0 3 10
0.191904 0.081643 2.017131 0 3 10
0.192136 0.083242 2.019575 0 3 10
0.193083 0.085160 2.029529 0 3 10
0.192402 0.086361 2.022363 0 3 10
0.192861 0.088073 2.027197 0 3 10
0.192442 0.089384 2.022793 0 4 10
0.194508 0.091863 2.044507 0 5 11
0.192310 0.092326 2.021404 1 6 12
0.191812 0.093584 2.016165 1 6 12
0.191049 0.094703 2.008145 1 5 13
0.191135 0.096238 2.009045 1 5 12
0.190783 0.097551 2.005347 0 5 9
0.194092 0.103788 2.040127 0 3 4
0.191396 0.103841 2.011796 0 1 3
0.192249 0.105805 2.020761 0 1 3
0.191404 0.106834 2.011878 0 1 3
0.192155 0.110254 2.019770 0 1 4
0.192661 0.112048 2.025087 0 1 5
0.193946 0.114310 2.038602 0 1 5
0.194502 0.116156 2.044443 0 1 5
0.194600 0.117734 2.045473 1 2 4
0.194380 0.119119 2.043161 0 1 3
0.194970 0.121002 2.049360 0 1 4
0.195960 0.123147 2.059764 0 1 5
0.194646 0.123840 2.045950 0 1 5
0.193730 0.124771 2.036332 0 1 5
0.193671 0.126245 2.035711 0 1 5
0.192823 0.127197 2.026793 0 1 5
0.192835 0.128710 2.026916 0 1 5
0.192710 0.130132 2.025609 0 1 5
0.192111 0.131227 2.019308 0 1 5
0.190488 0.131606 2.002251 0 1 5
0.190441 0.133060 2.001752 0 1 5
0.191272 0.135134 2.010495 0 1 5
0.191885 0.137065 2.016937 0 1 5
0.192074 0.138700 2.018917 0 1 5
0.192521 0.140526 2.023619 0 1 5
0.193035 0.142408 2.029025 0 1 5
0.193014 0.143899 2.028795 0 1 5
0.192852 0.145284 2.027099 0 1 6
0.192079 0.149201 2.018969 0 1 3
0.193312 0.151668 2.031929 0 1 1
0.194099 0.153800 2.040200 0 2 0
0.195123 0.156136 2.050968 0 2 0
0.195123 0.157659 2.050968 0 2 0
0.195272 0.159304 2.052534 0 2 1
0.195067 0.160659 2.050377 0 2 1
0.194497 0.161709 2.044390 0 2 1
0.194290 0.163054 2.042215 0 2 1
0.195173 0.165318 2.051495 0 2 1
0.195875 0.167442 2.058873 0 2 0
0.196566 0.169567 2.066132 0 2 0
0.195330 0.170027 2.053148 0 1 1
0.195149 0.171392 2.051238 0 1 3
0.196525 0.174135 2.065706 0 1 5
0.196601 0.175737 2.066499 0 1 5
0.188456 0.189055 1.980886 0 1 3
0.188783 0.190858 1.984330 0 1 3
0.189071 0.192625 1.987357 0 1 5
0.188597 0.193614 1.982368 0 1 5
0.193246 0.201405 2.031242 0 1 5
0.195264 0.205032 2.052446 0 1 5
0.195167 0.206455 2.051436 0 1 5
0.194910 0.207704 2.048727 0 1 5
0.195058 0.209385 2.050284 0 1 6
0.196132 0.212069 2.061579 0 1 6
0.190244 0.213129 1.999687 0 0 6
0.190835 0.215281 2.005896 0 1 5
0.193954 0.220314 2.038683 0 1 3
0.193876 0.221739 2.037860 0 1 3
0.349409 -0.826958 3.644236 207 199 197
0.342159 -0.791246 3.568626 207 199 197
0.342787 -0.790043 3.575177 207 199 197
1.228837 -2.794099 12.816442 208 200 198
3.065511 -6.899036 31.972445 208 200 198
0.294124 -0.657378 3.067631 208 200 198
0.169884 -0.378381 1.771842 208 200 198
0.169813 -0.376909 1.771107 208 200 198
0.169958 -0.375912 1.772613 208 200 198
0.170007 -0.374705 1.773130 208 200 198
0.836691 -1.837630 8.726464 208 200 198
0.599588 -1.298300 6.253544 208 200 198
0.170172 -0.367159 1.774853 208 200 198
0.160154 -0.297156 1.670360 207 199 196
0.160215 -0.296029 1.671000 207 199 196
0.152146 -0.275226 1.586838 206 198 195
0.239922 -0.428433 2.502319 206 198 195
0.300566 -0.527414 3.134827 207 200 199
0.299926 -0.523966 3.128143 202 196 196
0.287172 -0.497237 2.995131 158 154 155
0.286866 -0.494484 2.991932 145 141 143
0.223478 -0.364444 2.330811 93 106 123
0.225160 -0.349745 2.348360 24 45 62
0.225065 -0.347852 2.347362 20 40 55
0.223361 -0.343489 2.329597 20 39 53
0.225154 -0.344503 2.348299 20 37 49
0.221054 -0.336516 2.305529 14 30 41
0.221342 -0.335240 2.308534 8 22 33
0.222671 -0.335528 2.322397 8 21 30
0.224555 -0.336627 2.342043 7 20 29
0.223429 -0.333209 2.330309 4 17 26
0.222902 -0.330695 2.324804 3 16 25
0.222602 -0.326802 2.321682 1 14 23
0.222290 -0.324621 2.318420 1 13 24
0.221286 -0.321441 2.307953 1 13 25
0.222053 -0.320835 2.315952 3 15 29
0.222486 -0.319737 2.320467 4 16 30
0.221917 -0.317201 2.314538 3 15 27
0.221187 -0.314444 2.306924 1 14 24
0.220862 -0.312271 2.303534 1 12 21
0.220478 -0.310020 2.299530 1 11 20
0.219601 -0.307084 2.290375 0 11 17
0.218122 -0.301638 2.274957 0 9 15
0.218581 -0.300579 2.279744 0 7 15
0.218801 -0.299186 2.282032 0 7 15
0.219364 -0.298256 2.287903 0 7 15
0.219243 -0.296393 2.286643 0 7 15
0.219656 -0.295251 2.290957 0 8 15
0.219758 -0.293684 2.292011 0 8 15
0.219847 -0.292101 2.292943 0 8 15
0.218891 -0.289135 2.282979 0 8 15
0.219108 -0.287724 2.285233 1 10 17
0.218811 -0.285639 2.282142 1 10 17
0.219032 -0.284231 2.284444 1 10 17
0.219456 -0.283081 2.288867 1 10 17
0.219444 -0.281365 2.288741 1 10 17
0.219434 -0.279652 2.288632 1 10 17
0.219157 -0.277602 2.285751 1 10 17
0.219369 -0.276171 2.287962 1 10 16
0.218958 -0.273958 2.283676 1 12 16
0.218567 -0.271775 2.279599 1 12 16
0.218664 -0.270201 2.280605 0 11 15
0.219174 -0.269133 2.285923 0 10 15
0.219383 -0.267690 2.288102 0 9 14
0.219465 -0.266091 2.288962 0 8 14
0.218353 -0.263051 2.277366 0 7 13
0.217791 -0.260687 2.271502 0 6 12
0.218670 -0.260045 2.280668 0 6 12
0.218457 -0.258099 2.278444 0 6 12
0.217309 -0.255059 2.266473 0 6 12
0.215229 -0.250951 2.244783 0 6 12
0.215432 -0.249518 2.246894 0 6 12
0.214619 -0.246915 2.238422 0 6 12
0.215728 -0.246518 2.249982 0 6 12
0.217567 -0.246935 2.269164 0 6 10
0.218903 -0.246755 2.283096 3 7 10
0.220387 -0.246721 2.298581 2 5 8
0.218790 -0.243238 2.281920 1 6 9
0.215672 -0.238100 2.249397 2 7 10
0.214516 -0.235163 2.237346 0 5 8
0.214978 -0.234003 2.242158 0 5 8
0.214771 -0.232115 2.240006 12 11 16
0.215435 -0.231164 2.246933 26 24 29
0.215560 -0.229628 2.248232 62 57 63
0.215754 -0.228162 2.250252 90 84 90
0.216048 -0.226800 2.253324 109 105 110
0.215972 -0.225047 2.252531 114 112 115
0.215891 -0.223290 2.251682 116 115 115
0.215923 -0.221651 2.252021 123 121 119
0.215745 -0.219796 2.250160 125 120 118
0.215804 -0.218185 2.250776 117 112 109
0.215801 -0.216511 2.250751 102 99 96
0.216023 -0.215060 2.253064 94 92 90
0.215731 -0.213098 2.250021 88 86 83
0.215724 -0.211419 2.249944 79 76 72
0.215785 -0.209808 2.250583 65 61 56
0.215775 -0.208126 2.250472 46 42 38
0.215932 -0.206605 2.252117 27 24 20
0.215857 -0.204860 2.251327 13 12 10
0.216030 -0.203352 2.253138 5 5 5
0.215968 -0.201620 2.252490 1 2 4
0.216260 -0.200217 2.255529 0 2 4
0.216314 -0.198592 2.256100 0 2 4
0.216963 -0.197506 2.262866 0 3 6
0.217749 -0.196535 2.271060 2 5 7
0.218070 -0.195136 2.274413 1 4 6
0.218619 -0.193933 2.280141 0 3 3
0.218997 -0.192572 2.284076 0 1 3
0.218106 -0.190098 2.274782 0 1 4
0.218072 -0.188380 2.274430 0 1 4
0.218093 -0.186708 2.274647 0 1 4
0.216798 -0.183920 2.261143 0 1 4
0.217801 -0.183083 2.271601 0 1 4
0.215176 -0.177543 2.244225 0 1 4
0.217941 -0.178136 2.273063 0 1 4
0.218333 -0.176765 2.277154 0 2 4
0.218617 -0.175301 2.280113 0 2 5
0.218216 -0.173289 2.275930 0 4 7
0.218483 -0.171809 2.278718 0 4 8
0.218441 -0.170084 2.278277 0 3 6
0.219049 -0.168861 2.284624 0 2 5
0.218961 -0.167096 2.283701 0 5 9
0.218734 -0.165229 2.281340 9 17 20
0.218803 -0.163585 2.282055 21 32 34
0.219287 -0.162249 2.287109 24 37 39
0.218255 -0.159794 2.276340 25 40 43
0.218962 -0.158616 2.283714 23 40 44
0.218499 -0.156588 2.278889 19 38 44
0.217655 -0.154296 2.270079 15 35 43
0.218131 -0.152944 2.275047 14 34 43
0.218000 -0.151163 2.273676 14 32 45
0.217895 -0.149403 2.272585 13 29 43
0.218333 -0.148012 2.277154 12 27 40
0.217635 -0.145852 2.269871 11 25 36
0.216376 -0.143333 2.256746 9 24 33
0.214061 -0.140140 2.232596 8 25 30
0.215808 -0.139612 2.250814 8 26 27
0.214303 -0.136979 2.235126 8 28 27
0.214148 -0.135221 2.233509 9 26 27
0.214137 -0.133555 2.233391 10 23 27
0.215245 -0.132578 2.244943 10 21 27
0.215083 -0.130812 2.243253 5 14 21
0.214086 -0.128548 2.232863 0 7 14
0.216631 -0.128397 2.259400 0 4 10
0.213868 -0.125103 2.230587 0 4 10
0.213133 -0.123022 2.222918 0 3 10
0.213777 -0.120081 2.229633 1 2 7
0.213740 -0.118405 2.229252 1 2 7
0.213436 -0.116583 2.226076 1 2 7
0.213483 -0.114955 2.226566 1 2 7
0.214535 -0.113859 2.237545 1 2 7
0.213404 -0.109953 2.225746 1 2 7
0.213099 -0.108144 2.222561 0 1 6
0.213169 -0.106529 2.223293 0 1 6
0.210706 -0.098769 2.197608 0 1 6
0.211134 -0.095698 2.202067 0 1 6
0.210515 -0.088894 2.195614 1 2 7
0.210296 -0.087173 2.193333 1 2 7
0.209782 -0.085334 2.187970 1 2 7
0.210040 -0.083812 2.190657 1 2 7
0.210207 -0.082250 2.192397 1 2 7
0.210556 -0.080756 2.196042 0 1 6
0.211888 -0.079625 2.209936 0 1 6
0.211107 -0.077696 2.201788 0 1 6
0.210488 -0.075838 2.195333 0 1 6
0.210726 -0.074291 2.197817 0 1 6
0.208863 -0.072016 2.178384 0 1 6
0.209796 -0.070712 2.188110 0 1 6
0.206708 -0.068070 2.155908 0 1 6
0.210205 -0.067594 2.192385 0 1 6
0.209698 -0.065806 2.187098 0 3 8
0.210531 -0.064436 2.195781 0 3 8
0.208275 -0.062132 2.172247 0 3 8
0.211197 -0.058096 2.202731 0 3 8
0.210978 -0.056401 2.200441 0 3 8
0.210777 -0.054715 2.198352 0 2 8
0.210697 -0.053061 2.197510 0 2 9
0.207175 -0.047360 2.160775 0 2 9
0.206746 -0.045660 2.156305 0 2 9
0.211415 -0.038502 2.205006 0 2 9
0.206554 -0.036017 2.154300 0 2 9
0.204397 -0.034057 2.131809 0 2 9
0.204842 -0.026197 2.136448 0 2 9
0.204548 -0.024575 2.133379 0 2 9
0.204673 -0.023004 2.134684 0 2 9
0.204517 -0.021402 2.133061 0 2 9
0.204285 -0.019795 2.130635 0 2 9
0.205035 -0.015103 2.138460 0 2 9
0.204829 -0.013501 2.136311 0 5 11
0.206760 -0.008823 2.156454 0 5 11
0.207984 -0.007264 2.169218 0 5 11
0.208863 -0.005677 2.178384 0 5 11
0.206618 -0.004015 2.154968 0 5 11
0.203837 -0.000803 2.125963 0 6 11
0.204021 0.000777 2.127882 0 6 11
0.203032 0.002346 2.117573 0 6 12
0.203647 0.003931 2.123984 0 6 12
0.203861 0.005514 2.126215 1 5 12
0.204472 0.007115 2.132591 1 5 12
0.205245 0.008732 2.140646 0 5 14
0.206369 0.010378 2.152371 0 6 16
0.206187 0.011967 2.150474 0 10 18
0.206107 0.013559 2.149636 0 11 16
0.205993 0.015147 2.148455 0 12 12
0.205148 0.016674 2.139636 1 11 12
0.204598 0.018214 2.133898 1 6 13
0.204744 0.019813 2.135427 0 0 17
0.206544 0.021588 2.154196 0 0 30
0.204235 0.026093 2.130117 187 215 251
0.203647 0.027595 2.123984 219 252 253
0.194010 0.032302 2.023476 188 223 251
0.192992 0.033627 2.012857 193 228 254
0.192806 0.035088 2.010919 191 226 254
0.194010 0.036810 2.023476 191 226 254
0.192978 0.038109 2.012704 192 226 253
0.192699 0.039547 2.009793 191 225 250
0.191800 0.040849 2.000418 189 224 246
0.192263 0.042437 2.005247 190 226 247
0.191761 0.043811 2.000015 200 236 253
0.191907 0.045331 2.001535 208 241 253
0.192203 0.046890 2.004630 182 208 230
0.192159 0.048368 2.004168 89 110 134
0.192281 0.049889 2.005438 17 32 55
0.192266 0.051374 2.005281 0 7 27
0.192761 0.053000 2.010448 1 13 30
0.194472 0.054977 2.028290 0 9 26
0.196323 0.058542 2.047596 0 6 18
0.195747 0.059886 2.041585 0 7 18
0.195566 0.061346 2.039696 1 8 17
0.193796 0.062292 2.021238 1 8 16
0.192076 0.063227 2.003297 1 8 16
0.192339 0.064804 2.006048 0 8 16
0.190446 0.065641 1.986297 0 8 16
0.191624 0.067532 1.998585 0 9 16
0.189824 0.068368 1.979808 0 8 16
0.190960 0.070257 1.991660 0 6 14
0.191489 0.071935 1.997180 0 6 14
0.192031 0.073626 2.002833 0 5 13
0.193502 0.075689 2.018178 0 4 12
0.193448 0.077167 2.017614 0 3 12
0.191263 0.079258 1.994820 0 3 12
0.193124 0.081526 2.014235 0 3 11
0.194520 0.083622 2.028795 0 3 10
0.194827 0.085263 2.031988 0 3 10
0.194398 0.086581 2.027521 0 3 10
0.193796 0.087814 2.021238 0 3 10
0.194461 0.089622 2.028178 0 4 10
0.195495 0.091613 2.038960 0 5 11
0.194802 0.092798 2.031733 1 6 12
0.193340 0.093599 2.016487 1 6 12
0.192296 0.094583 2.005599 1 5 13
0.191203 0.095527 1.994200 1 5 13
0.191800 0.097311 2.000418 0 5 10
0.194932 0.101920 2.033091 0 3 6
0.194645 0.103278 2.030100 0 3 5
0.194034 0.104457 2.023724 0 1 3
0.192701 0.105232 2.009819 0 1 3
0.192882 0.106825 2.011709 0 1 4
0.193438 0.110130 2.017505 0 1 4
0.193648 0.111750 2.019699 0 1 5
0.195322 0.115743 2.037159 0 1 5
0.195581 0.117411 2.039854 1 2 4
0.195535 0.118898 2.039382 0 1 3
0.196294 0.120880 2.047293 0 1 4
0.197162 0.122943 2.056351 0 1 5
0.195837 0.123633 2.042522 0 1 5
0.194736 0.124447 2.031041 0 1 5
0.194558 0.125840 2.029186 0 1 5
0.194665 0.127418 2.030307 0 1 5
0.193870 0.128399 2.022016 0 1 5
0.193611 0.129727 2.019308 0 1 5
0.192207 0.130276 2.004669 0 1 5
0.191728 0.131436 1.999670 0 1 5
0.191919 0.133054 2.001666 0 1 5
0.192480 0.134934 2.007513 0 1 5
0.193458 0.137118 2.017711 0 1 5
0.192863 0.138190 2.011505 0 1 5
0.192507 0.139427 2.007798 0 1 5
0.193465 0.141619 2.017783 0 1 5
0.193124 0.142866 2.014235 0 0 5
0.192673 0.144025 2.009525 0 0 6
0.191810 0.144866 2.000531 0 0 5
0.192307 0.146731 2.005710 0 1 3
0.193936 0.149477 2.022703 0 1 1
0.194100 0.151106 2.024405 0 1 1
0.194427 0.152867 2.027818 0 2 0
0.195011 0.154837 2.033914 0 2 0
0.195717 0.156913 2.041270 0 2 0
0.195996 0.158656 2.044187 0 2 1
0.194880 0.159262 2.032544 0 2 1
0.194755 0.160669 2.031242 0 2 1
0.194725 0.162153 2.030931 0 2 1
0.196138 0.164849 2.045670 0 2 1
0.196637 0.166791 2.050867 0 2 0
0.196892 0.168533 2.053535 0 2 0
0.194992 0.168418 2.033718 0 1 1
0.195084 0.170008 2.034678 0 1 3
0.197630 0.175289 2.061230 0 1 5
0.189729 0.190328 1.978822 0 1 3
0.190153 0.192226 1.983240 0 1 5
0.188789 0.192310 1.969018 0 1 5
0.193969 0.200592 2.023043 0 1 5
0.194924 0.203090 2.033005 0 1 5
0.195146 0.204833 2.035324 0 1 5
0.194772 0.205949 2.031423 0 1 5
0.196079 0.208851 2.045056 0 1 6
0.191817 0.213226 2.000596 0 0 6
0.192159 0.215095 2.004168 0 1 5
0.193680 0.218299 2.020034 0 1 3
0.193634 0.219746 2.019550 0 1 3
0.193773 0.221406 2.021004 0 1 2
0.351997 -0.826680 3.643010 207 199 197
0.341012 -0.782531 3.529320 207 199 197
0.341248 -0.780451 3.531769 207 199 197
1.239958 -2.797712 12.833014 208 200 198
3.106812 -6.938235 32.154110 208 200 198
0.296502 -0.657599 3.068660 208 200 198
0.171072 -0.376782 1.770514 208 200 198
0.171206 -0.375762 1.771904 208 200 198
0.171259 -0.374562 1.772451 208 200 198
0.840900 -1.832675 8.702934 208 200 198
0.595453 -1.279433 6.162671 208 200 198
0.171496 -0.367170 1.774903 208 200 198
0.182003 -0.357486 1.883651 207 199 197
0.301452 -0.557344 3.119888 207 199 196
0.161365 -0.297102 1.670057 207 199 196
0.161286 -0.295716 1.669233 207 199 196
0.161345 -0.294584 1.669845 207 199 196
0.153091 -0.274807 1.584426 206 198 195
0.303599 -0.526306 3.142114 202 196 196
0.230863 -0.384241 2.389326 135 138 147
0.230215 -0.381393 2.382621 123 128 138
0.231796 -0.362631 2.398989 42 65 82
0.226330 -0.347119 2.342410 25 44 60
0.225306 -0.343816 2.331815 25 43 58
0.224725 -0.341203 2.325803 25 41 55
0.223328 -0.337365 2.311345 17 32 44
0.222939 -0.335064 2.307321 8 22 32
0.223730 -0.334532 2.315506 8 21 30
0.224675 -0.334219 2.325289 7 20 29
0.223596 -0.330894 2.314115 4 17 26
0.223582 -0.329155 2.313978 2 15 24
0.223181 -0.326848 2.309819 1 14 23
0.221031 -0.322001 2.287575 1 14 23
0.223214 -0.323466 2.310169 1 13 24
0.223776 -0.322559 2.315980 1 13 25
0.223969 -0.321115 2.317976 3 15 28
0.223267 -0.318393 2.310715 3 15 29
0.222932 -0.316201 2.307245 1 13 26
0.222954 -0.314519 2.307475 0 12 24
0.222818 -0.312615 2.306070 0 11 21
0.222182 -0.310014 2.299489 0 10 19
0.221845 -0.307838 2.295996 0 10 17
0.222683 -0.307289 2.304668 0 9 15
0.221632 -0.304135 2.293793 0 7 15
0.221428 -0.302153 2.291684 0 7 15
0.221761 -0.300902 2.295122 0 7 15
0.222112 -0.299671 2.298757 0 7 15
0.222509 -0.298496 2.302864 0 7 15
0.222498 -0.296771 2.302755 0 7 15
0.222137 -0.294583 2.299023 0 7 15
0.220990 -0.291362 2.287149 0 7 15
0.220449 -0.288954 2.281547 0 8 15
0.220409 -0.287208 2.281138 1 9 17
0.220462 -0.285582 2.281686 1 9 17
0.220977 -0.284551 2.287016 1 9 17
0.221346 -0.283324 2.290834 1 9 17
0.221476 -0.281788 2.292181 1 10 17
0.220839 -0.279279 2.285584 1 10 17
0.221089 -0.277896 2.288174 1 10 17
0.221044 -0.276141 2.287708 1 10 16
0.221063 -0.274465 2.287903 0 12 15
0.220887 -0.272548 2.286077 0 11 15
0.220302 -0.270132 2.280023 0 11 15
0.220658 -0.268873 2.283708 0 10 14
0.220741 -0.267278 2.284575 0 9 14
0.221365 -0.266331 2.291029 0 8 13
0.219063 -0.261877 2.267200 0 7 13
0.220253 -0.261607 2.279524 0 7 12
0.221702 -0.261623 2.294514 0 6 12
0.220428 -0.258426 2.281333 0 6 12
0.221302 -0.257749 2.290375 0 6 12
0.217081 -0.249495 2.246686 0 6 12
0.217507 -0.248313 2.251097 0 6 12
0.217943 -0.247136 2.255616 0 7 12
0.219422 -0.247125 2.270917 0 6 12
0.222231 -0.248581 2.299988 2 6 10
0.222475 -0.247144 2.302516 0 2 6
0.222042 -0.244955 2.298033 0 2 5
0.217218 -0.236294 2.248105 1 5 8
0.216770 -0.234141 2.243477 0 2 6
0.216881 -0.232594 2.244625 3 2 8
0.217219 -0.231286 2.248121 9 6 13
0.217399 -0.229806 2.249982 16 13 19
0.217425 -0.228163 2.250255 22 20 26
0.217452 -0.226519 2.250532 27 27 32
0.217617 -0.225018 2.252239 28 28 32
0.217584 -0.223312 2.251901 28 29 30
0.217423 -0.221475 2.250235 31 32 31
0.217562 -0.219944 2.251666 35 33 31
0.217705 -0.218415 2.253150 34 32 29
0.217502 -0.216539 2.251043 27 26 24
0.217473 -0.214838 2.250743 23 23 21
0.217340 -0.213036 2.249368 19 19 16
0.217285 -0.211312 2.248801 16 14 12
0.217412 -0.209765 2.250121 12 10 8
0.217340 -0.208024 2.249376 8 6 4
0.217468 -0.206474 2.250692 4 3 1
0.217488 -0.204822 2.250905 1 2 1
0.217342 -0.203014 2.249397 3 5 6
0.217470 -0.201461 2.250715 3 6 10
0.217737 -0.200035 2.253481 1 5 9
0.218442 -0.199004 2.260780 0 4 8
0.218549 -0.197421 2.261884 0 3 8
0.219481 -0.196576 2.271534 0 3 8
0.221212 -0.196425 2.289441 0 3 6
0.220973 -0.194514 2.286967 0 3 6
0.220393 -0.192309 2.280965 0 2 5
0.221476 -0.191552 2.292181 0 0 6
0.221941 -0.190248 2.296995 0 0 6
0.221672 -0.188314 2.294211 0 0 6
0.219795 -0.181650 2.274782 0 0 6
0.221496 -0.179651 2.292390 0 1 6
0.221878 -0.178255 2.296337 0 1 7
0.221357 -0.176134 2.290944 0 1 7
0.221254 -0.174352 2.289882 0 2 8
0.222148 -0.173348 2.299131 0 3 8
0.221005 -0.170757 2.287301 0 1 7
0.222185 -0.169961 2.299513 0 2 8
0.221267 -0.167558 2.290017 3 8 14
0.222310 -0.166639 2.300806 13 21 28
0.222545 -0.165104 2.303240 25 36 42
0.221876 -0.162902 2.296315 25 39 44
0.222382 -0.161564 2.301550 25 41 46
0.221489 -0.159213 2.292315 21 39 45
0.221302 -0.157377 2.290375 17 36 42
0.222027 -0.156186 2.297875 13 33 41
0.221878 -0.154375 2.296337 12 32 42
0.219733 -0.151194 2.274137 12 31 43
0.220005 -0.149689 2.276949 10 27 41
0.220174 -0.148112 2.278705 10 25 40
0.219422 -0.145919 2.270917 10 24 36
0.217879 -0.143219 2.254953 9 24 32
0.217492 -0.141292 2.250944 8 25 30
0.216843 -0.139203 2.244225 8 27 28
0.216219 -0.137141 2.237769 9 29 28
0.217019 -0.135980 2.246053 11 28 28
0.215870 -0.133601 2.234158 10 23 27
0.216216 -0.132153 2.237741 10 21 27
0.217365 -0.131184 2.249630 5 13 20
0.215876 -0.128626 2.234221 0 6 13
0.217381 -0.127851 2.249792 0 4 10
0.215865 -0.125300 2.234107 0 4 10
0.214895 -0.123085 2.224064 0 3 10
0.214431 -0.121171 2.219260 0 2 9
0.214946 -0.119810 2.224595 1 2 7
0.216139 -0.118813 2.236940 1 2 7
0.215642 -0.116883 2.231801 1 2 7
0.216117 -0.115478 2.236713 1 2 7
0.216964 -0.114263 2.245481 1 2 7
0.215928 -0.112057 2.234754 1 2 7
0.214816 -0.109829 2.223248 1 2 7
0.213706 -0.107619 2.211762 0 1 6
0.212249 -0.100359 2.196683 0 1 6
0.211554 -0.098404 2.189486 0 1 6
0.213326 -0.097588 2.207826 0 1 6
0.212543 -0.093962 2.199725 0 1 6
0.211802 -0.088750 2.192058 1 2 7
0.211124 -0.086843 2.185043 1 2 7
0.210725 -0.085059 2.180905 1 2 7
0.210414 -0.083316 2.177688 1 2 7
0.213439 -0.081232 2.209000 0 1 6
0.212960 -0.079413 2.204043 0 1 6
0.212866 -0.077741 2.203070 0 1 6
0.211070 -0.075463 2.184478 0 1 6
0.211206 -0.073888 2.185884 0 1 6
0.210431 -0.071999 2.177870 0 1 6
0.209738 -0.070149 2.170693 0 1 6
0.208422 -0.068107 2.157076 0 1 6
0.210644 -0.067214 2.180076 0 1 6
0.210253 -0.065473 2.176019 0 3 8
0.211631 -0.064275 2.190284 0 3 8
0.210654 -0.059120 2.180178 0 3 8
0.212822 -0.058093 2.202609 0 3 8
0.212204 -0.056293 2.196211 0 3 8
0.210928 -0.054333 2.183007 0 2 8
0.210592 -0.052627 2.179530 0 2 9
0.208443 -0.050488 2.157287 0 2 9
0.207447 -0.047057 2.146980 0 2 9
0.225441 -0.045940 2.333215 0 2 9
0.211495 -0.038221 2.188877 0 2 9
0.205973 -0.035639 2.131733 0 2 9
0.203897 -0.033713 2.110239 0 2 9
0.205360 -0.032376 2.125386 0 2 9
0.204232 -0.024348 2.113713 0 2 9
0.204292 -0.022785 2.114326 0 2 9
0.204188 -0.021203 2.113254 0 2 9
0.205671 -0.015033 2.128606 0 2 9
0.205349 -0.013431 2.125270 0 5 11
0.206860 -0.008759 2.140905 0 5 11
0.208650 -0.007231 2.159432 0 5 11
0.209503 -0.005650 2.168257 0 5 11
