ply
format ascii 1.0
element vertex 1306
property float x
property float y
property float z
property uchar red
property uchar green
property uchar blue
end_header
0.373351 0.041702 1.970515 0 12 26
0.365789 0.042291 1.930602 0 12 24
0.368075 0.043998 1.942669 1 11 23
0.366062 0.045193 1.932047 1 11 21
0.368593 0.046950 1.945401 0 10 20
0.370468 0.048641 1.955300 0 9 19
0.372088 0.050313 1.963851 0 9 18
0.372232 0.051791 1.964607 0 8 17
0.372690 0.053316 1.967024 0 8 17
0.365034 0.053652 1.926620 0 6 16
0.364923 0.055066 1.926031 0 5 13
0.365156 0.056533 1.927265 0 5 13
0.363182 0.057651 1.916842 0 4 12
0.362713 0.058998 1.914368 0 3 12
0.364722 0.065045 1.924972 0 2 9
0.364620 0.066456 1.924435 0 2 6
0.369054 0.070157 1.947837 0 1 3
0.367556 0.074195 1.939928 0 1 3
0.368525 0.075836 1.945046 1 2 4
0.363934 0.076318 1.920813 1 2 4
0.364523 0.077870 1.923924 0 1 3
0.365164 0.082302 1.927304 0 1 3
0.364466 0.083573 1.923621 0 0 4
0.364986 0.085123 1.926367 1 0 5
0.365213 0.086608 1.927563 1 0 5
0.364484 0.087864 1.923717 1 0 5
0.364719 0.089351 1.924956 0 0 5
0.364886 0.090822 1.925837 0 1 6
0.365931 0.092517 1.931355 0 1 6
0.369118 0.102005 1.948175 0 0 5
0.370124 0.103734 1.953486 0 0 4
0.354561 0.111882 1.871344 0 2 0
0.354379 0.113213 1.870380 0 2 0
0.351607 0.115085 1.855754 0 2 1
0.372241 0.129135 1.964658 0 1 1
0.381498 0.139824 2.013513 0 1 1
0.382386 0.141649 2.018203 0 1 1
0.351739 0.131675 1.856450 0 1 2
0.368899 0.149668 1.947018 0 0 4
0.369109 0.151200 1.948127 0 1 5
0.368996 0.152601 1.947530 0 1 5
0.368589 0.153877 1.945382 0 1 5
0.367407 0.154824 1.939146 0 1 5
0.365712 0.156978 1.930200 0 1 6
0.361875 0.156749 1.909945 0 1 6
0.345080 0.158944 1.821303 0 1 4
0.345391 0.160441 1.822943 0 1 3
0.344769 0.161503 1.819660 0 1 2
0.345216 0.163067 1.822022 0 2 1
0.342676 0.176644 1.808613 0 0 4
0.347947 0.183453 1.836437 0 0 4
0.355527 0.191631 1.876444 0 0 4
0.350972 0.197431 1.852399 0 0 4
0.353425 0.200196 1.865346 0 0 3
0.354597 0.202250 1.871531 0 1 3
0.355446 0.204128 1.876013 1 2 4
0.356200 0.205958 1.879993 1 2 4
0.363469 0.213011 1.918360 1 2 4
0.361800 0.213451 1.909550 1 2 4
0.361950 0.214958 1.910341 1 2 4
0.362022 0.216420 1.910721 0 1 3
0.376434 0.229463 1.986789 1 2 6
0.617234 -0.738770 3.244987 196 189 179
0.659459 -0.786735 3.466980 196 189 181
0.350108 -0.416311 1.840623 196 189 181
0.656743 -0.778364 3.452697 196 189 181
0.648184 -0.763159 3.407702 196 189 181
0.647084 -0.759337 3.401920 197 190 182
0.554907 -0.646836 2.917318 197 190 182
0.649798 -0.744760 3.416189 196 189 182
0.572245 -0.644700 3.008467 196 188 185
0.571504 -0.641633 3.004571 196 188 185
0.570051 -0.637776 2.996931 196 188 185
0.569141 -0.634535 2.992148 196 188 185
0.569277 -0.632464 2.992864 196 188 185
0.670602 -0.726705 3.525558 197 189 186
0.303347 -0.310957 1.594789 199 192 182
0.304470 -0.310919 1.600691 199 192 182
0.577944 -0.540535 3.038430 199 192 184
0.575018 -0.535553 3.023048 199 192 184
2.379570 -2.169792 12.510127 199 192 184
2.399583 -2.178670 12.615340 199 192 184
2.455275 -2.219647 12.908130 199 192 184
2.488814 -2.240249 13.084458 199 192 184
0.517346 -0.461637 2.719846 199 192 182
0.517636 -0.459874 2.721372 199 192 182
0.517250 -0.457511 2.719340 199 192 183
0.517995 -0.456148 2.723259 199 192 184
0.515846 -0.452241 2.711962 199 191 185
0.578098 -0.495530 3.039239 199 191 188
0.517774 -0.437756 2.722096 198 190 187
0.516686 -0.432801 2.716377 197 189 186
0.515597 -0.429875 2.710653 197 189 186
0.516013 -0.428207 2.712836 197 189 186
0.516713 -0.426771 2.716521 197 189 186
0.517213 -0.425163 2.719147 197 189 186
0.578550 -0.473325 3.041613 197 189 186
0.577405 -0.470133 3.035594 197 189 186
0.576802 -0.467390 3.032426 198 190 187
0.576521 -0.464911 3.030947 199 191 188
0.576806 -0.462888 3.032444 199 191 188
0.577050 -0.460831 3.033729 199 191 188
0.577507 -0.458940 3.036129 199 191 188
0.577572 -0.456737 3.036472 199 191 188
0.519566 -0.394635 2.731517 196 189 179
0.519956 -0.392902 2.733570 196 189 179
0.520332 -0.391154 2.735546 196 189 180
0.516161 -0.386002 2.713615 196 189 181
0.517040 -0.384641 2.718237 196 189 183
0.358422 -0.261042 1.884332 196 188 186
0.358339 -0.259582 1.883898 196 188 185
0.357561 -0.257622 1.879807 196 188 185
0.356855 -0.255720 1.876094 196 189 184
0.666416 -0.454129 3.503554 196 189 181
0.465054 -0.269694 2.444933 196 188 185
0.464688 -0.267667 2.443009 196 188 185
0.464823 -0.265930 2.443717 196 188 185
0.464170 -0.260119 2.440286 196 188 185
0.464421 -0.258446 2.441605 196 188 185
0.372340 -0.195571 1.957503 197 189 186
0.372310 -0.194102 1.957346 197 189 186
0.372830 -0.192917 1.960080 198 190 187
0.460098 -0.227293 2.418875 199 191 188
0.453019 -0.218489 2.381657 199 191 188
0.450895 -0.215704 2.370492 199 191 188
0.449198 -0.213138 2.361572 199 191 188
0.448771 -0.211183 2.359327 199 191 188
0.447441 -0.208810 2.352335 199 191 188
0.427744 -0.184585 2.248780 196 188 185
0.423088 -0.167707 2.224305 196 188 185
0.422636 -0.134520 2.221928 195 189 175
0.427638 -0.132772 2.248226 193 186 178
0.428260 -0.131293 2.251493 191 184 177
0.427661 -0.129439 2.248343 192 183 177
0.427817 -0.127816 2.249165 193 184 176
0.425049 -0.125329 2.234613 194 184 176
0.406715 -0.115158 2.138223 203 192 191
0.406242 -0.113438 2.135740 208 197 202
0.405489 -0.111644 2.131778 211 201 212
0.405239 -0.109993 2.130465 196 187 204
0.405541 -0.108491 2.132051 166 159 179
0.405712 -0.106953 2.132951 130 127 144
0.405881 -0.105413 2.133842 92 92 108
0.406622 -0.104017 2.137734 52 54 67
0.406651 -0.102436 2.137888 23 25 36
0.406720 -0.100866 2.138252 8 12 22
0.406745 -0.099284 2.138385 1 8 17
0.408407 -0.098094 2.147121 0 6 16
0.407514 -0.096289 2.142426 0 5 17
0.408852 -0.095008 2.149459 4 12 25
0.409644 -0.093593 2.153623 9 19 35
0.409790 -0.092026 2.154389 10 21 37
0.409884 -0.090446 2.154886 8 21 36
0.410269 -0.088929 2.156911 6 21 32
0.410547 -0.087386 2.158370 6 22 30
0.410348 -0.085741 2.157325 6 23 29
0.409590 -0.083984 2.153342 5 22 26
0.407956 -0.082056 2.144751 3 20 25
0.407034 -0.080281 2.139904 2 19 26
0.405789 -0.078451 2.133360 2 19 27
0.405862 -0.076880 2.133740 2 19 27
0.405233 -0.075178 2.130432 2 19 27
0.405193 -0.073588 2.130224 2 19 27
0.404346 -0.071856 2.125771 3 19 27
0.403529 -0.070135 2.121475 4 18 27
0.402811 -0.068437 2.117699 4 18 27
0.402382 -0.066793 2.115446 5 19 28
0.405133 -0.065667 2.129908 4 17 26
0.406122 -0.064242 2.135108 2 15 24
0.406880 -0.062773 2.139092 1 14 23
0.408011 -0.061354 2.145041 0 13 22
0.405271 -0.059360 2.130635 0 13 22
0.405660 -0.057832 2.132681 1 14 23
0.404766 -0.056124 2.127977 2 15 24
0.404043 -0.054446 2.124178 3 16 25
0.402874 -0.052716 2.118030 2 15 24
0.402152 -0.051051 2.114236 2 15 24
0.403116 -0.049599 2.119304 1 14 23
0.401844 -0.041597 2.112619 0 12 24
0.408436 -0.032709 2.147274 0 12 26
0.408679 -0.026345 2.148553 0 13 19
0.408827 -0.024758 2.149327 0 12 18
0.407873 -0.023108 2.144313 0 10 17
0.402762 -0.021245 2.117444 0 10 17
0.402872 -0.019678 2.118022 1 8 16
0.402126 -0.018071 2.114098 1 8 16
0.401978 -0.016495 2.113322 0 7 15
0.402343 -0.014939 2.115242 0 7 15
0.404006 -0.013423 2.123984 0 7 15
0.405586 -0.011892 2.132292 0 8 15
0.407594 -0.010359 2.142845 0 8 16
0.406770 -0.008750 2.138517 0 9 16
0.405864 -0.007145 2.133752 0 9 16
0.405301 -0.005553 2.130792 0 9 15
0.404635 -0.003963 2.127288 0 6 9
0.399613 -0.002354 2.100889 0 4 5
0.398465 -0.000791 2.094850 0 4 6
0.399405 0.000767 2.099795 0 3 6
0.402222 0.002343 2.114603 0 3 6
0.403525 0.005502 2.121454 0 2 5
0.407527 0.007148 2.142494 0 1 5
0.406343 0.008714 2.136270 0 1 4
0.372333 0.022524 1.957470 0 1 1
0.366254 0.026447 1.925512 1 0 5
0.365522 0.027821 1.921661 0 1 7
0.368962 0.033846 1.939745 0 3 23
0.370715 0.035455 1.948964 0 5 24
0.372890 0.037119 1.960399 0 7 26
0.370715 0.039798 1.948964 0 10 27
0.373802 0.041589 1.965193 0 11 27
0.372924 0.042947 1.960575 0 12 25
0.369817 0.044034 1.944239 2 11 23
0.367567 0.045201 1.932415 2 11 23
0.367600 0.046641 1.932585 0 10 22
0.370067 0.048399 1.945556 0 10 22
0.370693 0.049928 1.948845 0 9 19
0.373099 0.051709 1.961498 0 9 19
0.375091 0.053450 1.971969 0 9 19
0.369794 0.054139 1.944118 0 7 18
0.366008 0.055014 1.924217 0 8 17
0.366238 0.056479 1.925425 0 7 16
0.365570 0.057803 1.921911 0 6 15
0.364417 0.060467 1.915853 0 4 14
0.370302 0.068674 1.946789 1 2 5
0.372567 0.070549 1.958697 1 2 5
0.370295 0.071565 1.946756 0 1 4
0.371145 0.073178 1.951222 0 1 4
0.370116 0.074420 1.945811 1 2 4
0.369059 0.075649 1.940259 1 2 4
0.369421 0.077166 1.942157 1 2 4
0.366558 0.079431 1.927107 0 1 3
0.367172 0.083865 1.930334 0 0 4
0.366718 0.085193 1.927950 0 0 5
0.367662 0.086848 1.932914 0 0 5
0.366759 0.088067 1.928167 0 0 5
0.366965 0.089550 1.929247 0 0 5
0.367468 0.091107 1.931891 0 1 6
0.368229 0.092734 1.935895 0 1 6
0.368876 0.094338 1.939296 0 1 6
0.369549 0.095953 1.942834 0 1 6
0.367918 0.098403 1.934259 0 1 6
0.369041 0.100144 1.940162 0 1 6
0.369448 0.101697 1.942300 0 1 5
0.369990 0.103291 1.945153 0 0 4
0.369518 0.104602 1.942669 0 0 4
0.355288 0.110286 1.867857 0 2 1
0.355272 0.111668 1.867772 0 2 1
0.370977 0.126745 1.950338 1 1 1
0.370323 0.127968 1.946902 1 1 1
0.380740 0.137514 2.001666 1 1 1
0.380808 0.140513 2.002023 1 1 1
0.379320 0.141445 1.994200 0 1 1
0.363477 0.139796 1.910910 0 2 1
0.364100 0.142879 1.914184 0 1 3
0.369041 0.154906 1.940162 0 1 5
0.366558 0.155295 1.927107 0 1 5
0.365930 0.156457 1.923805 0 1 5
0.362748 0.156514 1.907078 0 1 5
0.361348 0.157320 1.899716 0 1 5
0.362550 0.159260 1.906037 1 2 6
0.363761 0.161212 1.912401 1 2 6
0.355515 0.183935 1.869052 0 0 4
0.356750 0.192932 1.875545 0 0 4
0.355390 0.193584 1.868392 0 0 4
0.353668 0.194028 1.859339 0 0 4
0.352986 0.195032 1.855754 0 0 4
0.353347 0.196611 1.857652 0 0 4
0.352735 0.197648 1.854433 0 0 4
0.354067 0.199777 1.861436 0 0 3
0.353957 0.201097 1.860863 0 1 3
0.365640 0.213446 1.922281 0 1 3
0.365079 0.214544 1.919330 0 1 3
0.365679 0.216325 1.922487 0 1 5
0.368032 0.220591 1.934857 0 1 5
0.369518 0.222925 1.942669 0 1 5
0.372236 0.226018 1.956960 0 1 5
0.662131 -0.786849 3.467484 196 189 181
0.351371 -0.416188 1.840078 196 189 181
0.659192 -0.778228 3.452093 196 189 181
0.651551 -0.766674 3.412081 196 189 181
0.652130 -0.764817 3.415109 196 189 181
0.650951 -0.760903 3.408937 197 190 182
0.557115 -0.646883 2.917530 197 190 182
0.654050 -0.756894 3.425169 197 190 181
0.651269 -0.751142 3.410601 197 190 180
0.652336 -0.744760 3.416189 196 189 183
0.574214 -0.644402 3.007077 196 188 185
0.572628 -0.640395 2.998772 196 188 185
0.571500 -0.636910 2.992864 196 188 185
0.570468 -0.633541 2.987458 196 188 185
0.570846 -0.631741 2.989441 196 188 185
0.949199 -0.950765 4.970820 199 191 187
0.576217 -0.536823 3.017564 198 191 183
0.574265 -0.532771 3.007342 198 191 183
0.572348 -0.528767 2.997307 198 191 183
0.355094 -0.323912 1.859579 198 191 183
2.368457 -2.142045 12.403268 198 191 183
2.398032 -2.159465 12.558150 198 191 183
2.432616 -2.181146 12.739259 198 191 183
0.515817 -0.458482 2.701261 198 191 181
0.515991 -0.456630 2.702171 198 191 181
0.516256 -0.454856 2.703559 198 191 182
0.515541 -0.452221 2.699814 198 191 183
0.514033 -0.448898 2.691915 198 190 185
0.580919 -0.502790 3.042191 198 190 187
0.580531 -0.497938 3.040158 197 189 187
0.579157 -0.494506 3.032961 197 189 186
0.354599 -0.297253 1.856982 196 188 185
0.515269 -0.427931 2.698389 196 188 185
0.515950 -0.426489 2.701955 196 188 185
0.516628 -0.425040 2.705507 196 188 185
0.516940 -0.423286 2.707138 196 188 185
0.576326 -0.469672 3.018138 196 188 185
0.575112 -0.466445 3.011777 196 188 185
0.574590 -0.463787 3.009045 197 189 186
0.573537 -0.460706 3.003530 197 189 186
0.574326 -0.459105 3.007661 197 189 186
0.574723 -0.457187 3.009740 197 189 186
0.576850 -0.456635 3.020879 197 189 186
0.577057 -0.454555 3.021963 197 189 186
0.517111 -0.389232 2.708037 196 189 179
0.359968 -0.259748 1.885101 196 188 185
0.467087 -0.269820 2.446069 196 188 185
0.467202 -0.268069 2.446670 196 188 185
0.467219 -0.266261 2.446761 196 188 185
0.467364 -0.264526 2.447520 196 188 185
0.466123 -0.260197 2.441019 196 188 185
0.466124 -0.258384 2.441025 196 188 185
0.466370 -0.256707 2.442313 196 188 185
0.466767 -0.255109 2.444391 197 189 186
0.455081 -0.222170 2.383193 199 191 188
0.454326 -0.220034 2.379238 199 191 188
0.457099 -0.219599 2.393762 199 191 188
0.450577 -0.211208 2.359607 199 191 188
0.448360 -0.208425 2.347999 199 191 188
0.429085 -0.184443 2.247054 196 188 185
0.439029 -0.181887 2.299131 196 188 185
0.439402 -0.180332 2.301085 196 188 185
0.426199 -0.143415 2.231941 196 188 185
0.426038 -0.141704 2.231098 196 188 185
0.425252 -0.134826 2.226985 196 190 176
0.428692 -0.132581 2.244998 196 189 180
0.428900 -0.130978 2.246090 196 189 181
0.428698 -0.129248 2.245032 196 188 180
0.408249 -0.115143 2.137940 200 187 185
0.407329 -0.113299 2.133124 201 190 192
0.406742 -0.111554 2.130052 203 192 200
0.406927 -0.110022 2.131021 203 194 208
0.406317 -0.108276 2.127822 203 196 212
0.406476 -0.106737 2.128655 196 192 206
0.406902 -0.105267 2.130888 174 173 185
0.408143 -0.104000 2.137386 138 137 148
0.407828 -0.102333 2.135738 95 96 106
0.407558 -0.100680 2.134320 61 63 72
0.407426 -0.099063 2.133634 37 40 50
0.408834 -0.097815 2.141003 18 21 32
0.409261 -0.096325 2.143242 4 7 19
0.411135 -0.095167 2.153056 0 4 18
0.411270 -0.093599 2.153764 3 9 24
0.410956 -0.091929 2.152116 6 13 28
0.411343 -0.090415 2.154146 6 14 28
0.411949 -0.088946 2.157316 4 14 26
0.411725 -0.087296 2.156144 6 18 27
0.412358 -0.085826 2.159458 8 22 28
0.411235 -0.083993 2.153579 6 20 26
0.409823 -0.082110 2.146185 2 17 23
0.408397 -0.080236 2.138717 0 17 24
0.406422 -0.078267 2.128376 0 18 25
0.404367 -0.076299 2.117611 1 17 25
0.404710 -0.074789 2.119407 0 17 25
0.403856 -0.073060 2.114937 1 18 26
0.403715 -0.071464 2.114196 1 17 26
0.403160 -0.069798 2.111289 2 16 25
0.402189 -0.068065 2.106206 2 16 25
0.402522 -0.066556 2.107952 2 16 25
0.404243 -0.065268 2.116962 2 16 25
0.405737 -0.063931 2.124788 3 16 25
0.405686 -0.062345 2.124519 3 16 25
0.406764 -0.060929 2.130163 3 16 25
0.406488 -0.059306 2.128722 3 16 25
0.405124 -0.057531 2.121575 3 16 25
0.403981 -0.055798 2.115588 3 16 25
0.404848 -0.054343 2.120133 3 16 25
0.405802 -0.052892 2.125125 3 16 25
0.403878 -0.051070 2.115050 3 16 25
0.403657 -0.049472 2.113893 3 16 24
0.404482 -0.048000 2.118213 3 16 24
0.406516 -0.043498 2.128867 2 14 26
0.406952 -0.041961 2.131151 2 14 28
0.409562 -0.037451 2.144817 2 14 30
0.409070 -0.035815 2.142243 2 14 28
0.409070 -0.034224 2.142243 2 14 28
0.408494 -0.032587 2.139225 2 14 28
0.407296 -0.030907 2.132951 2 14 26
0.407894 -0.027779 2.136081 0 14 20
0.408936 -0.026259 2.141540 0 13 19
0.408951 -0.024669 2.141616 1 12 18
0.409772 -0.023125 2.145919 0 11 17
0.407726 -0.021424 2.135204 0 10 17
0.406373 -0.019772 2.128115 1 8 16
0.406936 -0.018216 2.131065 1 8 16
0.404837 -0.013398 2.120073 0 8 16
0.406663 -0.011877 2.129637 0 9 16
0.408448 -0.010340 2.138986 0 9 16
0.407982 -0.008741 2.136542 0 10 16
0.407124 -0.007139 2.132051 0 10 16
0.405239 -0.005530 2.122177 0 10 15
0.405776 -0.003959 2.124989 0 7 11
0.405641 -0.002380 2.124285 0 6 8
0.398983 -0.000789 2.089418 1 5 8
0.399199 0.000764 2.090550 0 5 8
0.402537 0.002336 2.108031 0 4 7
0.400732 0.003884 2.098574 0 3 6
0.403112 0.005475 2.111039 0 2 6
0.407038 0.007112 2.131598 0 2 6
0.407847 0.008712 2.135836 0 2 5
0.406927 0.010275 2.131021 0 2 4
0.402628 0.014865 2.108506 0 1 2
0.370679 0.023779 1.941194 0 0 0
0.366814 0.026384 1.920952 1 0 3
0.365888 0.027741 1.916101 0 0 6
0.367829 0.032180 1.926266 0 2 16
0.368378 0.033661 1.929143 0 1 19
0.369543 0.035205 1.935246 0 3 22
0.375139 0.037198 1.964550 0 5 24
0.371725 0.038305 1.946670 0 7 26
0.369183 0.039479 1.933359 0 8 27
0.368258 0.045110 1.928512 2 11 23
0.367754 0.046479 1.925873 1 11 23
0.369520 0.048139 1.935125 0 10 22
0.371070 0.049785 1.943240 0 10 22
0.372114 0.051372 1.948706 0 10 20
0.372504 0.052875 1.950751 0 9 19
0.367166 0.057830 1.922795 1 8 18
0.367460 0.059306 1.924333 0 7 17
0.361210 0.063917 1.891607 0 4 12
0.371610 0.070094 1.946067 1 2 6
0.372196 0.071652 1.949135 1 2 6
0.372335 0.073127 1.949867 1 2 6
0.371639 0.074436 1.946222 1 2 6
0.371711 0.075896 1.946599 1 2 6
0.369684 0.076920 1.935979 1 2 6
0.369990 0.078423 1.937584 0 1 5
0.367989 0.080862 1.927107 0 1 5
0.370645 0.082887 1.941013 0 1 5
0.367989 0.083725 1.927107 0 1 5
0.369073 0.085407 1.932784 0 1 5
0.367653 0.087938 1.925345 0 1 6
0.368314 0.089529 1.928805 0 1 6
0.367891 0.090858 1.926593 0 1 6
0.368784 0.092513 1.931268 0 1 6
0.368082 0.096632 1.927595 0 1 6
0.368343 0.098133 1.928962 0 1 6
0.369767 0.099951 1.936414 0 1 6
0.369485 0.101312 1.934939 0 1 5
0.370277 0.102969 1.939090 0 1 5
0.387874 0.118424 2.031242 0 1 1
0.354590 0.111020 1.856939 0 1 2
0.354726 0.112443 1.857648 0 1 2
0.378691 0.140662 1.983153 0 1 0
0.379114 0.142293 1.985365 0 2 0
0.364238 0.139543 1.907462 0 2 1
0.364722 0.141148 1.909999 0 1 2
0.365297 0.142791 1.913009 0 1 3
0.366510 0.144691 1.919358 0 1 3
0.371505 0.153888 1.945516 0 1 5
0.368817 0.154209 1.931439 0 1 5
0.365741 0.154346 1.915333 0 1 5
0.365896 0.155834 1.916144 0 1 5
0.362940 0.157399 1.900664 0 1 5
0.363448 0.159033 1.903323 0 1 5
0.365025 0.161143 1.911584 0 1 5
0.364410 0.162289 1.908365 0 1 5
0.364293 0.167905 1.907750 0 1 3
0.394187 0.197016 2.064298 0 0 1
0.355257 0.181704 1.860428 0 0 4
0.354692 0.182795 1.857473 0 0 4
0.357321 0.193879 1.871238 0 0 4
0.356788 0.194978 1.868449 0 0 4
0.355041 0.195404 1.859297 0 0 4
0.355351 0.196957 1.860922 0 0 4
0.355805 0.198593 1.863300 0 0 4
0.355036 0.199545 1.859274 0 0 4
0.355021 0.200917 1.859196 0 1 3
0.359729 0.204981 1.883848 1 2 4
0.363744 0.210098 1.904873 0 0 3
0.367343 0.213606 1.923725 0 0 3
0.366354 0.214456 1.918545 0 1 3
0.366015 0.215681 1.916767 0 1 4
0.365809 0.216983 1.915690 0 1 5
0.367989 0.219707 1.927107 0 1 5
0.374286 0.226378 1.960080 0 1 5
0.664948 -0.787135 3.468744 196 189 181
0.352622 -0.416052 1.839478 196 189 181
0.662670 -0.779303 3.456859 196 189 181
0.656034 -0.768958 3.422245 196 189 181
0.655217 -0.765461 3.417981 196 189 181
0.653359 -0.760759 3.408290 197 190 182
0.655322 -0.755427 3.418531 197 190 180
0.653802 -0.751142 3.410601 197 190 180
0.658679 -0.751640 3.436039 197 190 182
0.655576 -0.745560 3.419857 196 189 182
0.575840 -0.643722 3.003905 196 188 185
0.573946 -0.639381 2.994025 196 188 185
0.574534 -0.533181 2.997094 197 190 182
0.573493 -0.529993 2.991661 197 190 182
0.572580 -0.526931 2.986903 197 190 182
0.354685 -0.325033 1.850235 197 190 182
0.355400 -0.324311 1.853966 197 190 182
0.355479 -0.323006 1.854380 197 190 182
2.367280 -2.123512 12.349068 197 190 182
2.402867 -2.146125 12.534712 197 190 182
2.428954 -2.160013 12.670799 197 190 182
0.352323 -0.295566 1.837918 196 188 185
0.352627 -0.294454 1.839500 196 188 185
0.518861 -0.429244 2.706673 196 188 185
0.519030 -0.427373 2.707556 196 188 185
0.519407 -0.423658 2.709521 196 188 185
0.574847 -0.466651 2.998729 196 188 185
0.573771 -0.463554 2.993113 196 188 185
0.573029 -0.456294 2.989242 197 189 186
0.500711 -0.371547 2.611991 196 189 181
0.362356 -0.263266 1.890253 196 188 186
0.361706 -0.261392 1.886865 196 188 185
0.361009 -0.259490 1.883226 196 188 185
0.359813 -0.257236 1.876989 196 188 185
0.469211 -0.269996 2.447669 196 188 185
0.469199 -0.268171 2.447608 196 188 185
0.469318 -0.266421 2.448227 196 188 185
0.469093 -0.264475 2.447053 196 188 185
0.468186 -0.260336 2.442325 196 188 185
0.467865 -0.258345 2.440651 196 188 185
0.468095 -0.256658 2.441848 196 188 185
0.469675 -0.255704 2.450088 197 189 186
0.469313 -0.250052 2.448203 197 189 186
0.469616 -0.248394 2.449782 197 189 186
0.368409 -0.192007 1.921829 197 189 186
0.369041 -0.190907 1.925125 197 189 186
0.466789 -0.232429 2.435034 199 191 188
0.453996 -0.220782 2.368298 199 191 188
0.454999 -0.219507 2.373532 199 191 188
0.458046 -0.219202 2.389428 199 191 188
0.452474 -0.211275 2.360358 199 191 188
0.451475 -0.205561 2.355150 199 191 188
0.424722 -0.185152 2.215590 196 188 185
0.441133 -0.183760 2.301200 196 188 185
0.438724 -0.179356 2.288632 196 188 185
0.621217 -0.244334 3.240617 196 188 184
0.619841 -0.241391 3.233443 196 188 183
0.492301 -0.172647 2.568122 196 188 185
0.431056 -0.132796 2.248630 195 189 180
0.432251 -0.131489 2.254867 195 189 181
0.432400 -0.129859 2.255642 196 188 179
0.410390 -0.116888 2.140826 198 185 177
0.409531 -0.115057 2.136346 199 186 181
0.408683 -0.113235 2.131920 199 187 187
0.408431 -0.111583 2.130609 199 188 193
0.408393 -0.109990 2.130411 199 190 200
0.408199 -0.108356 2.129397 199 192 203
0.408403 -0.106828 2.130463 209 205 215
0.407744 -0.105076 2.127024 209 207 214
0.408274 -0.103630 2.129786 198 197 203
0.408442 -0.102090 2.130663 183 182 189
0.408656 -0.100560 2.131781 163 162 169
0.409011 -0.099063 2.133630 128 129 137
0.410639 -0.097866 2.142127 79 80 90
0.411356 -0.096443 2.145863 35 35 46
0.412031 -0.095005 2.149387 12 13 25
0.412641 -0.093547 2.152571 5 7 21
0.413267 -0.092087 2.155835 3 5 18
0.413565 -0.090551 2.157387 1 4 17
0.413402 -0.088914 2.156538 0 5 16
0.413119 -0.087252 2.155060 2 9 19
0.413517 -0.085734 2.157136 6 15 23
0.413360 -0.084100 2.156320 9 20 27
0.411259 -0.082079 2.145360 7 21 28
0.409500 -0.080141 2.136181 3 21 28
0.407444 -0.078160 2.125458 0 18 25
0.406199 -0.074773 2.118966 0 15 23
0.406207 -0.073201 2.119004 1 18 26
0.404274 -0.069720 2.108922 4 18 27
0.404171 -0.068136 2.108383 2 16 25
0.402911 -0.066362 2.101809 2 16 25
0.404295 -0.065024 2.109031 2 16 25
0.406963 -0.063876 2.122947 3 16 25
0.405810 -0.062123 2.116935 3 16 25
0.409210 -0.061058 2.134670 3 16 25
0.407985 -0.059294 2.128278 3 16 25
0.405933 -0.055850 2.117573 3 16 25
0.406058 -0.054294 2.118227 3 16 25
0.405593 -0.049517 2.115800 3 16 24
0.404549 -0.047822 2.110356 3 16 24
0.405092 -0.046317 2.113189 3 16 24
0.405417 -0.044783 2.114886 3 15 25
0.405841 -0.043257 2.117097 3 15 25
0.406853 -0.038636 2.122377 3 15 31
0.408563 -0.035632 2.131295 3 15 29
0.409092 -0.034093 2.134053 3 15 29
0.408708 -0.032477 2.132051 3 15 29
0.406384 -0.030718 2.119927 3 15 27
0.408274 -0.026115 2.129786 0 14 20
0.409433 -0.024603 2.135836 0 13 19
0.407894 -0.022930 2.127808 0 12 18
0.407722 -0.021340 2.126910 0 10 17
0.408822 -0.019814 2.132648 1 9 17
0.406137 -0.018110 2.118639 1 9 17
0.405688 -0.016518 2.116296 2 9 17
0.405758 -0.013377 2.116661 1 9 17
0.405491 -0.011797 2.115272 1 10 17
0.408184 -0.010293 2.129318 0 10 17
0.408708 -0.008723 2.132051 0 10 17
0.406053 -0.007093 2.118202 0 11 17
0.405616 -0.005514 2.115924 0 11 15
0.404783 -0.003934 2.111576 0 9 12
0.406423 -0.002375 2.120133 1 8 10
0.404103 -0.000796 2.108031 1 7 10
0.400043 0.000762 2.086853 1 6 10
0.403018 0.002329 2.102368 0 5 9
0.402876 0.003890 2.101629 0 4 8
0.404738 0.005476 2.111344 0 3 8
0.405185 0.007052 2.113676 0 2 7
0.410600 0.010328 2.141922 0 3 6
0.401667 0.014772 2.095325 0 1 3
0.403666 0.016410 2.105751 0 0 2
0.371102 0.023714 1.935880 0 0 0
0.370113 0.025084 1.930716 0 0 0
0.367874 0.026358 1.919037 1 0 3
0.366554 0.027684 1.912151 1 0 5
0.368772 0.032138 1.923725 0 1 12
0.369253 0.033611 1.926234 0 2 16
0.369514 0.035066 1.927595 1 5 20
0.371547 0.039578 1.938197 2 9 27
0.380308 0.041985 1.983904 0 9 26
0.382536 0.043713 1.995523 0 9 26
0.381390 0.045060 1.989543 3 10 26
0.379844 0.046349 1.981484 3 11 26
0.370311 0.048055 1.931750 0 9 23
0.369825 0.049425 1.929215 0 9 22
0.372371 0.051208 1.942500 0 10 21
0.373459 0.052805 1.948175 0 10 21
0.372705 0.054143 1.944239 0 10 21
0.369839 0.055159 1.929289 0 9 21
0.372151 0.056946 1.941349 0 8 19
0.368582 0.057828 1.922730 1 7 18
0.368691 0.059274 1.923301 1 7 18
0.370167 0.060945 1.930999 1 6 18
0.371757 0.069850 1.939296 1 2 7
0.372825 0.071495 1.944868 1 2 7
0.373346 0.073042 1.947584 0 2 6
0.373131 0.074445 1.946463 0 2 6
0.369847 0.078089 1.929333 0 1 5
0.370534 0.079670 1.932914 0 1 5
0.370566 0.082548 1.933080 0 1 5
0.371345 0.084161 1.937148 0 1 5
0.369754 0.088098 1.928846 0 1 6
0.369565 0.089485 1.927859 0 1 6
0.369421 0.090882 1.927107 0 1 6
0.372453 0.094514 1.942925 0 1 6
0.370311 0.096840 1.931750 0 1 6
0.372906 0.100409 1.945287 0 1 6
0.371537 0.101480 1.938148 0 1 6
0.371684 0.102960 1.938911 0 1 6
0.371636 0.104386 1.938661 0 1 6
0.386809 0.113145 2.017813 0 0 2
0.388872 0.116762 2.028578 0 2 1
0.375523 0.134579 1.958940 2 0 1
0.375087 0.135876 1.956663 2 0 1
0.374673 0.137178 1.954506 1 0 1
0.377231 0.139576 1.967849 0 1 0
0.377166 0.141014 1.967512 0 2 0
0.373079 0.140931 1.946189 0 2 0
0.365591 0.139519 1.907130 0 2 1
0.365342 0.140840 1.905828 0 1 1
0.366485 0.142700 1.911793 0 1 1
0.368157 0.144778 1.920514 0 1 1
0.372335 0.153634 1.942311 0 1 3
0.368881 0.153638 1.924292 0 1 3
0.363576 0.154246 1.896617 0 1 3
0.363309 0.155541 1.895226 0 1 3
0.362871 0.156759 1.892940 0 1 4
0.362966 0.158207 1.893436 0 1 5
0.363870 0.160011 1.898152 0 1 5
0.362297 0.166338 1.889947 0 1 3
0.362591 0.167878 1.891481 0 1 3
0.357019 0.192965 1.862414 0 0 4
0.357530 0.194626 1.865076 0 0 4
0.357296 0.195883 1.863857 0 0 4
0.357694 0.197487 1.865932 0 0 4
0.355489 0.197648 1.854433 0 0 4
0.355313 0.198927 1.853516 0 1 5
0.355483 0.200399 1.854398 0 1 5
0.362760 0.205907 1.892359 1 2 6
0.364602 0.208365 1.901969 0 1 5
0.364576 0.209763 1.901836 0 0 4
0.366417 0.212242 1.911436 0 0 4
0.366236 0.213556 1.910492 0 1 4
0.366818 0.215317 1.913531 0 1 4
0.366812 0.216734 1.913496 0 0 4
0.367136 0.218348 1.915187 0 0 4
0.670130 -0.790207 3.482283 196 189 181
0.354323 -0.416445 1.841217 196 189 181
0.667502 -0.781956 3.468626 196 189 181
0.660549 -0.771262 3.432499 196 189 181
0.657940 -0.765675 3.418938 196 189 181
0.656221 -0.761142 3.410005 197 190 182
0.654463 -0.756577 3.400871 197 190 182
0.656550 -0.756456 3.411717 197 190 182
0.656550 -0.751387 3.411717 197 190 180
0.662741 -0.753357 3.443890 197 190 182
2.456130 -2.744553 12.763111 196 188 186
0.681823 -0.732941 3.543048 196 188 185
0.679453 -0.727771 3.530732 196 188 185
0.678096 -0.723700 3.523680 196 188 185
0.676019 -0.718874 3.512886 196 188 185
0.674639 -0.714803 3.505716 197 189 186
0.673059 -0.710530 3.497503 197 189 186
2.599930 -2.714572 13.510357 197 189 186
2.560358 -2.663373 13.304723 197 189 186
2.476323 -2.566398 12.868039 197 189 185
2.519650 -2.601576 13.093183 197 190 185
2.564926 -2.638425 13.328458 199 192 184
0.522070 -0.524939 2.712898 199 192 183
0.956584 -0.950765 4.970820 199 191 187
0.952843 -0.943370 4.951382 199 191 188
0.953940 -0.940774 4.957083 199 191 189
0.955152 -0.938282 4.963379 199 191 188
2.589861 -2.474146 13.458032 199 192 184
0.575246 -0.529561 2.989226 197 190 182
0.575760 -0.527812 2.991898 197 190 182
0.356810 -0.322964 1.854137 197 190 182
2.386478 -2.132471 12.401168 197 190 182
2.402877 -2.137850 12.486384 197 190 182
2.429989 -2.152592 12.627268 197 190 182
0.520939 -0.429300 2.707022 196 188 185
0.521088 -0.427412 2.707800 196 188 185
0.574776 -0.462574 2.986784 196 188 185
0.570526 -0.454749 2.964700 197 189 186
0.488445 -0.372357 2.538170 196 189 181
0.488966 -0.370867 2.540878 196 189 181
0.489519 -0.369397 2.543751 196 189 180
0.489262 -0.367315 2.542418 196 189 179
0.489610 -0.365686 2.544222 196 189 179
0.490558 -0.364501 2.549152 196 189 181
0.492137 -0.363775 2.557353 196 188 182
0.492924 -0.362454 2.561445 196 188 184
0.362885 -0.261232 1.885705 196 188 185
0.362251 -0.259377 1.882411 196 188 185
0.469902 -0.269350 2.441813 196 188 185
0.470400 -0.267820 2.444400 196 188 185
0.470199 -0.265891 2.443355 196 188 185
0.470169 -0.264059 2.443202 196 188 185
0.469739 -0.260191 2.440964 196 188 185
0.469515 -0.258255 2.439800 196 188 185
0.470387 -0.256919 2.444335 196 188 185
0.471188 -0.255538 2.448495 197 189 186
0.470789 -0.251687 2.446425 197 189 186
0.470539 -0.249737 2.445122 197 189 186
0.470311 -0.247801 2.443939 197 189 186
0.470572 -0.246122 2.445294 197 189 186
0.465581 -0.230933 2.419362 199 191 188
0.453274 -0.221329 2.355406 199 191 188
0.453451 -0.219666 2.356329 199 191 188
0.455385 -0.218845 2.366378 199 191 188
0.459439 -0.219020 2.387443 199 191 188
0.454294 -0.211307 2.360708 199 191 188
0.426415 -0.185172 2.215837 196 188 185
0.433029 -0.184702 2.250207 196 188 185
0.438612 -0.183697 2.279216 196 188 185
0.438754 -0.182063 2.279956 196 188 185
0.432793 -0.174578 2.248980 196 188 185
0.432813 -0.172916 2.249080 196 188 185
0.432747 -0.152846 2.248739 196 188 184
0.430174 -0.146956 2.235370 196 188 185
0.429822 -0.145177 2.233541 196 188 185
0.429188 -0.143306 2.230244 196 188 185
0.432459 -0.134383 2.247243 196 189 179
0.431380 -0.132383 2.241634 194 189 180
0.432671 -0.131109 2.248343 195 189 181
0.433536 -0.129698 2.252841 196 188 179
0.432658 -0.127765 2.248280 197 188 179
0.429487 -0.125171 2.231801 196 184 175
0.411995 -0.116893 2.140905 198 183 176
0.411406 -0.115138 2.137842 198 184 178
0.410525 -0.113306 2.133262 196 184 182
0.409802 -0.111525 2.129509 195 185 186
0.409365 -0.109826 2.127235 195 185 191
0.409898 -0.108387 2.130008 194 186 192
0.409614 -0.106731 2.128531 196 191 194
0.409767 -0.105189 2.129327 200 197 199
0.409910 -0.103644 2.130070 208 205 207
0.409088 -0.101857 2.125795 217 214 218
0.409778 -0.100447 2.129381 219 216 221
0.410505 -0.099041 2.133163 200 198 204
0.412485 -0.097927 2.143448 158 156 163
0.413211 -0.096504 2.147222 111 110 119
0.413590 -0.094996 2.149193 69 70 80
0.413649 -0.093413 2.149496 44 45 56
0.413865 -0.091865 2.150618 31 33 45
0.414761 -0.090463 2.155276 20 23 35
0.414964 -0.088905 2.156332 10 13 24
0.414357 -0.087176 2.153179 2 4 15
0.414512 -0.085609 2.153981 0 3 13
0.414331 -0.083972 2.153039 3 10 20
0.413116 -0.082131 2.146727 7 18 27
0.412123 -0.080343 2.141566 4 19 28
0.410219 -0.078389 2.131673 0 16 24
0.408739 -0.076528 2.123984 0 14 22
0.409089 -0.075015 2.125800 0 14 22
0.406663 -0.073000 2.113196 0 16 24
0.406179 -0.071346 2.110680 2 18 26
0.405630 -0.069683 2.107827 3 17 26
0.405814 -0.068149 2.108783 2 16 25
0.404955 -0.066442 2.104320 2 16 25
0.405801 -0.065014 2.108716 2 16 25
0.406869 -0.063615 2.114267 3 16 25
0.406958 -0.062058 2.114727 3 16 25
0.408287 -0.060685 2.121637 3 16 25
0.405032 -0.047694 2.104722 3 16 24
0.403958 -0.046009 2.099138 3 16 24
0.405047 -0.044569 2.104800 3 15 25
0.412084 -0.034210 2.141367 3 15 29
0.411182 -0.032548 2.136679 3 15 29
0.407867 -0.030711 2.119455 3 15 27
0.409287 -0.029238 2.126831 0 15 22
0.409956 -0.027704 2.130308 0 15 20
0.408514 -0.022876 2.122815 1 12 18
0.410073 -0.021381 2.130918 0 11 17
0.411605 -0.019872 2.138875 0 10 17
0.406265 -0.010206 2.111130 0 10 17
0.407149 -0.007085 2.115720 0 11 17
0.406603 -0.005506 2.112885 0 11 15
0.405651 -0.002362 2.107935 0 10 12
0.400211 0.003849 2.079669 0 4 9
0.397606 0.014567 2.066132 0 1 3
0.398862 0.016152 2.072659 0 0 3
0.396411 0.020643 2.059924 1 0 4
0.373076 0.023748 1.938661 0 0 0
0.370380 0.025006 1.924653 0 0 1
0.389397 0.032302 2.023476 1 0 7
0.387842 0.033669 2.015393 0 0 8
0.379644 0.041750 1.972792 0 8 24
0.381429 0.043418 1.982067 0 7 24
0.380787 0.044815 1.978735 1 7 23
0.379883 0.046175 1.974033 2 8 24
0.380519 0.047721 1.977341 1 8 24
0.374510 0.049858 1.946116 0 10 24
0.375667 0.051462 1.952127 0 12 25
0.375808 0.052932 1.952858 0 13 24
0.373985 0.054119 1.943386 0 12 24
0.374192 0.057037 1.944463 0 9 20
0.375892 0.058747 1.953295 0 7 19
0.371776 0.059539 1.931910 1 7 19
0.371505 0.062364 1.930502 0 6 18
0.373299 0.069869 1.939821 0 4 9
0.373279 0.071306 1.939721 0 4 9
0.380146 0.075552 1.975404 0 3 8
0.382036 0.077402 1.985224 1 3 8
0.370407 0.077906 1.924795 0 1 6
0.371107 0.079485 1.928431 0 1 6
0.371575 0.083888 1.930864 0 1 6
0.370995 0.088053 1.927849 0 1 6
0.370668 0.089406 1.926150 0 1 6
0.370191 0.090720 1.923673 0 1 6
0.372071 0.092617 1.933443 0 1 6
0.372060 0.094050 1.933386 0 1 6
0.372643 0.095636 1.936414 0 1 5
0.371820 0.098295 1.932138 0 1 6
0.370971 0.100934 1.927725 0 0 6
0.371627 0.102547 1.931135 0 0 7
0.371395 0.103916 1.929931 0 0 7
0.384367 0.110513 1.997337 0 0 5
0.385435 0.112308 2.002884 0 0 3
0.377653 0.127532 1.962449 1 1 1
0.377587 0.128967 1.962104 1 1 1
0.374053 0.132091 1.943741 1 0 1
0.375292 0.133977 1.950179 2 0 1
0.375083 0.135350 1.949093 2 0 0
0.374480 0.136578 1.945961 1 0 0
0.374365 0.139426 1.945362 0 2 0
0.373636 0.140597 1.941571 0 2 0
0.367693 0.139780 1.910689 0 2 1
0.366650 0.140798 1.905271 0 2 1
0.367449 0.142524 1.909424 0 2 1
0.361342 0.155496 1.877687 0 1 3
0.361826 0.157101 1.880203 0 1 5
0.361497 0.158353 1.878492 0 1 5
0.360199 0.164736 1.871747 0 1 3
0.356860 0.170096 1.854398 0 1 2
0.357305 0.171687 1.856709 0 1 2
0.358930 0.193249 1.865153 0 0 5
0.359206 0.194784 1.866587 0 0 5
0.359596 0.196383 1.868616 0 0 5
0.359942 0.197962 1.870412 0 0 5
0.358162 0.198365 1.861163 0 1 5
0.357635 0.199453 1.858423 0 1 5
0.359578 0.201925 1.868520 0 1 5
0.362057 0.204715 1.881406 1 2 6
0.363857 0.207137 1.890758 0 1 5
0.364557 0.208943 1.894397 0 0 4
0.365485 0.212296 1.899216 0 0 4
0.366159 0.214101 1.902721 0 1 5
0.367558 0.216337 1.909988 0 0 4
0.368331 0.218214 1.914006 0 0 4
0.668998 -0.785839 3.463034 197 190 182
0.354669 -0.415249 1.835927 197 190 182
0.668114 -0.779663 3.458457 197 190 182
0.661181 -0.769031 3.422570 197 190 182
0.660429 -0.765617 3.418679 197 190 182
0.658641 -0.761012 3.409425 197 190 182
0.656761 -0.756315 3.399693 197 190 182
0.658391 -0.755659 3.408126 197 190 182
0.660429 -0.755460 3.418679 197 190 180
0.656746 -0.748721 3.399612 197 190 180
0.658981 -0.743668 3.411181 197 189 183
2.415852 -2.689165 12.505537 197 189 187
0.682253 -0.730583 3.531647 196 188 185
0.682505 -0.728229 3.532954 196 188 185
0.669760 -0.706905 3.466980 197 189 186
0.666236 -0.700623 3.448737 197 189 186
0.666942 -0.698801 3.452392 197 189 186
2.542741 -2.644654 13.162373 197 189 186
2.488195 -2.578355 12.880017 197 189 186
2.439934 -2.518963 12.630198 197 189 185
2.462334 -2.532622 12.746153 197 190 184
2.504748 -2.566616 12.965703 199 192 184
0.959087 -0.949588 4.964665 199 191 187
0.958052 -0.944880 4.959309 199 191 188
0.953521 -0.936745 4.935853 199 191 189
2.544026 -2.421014 13.169024 199 192 184
2.544469 -2.411653 13.171318 199 192 184
2.382081 -2.120358 12.330727 197 190 182
2.388186 -2.116609 12.362326 197 190 182
0.478307 -0.365066 2.475933 196 189 181
0.484459 -0.366036 2.507779 196 189 181
0.485949 -0.363425 2.515491 196 189 179
0.484935 -0.360802 2.510242 196 189 179
0.485340 -0.359237 2.512339 196 189 181
0.487957 -0.359298 2.525885 196 188 181
0.425337 -0.273940 2.201738 197 190 182
0.428114 -0.274082 2.216109 197 189 182
0.429082 -0.273053 2.221122 197 189 184
0.428604 -0.271100 2.218648 197 189 186
0.427302 -0.268634 2.211905 197 189 186
0.425586 -0.265919 2.203026 197 189 186
0.431961 -0.258276 2.236023 196 188 185
0.430123 -0.255524 2.226512 196 188 185
0.471207 -0.269060 2.439181 196 188 185
0.471471 -0.267398 2.440546 196 188 185
0.471608 -0.265662 2.441256 196 188 185
0.471751 -0.263929 2.441998 196 188 185
0.471418 -0.260118 2.440275 196 188 185
0.472871 -0.257283 2.447795 196 188 185
0.395742 -0.212275 2.048539 197 189 186
0.472126 -0.249617 2.443939 197 189 186
0.471608 -0.247529 2.441256 197 189 186
0.471488 -0.245653 2.440633 197 189 186
0.453337 -0.218766 2.346675 199 191 188
0.456436 -0.218506 2.362716 199 191 188
0.460468 -0.218666 2.383590 199 191 188
0.428459 -0.188639 2.217896 196 188 185
0.427435 -0.186545 2.212597 196 188 185
0.428008 -0.185150 2.215565 196 188 185
0.429266 -0.184043 2.222075 196 188 185
0.430174 -0.182779 2.226776 196 188 185
0.430653 -0.181326 2.229252 196 188 185
0.431873 -0.180179 2.235570 196 188 185
0.431662 -0.178432 2.234478 196 188 185
0.431452 -0.176686 2.233391 196 188 185
0.431414 -0.175011 2.233191 196 188 185
0.430706 -0.173068 2.229527 196 188 185
0.430922 -0.171498 2.230647 196 188 185
0.443305 -0.161086 2.294744 196 189 179
0.430933 -0.131737 2.230704 194 189 181
0.413645 -0.115319 2.141215 195 182 176
0.411875 -0.113242 2.132051 194 182 178
0.411006 -0.111423 2.127550 192 183 180
0.410252 -0.109641 2.123647 190 183 183
0.410658 -0.108171 2.125749 189 183 184
0.410867 -0.106646 2.126831 184 179 176
0.410486 -0.104969 2.124861 184 180 176
0.410112 -0.103296 2.122924 190 186 183
0.410823 -0.101896 2.126606 199 195 195
0.411612 -0.100509 2.130691 210 206 208
0.411875 -0.098990 2.132051 215 212 216
0.413662 -0.097829 2.141302 208 205 210
0.414007 -0.096318 2.143085 193 191 197
0.415207 -0.095001 2.149298 169 167 174
0.415485 -0.093467 2.150739 144 143 150
0.415522 -0.091878 2.150929 122 122 130
0.416081 -0.090402 2.153821 98 98 107
0.415248 -0.088624 2.149513 63 64 74
0.415664 -0.087115 2.151664 23 23 35
0.416357 -0.085659 2.155251 2 2 14
0.415867 -0.083959 2.152714 1 4 16
0.413614 -0.081914 2.141050 2 11 22
0.413849 -0.080369 2.142267 1 15 24
0.411676 -0.078365 2.131021 0 17 25
0.410783 -0.076615 2.126397 1 18 25
0.410130 -0.074917 2.123019 0 16 24
0.408559 -0.073059 2.114886 0 16 23
0.409376 -0.070057 2.119113 1 15 24
0.407346 -0.068143 2.108607 2 16 25
0.407113 -0.066539 2.107398 2 16 25
0.408462 -0.065189 2.114383 2 16 25
0.408581 -0.063637 2.115000 3 16 25
0.406746 -0.061787 2.105501 3 16 25
0.407955 -0.060402 2.111759 3 16 25
0.408173 -0.058865 2.112885 3 16 25
0.413130 -0.057992 2.138549 3 16 25
0.412719 -0.056347 2.136420 3 16 25
0.413567 -0.054873 2.140807 3 16 25
0.412512 -0.053147 2.135347 3 16 25
0.410814 -0.049769 2.126558 3 16 24
0.414900 -0.039097 2.147709 3 15 31
0.415360 -0.037543 2.150089 3 15 30
0.414514 -0.035873 2.145710 3 15 29
0.414267 -0.034259 2.144431 3 15 29
0.413515 -0.032607 2.140542 3 15 29
0.411913 -0.030897 2.132250 3 15 27
0.410783 -0.029232 2.126397 1 15 23
0.412769 -0.027787 2.136679 1 16 21
0.412994 -0.026214 2.137842 1 14 20
0.412520 -0.024598 2.135390 1 14 20
0.412314 -0.023000 2.134320 1 13 19
0.412573 -0.021428 2.135664 1 12 18
0.413014 -0.019863 2.137945 1 11 17
0.413986 -0.018318 2.142981 1 11 17
0.411875 -0.015058 2.132051 0 10 17
0.411922 -0.013475 2.132292 0 10 17
0.412204 -0.011900 2.133752 0 10 17
0.410759 -0.008699 2.126272 0 11 17
0.411175 -0.007127 2.128429 0 11 17
0.411493 -0.005551 2.130073 0 11 17
0.411417 -0.003968 2.129680 1 11 14
0.414462 0.002377 2.145443 0 7 13
0.413163 0.008724 2.138717 0 3 8
0.413414 0.010319 2.140016 0 2 7
0.412698 0.013475 2.136311 0 3 6
0.390948 0.032305 2.023724 1 0 4
0.379863 0.041613 1.966342 0 6 21
0.379953 0.043084 1.966810 1 6 23
0.381119 0.044682 1.972844 2 6 23
0.380966 0.046128 1.972052 2 6 24
0.382610 0.047799 1.980561 1 8 25
0.378191 0.048701 1.957687 1 11 27
0.375829 0.049842 1.945462 1 13 28
0.375790 0.051281 1.945256 1 14 29
0.375235 0.052648 1.942384 2 16 28
0.375057 0.054065 1.941463 1 15 27
0.374876 0.055481 1.940529 0 10 22
0.376865 0.058673 1.950824 0 8 20
0.376140 0.060006 1.947071 0 7 20
0.377960 0.074829 1.956493 0 3 8
0.376063 0.077345 1.946670 1 3 8
0.372146 0.077970 1.926395 1 2 7
0.369854 0.078912 1.914532 0 2 7
0.371035 0.087724 1.920646 0 1 6
0.371715 0.089314 1.924165 0 1 6
0.370657 0.090485 1.918688 0 1 6
0.371688 0.092166 1.924025 0 1 6
0.372284 0.093745 1.927107 0 1 6
0.371958 0.096523 1.925425 0 1 5
0.372164 0.098007 1.926490 0 1 6
0.372661 0.099571 1.929059 0 1 6
0.373426 0.101211 1.933020 0 0 6
0.372539 0.102403 1.928431 0 0 8
0.371525 0.103553 1.923182 0 0 8
0.371597 0.105002 1.923552 0 0 7
0.383338 0.111267 1.984330 0 1 4
0.373267 0.118390 1.932200 0 1 4
0.375775 0.126410 1.945182 1 1 1
0.375681 0.127823 1.944692 1 1 1
0.375520 0.129212 1.943860 1 1 1
0.374701 0.131811 1.939619 1 0 1
0.374998 0.133358 1.941161 2 0 1
0.375400 0.134944 1.943240 2 0 0
0.375210 0.136318 1.942258 1 0 0
0.375214 0.137762 1.942277 1 1 0
0.371614 0.139298 1.923640 0 2 0
0.357053 0.184635 1.848269 0 0 4
0.361211 0.188174 1.869792 0 0 4
0.358597 0.192327 1.856259 0 1 5
0.358678 0.193750 1.856679 0 1 5
0.359498 0.195575 1.860922 0 1 5
0.360837 0.197691 1.867857 0 1 5
0.360352 0.198811 1.865346 0 1 5
0.359688 0.199828 1.861909 0 1 5
0.360319 0.201563 1.865171 0 1 5
0.365645 0.211572 1.892741 0 1 5
0.367158 0.213859 1.900574 0 1 5
0.367689 0.215582 1.903323 0 1 5
0.369871 0.218284 1.914619 0 1 5
0.631329 -0.741169 3.255527 197 190 180
0.672335 -0.786735 3.466980 197 190 182
0.356385 -0.415659 1.837742 197 190 182
0.671078 -0.780123 3.460498 197 190 182
0.664681 -0.770141 3.427511 197 190 182
0.663210 -0.765896 3.419925 197 190 182
0.662212 -0.762207 3.414779 197 190 182
0.660269 -0.757442 3.404758 197 190 182
0.662392 -0.757340 3.415705 197 190 182
0.663912 -0.756535 3.423544 197 190 180
2.438635 -2.713469 12.575123 197 189 187
2.438009 -2.703434 12.571894 197 189 187
0.684096 -0.729751 3.527626 196 188 185
0.682295 -0.725217 3.518340 196 188 185
0.678548 -0.718634 3.499015 196 188 185
0.670776 -0.705265 3.458937 197 189 186
0.667737 -0.696955 3.443269 197 189 186
2.520602 -2.611586 12.997795 197 189 186
2.489276 -2.569595 12.836262 197 189 186
2.444198 -2.513701 12.603812 197 189 185
2.460016 -2.520546 12.685376 197 190 185
2.487423 -2.539100 12.826706 199 192 185
0.311763 -0.315852 1.607646 199 192 184
0.961767 -0.948594 4.959469 199 191 187
0.958161 -0.941367 4.940874 199 191 188
0.954406 -0.934023 4.921511 199 191 189
0.953565 -0.929548 4.917175 199 191 188
2.494531 -2.364821 12.863361 199 192 184
2.454585 -2.308148 12.657372 199 192 184
0.794766 -0.729086 4.098307 197 190 182
0.796596 -0.721612 4.107745 197 190 182
2.388391 -2.117832 12.316036 197 190 182
2.392838 -2.112610 12.338964 197 190 182
0.523883 -0.458518 2.701469 197 190 180
0.956488 -0.818828 4.932251 197 189 185
0.956927 -0.815538 4.934510 197 189 186
0.479593 -0.353624 2.473083 196 189 181
0.426304 -0.271878 2.198289 197 189 184
0.427084 -0.270740 2.202314 197 189 185
0.426750 -0.268894 2.200587 197 189 186
0.426159 -0.266889 2.197542 197 189 186
0.424462 -0.262575 2.188789 197 189 186
0.431030 -0.256732 2.222661 196 188 185
0.427084 -0.251111 2.202314 196 188 185
0.426429 -0.249092 2.198932 196 188 185
0.425886 -0.245513 2.196136 196 188 185
0.473653 -0.258535 2.442451 196 188 185
0.473134 -0.256440 2.439775 196 188 185
0.392854 -0.211423 2.025800 197 189 186
0.393624 -0.210330 2.029773 197 189 186
0.395099 -0.209605 2.037375 197 189 186
0.472215 -0.248707 2.435034 197 189 186
0.471887 -0.246727 2.433345 197 189 186
0.470614 -0.244259 2.426780 197 189 186
0.457781 -0.218311 2.360606 199 191 188
0.461680 -0.218402 2.380713 199 191 188
0.399894 -0.187642 2.062102 199 191 188
0.426913 -0.190509 2.201429 196 188 185
0.426952 -0.188891 2.201629 196 188 185
0.427612 -0.187545 2.205033 196 188 185
0.427258 -0.185754 2.203210 196 188 185
0.427499 -0.184221 2.204451 196 188 185
0.428092 -0.182837 2.207510 196 188 185
0.428753 -0.181477 2.210916 196 188 185
0.429342 -0.180082 2.213957 196 188 185
0.430958 -0.179109 2.222288 196 188 185
0.431415 -0.177647 2.224646 196 188 185
0.431265 -0.175933 2.223870 196 188 185
0.430871 -0.174122 2.221840 196 188 185
0.429587 -0.171958 2.215219 196 188 185
0.396500 -0.152639 2.044603 196 188 183
0.418516 -0.121039 2.158132 194 183 177
0.417047 -0.119017 2.150555 195 183 177
0.417291 -0.117488 2.151814 195 182 176
0.417622 -0.115982 2.153522 194 182 176
0.416844 -0.114169 2.149509 193 182 177
0.412410 -0.109796 2.126642 188 183 178
0.412416 -0.108218 2.126675 187 184 178
0.411487 -0.106398 2.121882 192 189 180
0.411572 -0.104843 2.122322 196 192 183
0.411272 -0.103192 2.120774 194 190 182
0.412134 -0.101829 2.125221 190 185 181
0.412872 -0.100430 2.129024 191 185 184
0.413754 -0.099060 2.133574 200 195 196
0.415073 -0.097786 2.140374 212 207 210
0.415391 -0.096270 2.142017 220 215 219
0.416429 -0.094916 2.147368 225 220 223
0.416875 -0.093421 2.149669 219 215 219
0.417512 -0.091964 2.152951 206 203 209
0.417138 -0.090284 2.151024 186 183 191
0.417240 -0.088708 2.151552 141 138 148
0.416878 -0.087034 2.149681 75 72 85
0.417721 -0.085610 2.154030 21 19 34
0.418076 -0.084082 2.155859 1 0 15
0.416225 -0.082115 2.146317 0 3 15
0.414561 -0.080199 2.137734 0 11 20
0.414340 -0.078570 2.136595 5 20 27
0.413728 -0.076869 2.133440 9 24 31
0.412634 -0.075085 2.127796 7 22 29
0.412056 -0.073402 2.124820 1 16 23
0.412775 -0.071949 2.128525 0 14 21
0.413515 -0.070494 2.132341 0 14 23
0.412362 -0.068718 2.126397 2 16 25
0.410666 -0.066862 2.117648 2 16 25
0.412241 -0.065540 2.125771 2 16 25
0.413276 -0.064121 2.131106 3 16 25
0.413880 -0.062630 2.134224 3 16 25
0.413899 -0.061048 2.134320 3 16 25
0.414233 -0.057924 2.136041 3 16 25
0.414366 -0.056355 2.136729 3 16 25
0.414782 -0.054823 2.138875 3 16 25
0.415363 -0.053309 2.141869 3 16 25
0.412821 -0.051402 2.128764 3 16 25
0.413666 -0.042000 2.133121 3 15 28
0.414661 -0.040513 2.138252 3 15 29
0.416659 -0.039112 2.148553 3 15 31
0.417688 -0.037609 2.153858 3 15 30
0.417359 -0.035981 2.152164 3 15 29
0.416513 -0.034313 2.147803 3 15 29
0.415461 -0.032635 2.142375 3 15 28
0.413843 -0.030922 2.134032 3 15 27
0.414403 -0.029377 2.136920 2 15 23
0.413948 -0.027759 2.134573 2 16 21
0.414119 -0.026185 2.135457 2 15 21
0.415022 -0.024652 2.140111 1 14 20
0.413459 -0.022976 2.132051 1 13 19
0.414133 -0.021427 2.135527 0 12 18
0.416146 -0.019937 2.145906 0 12 18
0.415994 -0.018337 2.145127 1 12 18
0.416560 -0.016766 2.148041 0 11 17
0.413647 -0.013480 2.133023 0 11 17
0.414009 -0.011906 2.134889 0 11 17
0.410137 -0.007082 2.114922 0 11 17
0.410598 -0.005517 2.117298 1 12 18
0.405593 0.005424 2.091491 0 6 13
0.411272 0.008651 2.120774 0 3 8
0.413838 0.010290 2.134007 0 3 7
0.413383 0.011862 2.131660 0 2 6
0.370287 0.026226 1.909433 1 0 0
0.370483 0.027659 1.910444 1 0 0
0.381387 0.037238 1.966667 0 0 8
0.380462 0.038605 1.961898 0 1 12
0.379923 0.040005 1.959122 0 3 15
0.381135 0.041593 1.965372 1 5 18
0.381010 0.043038 1.964725 2 5 21
0.380949 0.044491 1.964413 5 6 25
0.381936 0.046069 1.969498 5 7 27
0.380719 0.047380 1.963223 3 9 28
0.380388 0.048796 1.961518 3 12 29
0.378273 0.049973 1.950613 2 14 30
0.374315 0.050884 1.930200 1 15 30
0.375835 0.052530 1.938042 1 16 29
0.374221 0.053738 1.929716 1 15 28
0.375437 0.055351 1.935989 0 11 23
0.376616 0.056967 1.942067 0 10 22
0.376573 0.058403 1.941844 1 9 22
0.378326 0.061573 1.950883 0 8 19
0.374315 0.068089 1.930200 0 7 15
0.376368 0.074228 1.940788 0 4 11
0.377061 0.075809 1.944360 0 3 10
0.376523 0.077143 1.941588 0 3 10
0.374435 0.078149 1.930819 0 2 9
0.376907 0.087327 1.943566 0 2 8
0.373293 0.089349 1.924931 0 1 8
0.372346 0.090549 1.920051 0 1 7
0.372879 0.093535 1.922795 0 2 6
0.370948 0.095892 1.912841 0 2 6
0.371712 0.103208 1.916778 0 0 9
0.388053 0.115177 2.001042 0 1 2
0.366967 0.113135 1.892309 0 1 5
0.373282 0.123660 1.924874 1 1 2
0.373891 0.126726 1.928016 1 1 1
0.374615 0.128407 1.931750 1 1 1
0.373310 0.130819 1.925018 1 0 1
0.373740 0.132401 1.927238 2 0 1
0.373491 0.133743 1.925950 2 0 0
0.374685 0.135606 1.932108 1 1 0
0.372201 0.136133 1.919302 0 1 0
0.371730 0.137384 1.916871 0 1 0
0.370988 0.138531 1.913045 0 2 0
0.370863 0.139905 1.912401 0 2 0
0.373149 0.147913 1.924187 0 2 1
0.364624 0.182242 1.880229 0 0 4
0.358220 0.185901 1.847204 0 0 4
0.359935 0.188170 1.856050 0 1 5
0.361449 0.190346 1.863857 1 2 6
0.357879 0.191207 1.845445 1 2 6
0.357987 0.192636 1.846004 1 2 6
0.358949 0.194529 1.850966 1 2 6
0.360651 0.196832 1.859743 1 2 6
0.362300 0.199120 1.868244 1 2 6
0.362732 0.200746 1.870471 0 1 5
0.367706 0.213358 1.896122 0 1 5
0.629657 -0.736386 3.234517 197 190 180
0.675009 -0.786849 3.467484 197 190 182
0.357615 -0.415503 1.837048 197 190 182
0.673734 -0.780222 3.460938 197 190 182
0.667515 -0.770473 3.428989 197 190 182
0.665675 -0.765809 3.419537 197 190 182
0.664749 -0.762207 3.414779 197 190 182
0.663322 -0.758041 3.407451 197 190 182
0.664878 -0.757282 3.415443 197 190 182
0.666771 -0.756894 3.425169 197 190 180
0.664406 -0.751674 3.413020 197 190 180
0.663089 -0.742594 3.406255 197 189 183
0.662459 -0.736834 3.403020 197 189 186
2.445664 -2.710907 12.563250 197 189 187
2.444092 -2.699838 12.555175 197 189 186
0.681968 -0.722104 3.503237 196 188 185
2.449710 -2.556492 12.584034 197 189 186
2.535317 -2.616809 13.023793 197 189 186
2.510108 -2.581212 12.894293 197 189 186
2.453333 -2.513469 12.602648 197 189 185
2.464424 -2.515429 12.659621 197 190 184
