ply
format ascii 1.0
element vertex 1272
property float x
property float y
property float z
property uchar red
property uchar green
property uchar blue
end_header
0.640378 -0.597755 3.089211 199 191 188
0.645433 -0.600161 3.113595 199 191 188
0.633103 -0.577353 3.054116 199 191 188
0.550963 -0.490601 2.657866 199 191 188
0.550926 -0.488594 2.657691 199 191 188
0.553456 -0.488854 2.669892 199 191 188
0.417196 -0.356540 2.012570 200 193 183
0.332202 -0.280332 1.602555 200 193 185
0.331338 -0.278416 1.598388 199 192 186
0.639142 -0.527897 3.083247 199 191 188
0.638376 -0.524976 3.079551 199 191 188
0.638675 -0.522934 3.080994 199 191 189
0.639202 -0.521075 3.083535 199 191 188
0.638675 -0.516069 3.080994 199 191 186
0.638540 -0.513671 3.080342 199 192 185
0.638626 -0.511452 3.080756 199 192 183
0.637561 -0.508315 3.075619 199 192 182
0.639053 -0.507214 3.082816 199 192 182
0.646281 -0.508320 3.117683 199 192 184
0.640845 -0.499452 3.091460 199 192 184
1.013234 -0.782417 4.887878 199 192 184
1.012221 -0.778008 4.882991 199 192 184
0.636954 -0.482726 3.072691 199 192 184
0.554621 -0.412379 2.675511 197 190 182
0.554621 -0.410391 2.675511 197 190 182
0.554456 -0.408283 2.674718 197 190 182
0.631518 -0.460504 3.046470 197 190 182
0.631850 -0.458481 3.048067 197 190 182
1.011369 -0.715747 4.878882 197 190 182
0.631572 -0.440176 3.046729 197 190 182
0.633510 -0.439256 3.056078 197 190 182
0.635632 -0.438450 3.066313 197 190 182
0.637963 -0.437772 3.077558 197 190 182
0.638322 -0.435731 3.079290 197 190 182
0.635146 -0.431287 3.063970 197 190 182
0.632663 -0.427334 3.051989 197 190 182
0.632917 -0.425238 3.053217 197 190 182
0.632167 -0.417939 3.049599 197 190 182
0.632390 -0.415820 3.050673 197 190 182
0.631323 -0.412856 3.045524 197 190 182
0.631726 -0.410856 3.047472 197 190 182
0.633756 -0.409906 3.057266 197 190 182
0.634177 -0.407906 3.059294 197 190 182
0.636712 -0.407255 3.071522 197 190 182
0.636071 -0.404566 3.068431 197 190 182
0.634687 -0.401411 3.061754 197 190 182
0.631500 -0.397133 3.046381 196 189 181
0.456638 -0.285531 2.202840 196 189 181
0.457031 -0.284139 2.204736 196 189 181
0.458455 -0.278453 2.211603 196 189 181
1.019538 -0.615587 4.918289 196 189 181
1.020308 -0.612396 4.922004 196 189 181
0.633178 -0.377769 3.054473 196 188 182
0.631809 -0.374689 3.047871 196 188 184
0.631348 -0.372153 3.045647 196 188 185
0.630967 -0.369668 3.043812 196 188 185
0.630658 -0.367227 3.042318 196 188 185
0.631095 -0.365220 3.044428 196 188 186
0.631256 -0.363051 3.045201 196 188 185
0.631805 -0.361103 3.047852 196 188 184
0.631355 -0.358584 3.045680 196 189 182
0.631155 -0.356209 3.044718 197 190 182
0.631262 -0.354007 3.045231 197 190 181
0.630900 -0.351543 3.043484 197 190 180
0.449902 -0.237793 2.170344 197 189 186
0.472684 -0.221041 2.280244 197 189 186
1.852037 -0.779800 8.934299 199 191 184
1.850940 -0.772705 8.929007 199 191 186
0.446819 -0.125693 2.155472 196 188 185
1.297433 -0.313839 6.258869 198 186 185
1.308431 -0.288370 6.311922 197 187 185
1.331816 -0.274435 6.424730 195 186 184
0.458102 -0.068134 2.209900 196 188 185
0.627743 -0.079869 3.028258 196 188 185
0.461470 -0.053753 2.226147 196 188 185
0.461522 -0.052105 2.226401 196 188 185
0.461600 -0.050460 2.226776 196 188 185
0.461001 -0.048743 2.223885 196 188 185
0.564030 -0.057615 2.720901 196 188 185
0.626306 -0.059489 3.021325 196 188 185
0.625271 -0.057150 3.016334 196 188 185
0.630808 -0.048615 3.043042 196 188 185
0.632167 -0.046454 3.049599 196 188 185
0.634489 -0.044352 3.060801 195 187 184
0.636397 -0.042205 3.070003 195 187 184
0.635216 -0.039850 3.064304 195 187 184
0.628593 -0.010154 3.032359 195 187 184
0.630701 -0.005669 3.042528 195 186 179
0.628535 0.003360 3.032077 192 187 177
0.629282 0.014638 3.035678 193 182 181
0.631767 0.016959 3.047668 197 185 184
0.631337 0.019210 3.045596 197 186 185
0.638144 0.023990 3.078433 196 190 187
0.637419 0.026247 3.074936 199 194 191
0.415974 0.030543 2.006675 24 26 42
0.414809 0.031944 2.001056 5 8 23
0.415997 0.033526 2.006784 3 7 20
0.415663 0.034988 2.005177 1 6 17
0.415870 0.036496 2.006173 3 10 20
0.416374 0.038032 2.008604 6 13 23
0.415943 0.039483 2.006527 4 11 21
0.415591 0.040939 2.004829 3 10 20
0.415731 0.042442 2.005504 9 17 28
0.415568 0.043914 2.004714 11 20 29
0.416103 0.045462 2.007299 1 13 20
0.553796 0.066459 2.671531 5 18 24
0.420217 0.056451 2.027144 2 16 24
0.421565 0.058143 2.033646 2 16 23
0.416575 0.064918 2.009576 0 11 20
0.416603 0.066415 2.009710 0 10 19
0.412606 0.074648 1.990428 0 10 12
0.414477 0.076472 1.999454 0 10 12
0.408200 0.078239 1.969171 0 10 12
0.408378 0.079737 1.970031 0 9 11
0.408697 0.081263 1.971571 0 9 11
0.407977 0.084044 1.968097 0 8 11
0.406490 0.085194 1.960926 0 8 11
0.414120 0.088277 1.997733 0 8 11
0.415102 0.089974 2.002468 0 8 11
0.404171 0.090501 1.949735 0 7 10
0.415082 0.098893 2.002371 1 6 10
0.410665 0.102255 1.981063 1 6 10
0.413949 0.104556 1.996908 0 5 10
0.416450 0.106680 2.008970 0 5 11
0.419767 0.109034 2.024973 0 5 11
0.440528 0.117583 2.125125 0 5 11
0.412363 0.114498 1.989253 0 5 11
0.408797 0.114973 1.972052 0 5 10
0.411517 0.117213 1.985173 0 5 8
0.412400 0.118942 1.989436 0 5 8
0.414443 0.121016 1.999287 0 5 8
0.415322 0.122761 2.003528 0 5 8
0.417279 0.126330 2.012972 0 5 8
0.420139 0.128701 2.026767 0 5 8
0.421131 0.130514 2.031554 0 5 8
0.424422 0.133055 2.047429 0 5 8
0.428299 0.135805 2.066132 0 5 8
0.428949 0.137548 2.069268 0 4 7
0.430061 0.139445 2.074630 0 4 7
0.411842 0.136489 1.986742 0 5 8
0.409765 0.137269 1.976722 0 4 7
0.436452 0.150901 2.105461 0 3 8
0.403207 0.149520 1.945085 0 2 6
0.401825 0.150447 1.938420 0 2 6
0.400121 0.151243 1.930200 0 2 5
0.400012 0.152635 1.929673 0 3 4
0.400335 0.154193 1.931233 0 3 4
0.400478 0.155683 1.931922 0 3 4
0.423412 0.167632 2.042556 0 3 4
0.423622 0.169233 2.043567 0 3 4
0.423498 0.170701 2.042972 0 3 4
0.423558 0.172243 2.043259 0 3 4
0.420808 0.172633 2.029996 0 3 4
0.414289 0.172927 1.998548 0 3 4
0.410267 0.172718 1.979145 0 3 3
0.407655 0.173079 1.966544 0 3 2
0.407089 0.184508 1.963813 0 2 0
2.334423 1.175154 11.261346 0 4 0
0.433934 0.241766 2.093315 1 3 0
0.391503 -0.428439 1.881883 197 189 186
0.342056 -0.370663 1.644200 197 189 186
0.602725 -0.642373 2.897188 197 189 186
0.599052 -0.636320 2.879534 197 189 186
0.599836 -0.635010 2.883299 197 189 186
0.631003 -0.661246 3.033113 199 191 189
0.631579 -0.659595 3.035882 199 190 189
0.632719 -0.658526 3.041363 199 190 189
0.452683 -0.461450 2.175963 199 191 188
0.456860 -0.454290 2.196042 199 191 188
0.632179 -0.612823 3.038770 199 191 189
0.632428 -0.610806 3.039966 199 191 189
0.631706 -0.607853 3.036494 199 191 189
0.632210 -0.606081 3.038918 199 191 188
0.631753 -0.603387 3.036719 199 191 188
0.631958 -0.601326 3.037705 199 191 188
0.631284 -0.598431 3.034464 199 191 188
0.631630 -0.596504 3.036129 199 191 188
0.631422 -0.594054 3.035130 199 191 188
0.631630 -0.591994 3.036129 199 191 188
0.633160 -0.591168 3.043484 199 191 188
0.636449 -0.591966 3.059294 199 191 188
0.630906 -0.573295 3.032650 199 191 188
0.452660 -0.403244 2.175851 199 191 188
0.546584 -0.484964 2.627328 199 191 188
0.546578 -0.483007 2.627300 199 191 188
0.418119 -0.356053 2.009819 200 193 183
0.418042 -0.354495 2.009449 200 193 185
0.333423 -0.280358 1.602704 200 193 185
1.019583 -0.842754 4.900948 199 191 188
0.637501 -0.522385 3.064350 199 191 188
0.637629 -0.520213 3.064964 199 191 189
0.637697 -0.517992 3.065291 199 191 188
0.637530 -0.513304 3.064491 199 191 185
0.636449 -0.510162 3.059294 199 192 184
0.635599 -0.507210 3.055205 199 192 183
0.634068 -0.503725 3.047846 199 192 182
0.634892 -0.502113 3.051810 199 192 182
1.011735 -0.778471 4.863224 199 192 184
1.011470 -0.774655 4.861948 199 192 184
0.630094 -0.460074 3.028744 197 190 182
0.630478 -0.458103 3.030590 197 190 182
0.630502 -0.455869 3.030705 197 190 182
0.630675 -0.453743 3.031538 197 190 182
1.000475 -0.705510 4.809101 197 190 182
1.015161 -0.712242 4.879692 197 190 182
0.630860 -0.438109 3.032426 197 190 182
0.631543 -0.436329 3.035711 197 190 182
0.632343 -0.434624 3.039557 197 190 182
0.634172 -0.433617 3.048349 197 190 182
0.633429 -0.430847 3.044775 197 190 182
0.633177 -0.428415 3.043563 197 190 182
0.632536 -0.425723 3.040485 197 190 182
0.632190 -0.423233 3.038819 197 190 182
0.632736 -0.421339 3.041444 197 190 182
0.632748 -0.419088 3.041503 197 190 182
0.631630 -0.416093 3.036129 197 190 182
0.631759 -0.413922 3.036751 197 190 182
0.632109 -0.411894 3.038430 197 190 182
0.631391 -0.409172 3.034980 197 190 182
0.631799 -0.407181 3.036940 197 190 182
0.632695 -0.405499 3.041247 197 190 182
0.633429 -0.403708 3.044775 197 190 182
0.634114 -0.401881 3.048067 197 190 182
0.633642 -0.399320 3.045801 197 190 182
0.632883 -0.396582 3.042154 196 189 181
0.456061 -0.284152 2.192200 196 189 181
0.457636 -0.283499 2.199770 196 189 181
0.459969 -0.278376 2.210988 196 189 181
1.013791 -0.606312 4.873108 196 189 182
0.633429 -0.376569 3.044775 196 188 184
0.632495 -0.373756 3.040286 196 188 184
0.632350 -0.371413 3.039589 196 188 185
0.632393 -0.369180 3.039794 196 188 185
0.632456 -0.366959 3.040098 196 188 185
0.633010 -0.365020 3.042762 196 188 186
0.633057 -0.362787 3.042989 196 188 185
0.633048 -0.360522 3.042944 196 188 184
0.633050 -0.358263 3.042956 196 189 184
0.632588 -0.355743 3.040734 197 190 182
0.631630 -0.352949 3.036129 197 190 181
0.474254 -0.219291 2.279651 197 189 186
1.867413 -0.796801 8.976309 199 192 184
1.861100 -0.787463 8.945964 199 192 184
1.857631 -0.779362 8.929290 199 191 186
1.856403 -0.772219 8.923388 199 191 187
1.304188 -0.272439 6.268992 196 186 183
1.328224 -0.272718 6.384528 196 186 183
1.209064 -0.179183 5.811749 196 188 185
0.460233 -0.051774 2.212256 196 188 185
0.459728 -0.050076 2.209828 196 188 185
0.564964 -0.057505 2.715680 196 188 185
0.626534 -0.059298 3.011635 196 188 185
0.625875 -0.057001 3.008467 196 188 185
0.625065 -0.050232 3.004571 196 188 185
0.630887 -0.048447 3.032557 196 188 185
0.632456 -0.046310 3.040098 196 188 185
0.633040 -0.044092 3.042906 195 187 184
0.633969 -0.041893 3.047371 195 187 184
0.632621 -0.039546 3.040893 195 187 184
0.632463 -0.037278 3.040133 195 187 184
0.620005 -0.007766 2.980249 195 187 182
0.631208 0.016884 3.034101 192 181 179
0.637277 0.019321 3.063273 191 179 178
0.417149 0.033498 2.005156 36 40 52
0.418019 0.035061 2.009341 10 15 25
0.418046 0.036556 2.009469 0 3 13
0.417413 0.037991 2.006428 1 4 14
0.417657 0.039504 2.007599 1 7 17
0.417433 0.040973 2.006521 4 10 21
0.417333 0.042453 2.006044 8 15 27
0.417519 0.043963 2.006935 7 16 26
0.421390 0.054902 2.025542 4 19 26
0.420709 0.056315 2.022268 3 18 25
0.421486 0.057924 2.026004 3 18 25
0.422613 0.059588 2.031423 3 18 25
0.417907 0.063401 2.008802 0 14 23
0.416544 0.064681 2.002251 0 13 22
0.418043 0.066407 2.009454 0 12 21
0.417175 0.067758 2.005281 0 12 20
0.417241 0.069259 2.005599 0 10 14
0.416470 0.070618 2.001894 0 10 12
0.417617 0.072303 2.007409 0 10 12
0.416200 0.073544 2.000596 0 10 12
0.416695 0.075119 2.002976 0 10 12
0.417145 0.076689 2.005137 0 10 12
0.416513 0.078060 2.002103 0 10 12
0.415981 0.079446 1.999543 0 10 12
0.415798 0.080895 1.998663 0 10 12
0.416069 0.082434 1.999966 0 9 11
0.415404 0.083785 1.996770 0 9 12
0.415985 0.085387 1.999563 0 9 12
0.416200 0.086918 2.000596 0 9 12
0.417069 0.088588 2.004771 0 9 12
0.416305 0.089912 2.001100 0 9 12
0.416401 0.091420 2.001564 0 9 11
0.416423 0.092911 2.001666 0 7 10
0.416604 0.094439 2.002538 0 6 10
0.417484 0.096129 2.006768 0 6 10
0.418407 0.097836 2.011204 0 6 10
0.416342 0.098839 2.001278 0 6 10
0.417918 0.100705 2.008853 0 6 10
0.417317 0.102051 2.005967 0 6 10
0.416447 0.103325 2.001785 0 6 10
0.416693 0.104873 2.002966 0 6 10
0.417099 0.106465 2.004919 0 5 11
0.419037 0.108456 2.014235 0 5 11
0.428236 0.115423 2.058451 0 5 11
0.428617 0.117056 2.060282 0 5 11
0.414658 0.114725 1.993183 0 5 11
0.414110 0.116052 1.990552 0 5 10
0.414564 0.117659 1.992731 0 5 9
0.415460 0.119396 1.997038 0 5 8
0.415963 0.121026 1.999458 0 5 8
0.415976 0.122515 1.999519 0 5 8
0.416900 0.124276 2.003959 0 5 8
0.416869 0.125755 2.003810 0 5 8
0.428444 0.133836 2.059450 0 5 8
0.429623 0.135738 2.065119 0 5 8
0.428729 0.136986 2.060822 0 5 8
0.428814 0.138544 2.061230 0 5 8
0.429568 0.140322 2.064856 0 5 8
0.420529 0.143375 2.021404 0 4 8
0.399969 0.150646 1.922578 0 3 5
0.400224 0.152171 1.923805 0 3 4
0.400820 0.153828 1.926666 0 3 4
0.420599 0.164422 2.021742 0 3 4
0.421406 0.166242 2.025619 0 3 4
0.421424 0.167754 2.025707 0 3 4
0.421559 0.169313 2.026354 0 3 4
0.421238 0.170688 2.024814 0 3 4
0.420674 0.171961 2.022100 0 3 4
0.410006 0.170529 1.970826 0 3 4
0.410019 0.171998 1.970886 0 3 3
0.413757 0.183906 1.988853 0 2 0
2.324627 1.157746 11.174055 0 3 0
0.434159 0.239478 2.086923 1 3 0
0.392901 -0.428439 1.881883 197 189 186
0.343277 -0.370663 1.644200 197 189 186
0.604149 -0.643749 2.893703 197 189 186
0.600743 -0.637982 2.877387 197 189 186
0.598788 -0.633776 2.868022 197 189 186
0.624748 -0.654585 2.992364 197 189 187
0.624022 -0.651604 2.988887 199 191 189
0.624779 -0.650172 2.992515 199 190 189
0.625914 -0.649126 2.997950 199 190 191
1.683893 -1.722378 8.065364 199 190 191
0.450932 -0.459634 2.159836 199 190 189
0.453807 -0.460949 2.173604 199 190 188
0.458402 -0.455832 2.195614 199 191 188
0.458290 -0.454091 2.195080 199 191 188
0.456150 -0.448724 2.184828 199 191 188
0.630101 -0.608635 3.018004 199 191 189
0.630543 -0.606819 3.020121 199 191 189
0.629485 -0.603561 3.015054 199 191 189
0.628611 -0.600486 3.010865 199 191 188
0.628011 -0.597679 3.007993 199 191 188
0.629121 -0.596498 3.013312 199 191 188
0.631608 -0.596608 3.025220 199 191 188
0.631342 -0.594111 3.023949 199 191 188
0.630223 -0.590816 3.018587 199 191 188
0.630174 -0.588528 3.018353 199 191 188
0.627904 -0.584174 3.007479 199 191 188
0.541145 -0.478429 2.591928 199 191 188
0.541285 -0.476628 2.592600 199 191 188
0.419130 -0.358626 2.007513 200 193 184
0.419179 -0.357177 2.007746 200 193 183
0.419281 -0.355773 2.008237 200 193 183
0.419376 -0.354361 2.008691 200 193 185
0.418162 -0.351847 2.002876 200 193 185
1.018799 -0.839110 4.879758 199 191 188
0.639942 -0.520243 3.065141 199 191 189
0.637749 -0.511653 3.054633 199 191 186
0.637425 -0.509126 3.053083 199 192 184
0.636044 -0.503497 3.046470 199 192 182
0.634891 -0.500326 3.040949 199 192 182
0.635704 -0.498704 3.044839 199 192 184
0.636152 -0.496793 3.046986 199 192 184
0.542759 -0.400688 2.599663 197 190 182
0.627171 -0.454079 3.003970 197 190 182
0.627670 -0.452208 3.006360 197 190 182
0.995836 -0.696197 4.769770 197 190 182
0.994991 -0.692066 4.765720 197 190 182
0.631971 -0.426078 3.026961 197 190 182
0.632843 -0.424415 3.031139 197 190 182
0.632688 -0.422059 3.030392 197 190 182
0.631441 -0.414489 3.024424 197 190 182
0.631184 -0.412074 3.023190 197 190 182
0.631494 -0.410030 3.024677 197 190 182
0.632289 -0.408297 3.028485 197 190 182
0.632020 -0.403626 3.027193 197 190 183
0.633406 -0.402257 3.033832 197 190 183
0.633633 -0.400147 3.034920 197 190 183
0.634486 -0.398429 3.039005 197 190 182
0.455299 -0.282668 2.180753 196 189 181
0.458220 -0.282851 2.194744 196 189 181
0.458468 -0.281373 2.195929 196 189 181
0.459418 -0.280322 2.200483 196 189 181
0.461612 -0.278376 2.210988 196 189 181
0.634556 -0.375897 3.039340 196 188 183
0.633809 -0.373200 3.035764 196 188 184
0.633956 -0.371031 3.036467 196 188 185
0.634291 -0.368971 3.038073 196 188 185
0.634601 -0.366893 3.039557 196 188 185
0.634847 -0.364777 3.040734 196 188 186
0.634985 -0.362597 3.041398 196 188 185
0.634746 -0.360203 3.040252 196 188 185
0.635039 -0.358110 3.041657 196 189 184
0.634125 -0.355338 3.037279 197 190 182
0.480933 -0.219877 2.303534 197 189 187
0.481022 -0.214784 2.303960 197 190 184
1.844371 -0.784170 8.834011 198 191 183
1.841352 -0.776335 8.819550 198 191 183
1.841188 -0.769716 8.818766 198 191 184
1.840142 -0.762732 8.813752 198 191 185
1.025276 -0.395792 4.910780 198 191 185
1.027059 -0.392827 4.919320 198 191 185
1.345744 -0.304058 6.445727 197 187 183
1.316676 -0.269385 6.306502 196 186 182
1.189168 -0.196760 5.695775 196 189 179
1.189380 -0.175638 5.696793 196 188 185
1.193861 -0.172053 5.718254 196 188 186
0.566982 -0.057505 2.715680 196 188 185
0.628300 -0.059253 3.009378 196 188 185
0.627890 -0.056981 3.007416 196 188 185
0.626086 -0.050135 2.998772 196 188 185
0.630845 -0.048272 3.021569 196 188 185
0.632796 -0.046170 3.030913 196 188 185
0.633591 -0.043974 3.034722 195 187 184
0.634057 -0.041750 3.036950 195 187 184
0.633979 -0.039490 3.036580 195 187 184
0.633321 -0.037195 3.033427 195 187 184
1.210281 -0.023717 5.796903 195 187 184
1.212126 -0.019441 5.805738 195 187 184
0.616475 -0.007694 2.952737 195 187 182
0.634556 0.014655 3.039340 197 186 183
0.636294 0.021486 3.047668 185 175 173
0.418302 0.034960 2.003549 49 53 64
0.418691 0.036482 2.005410 14 17 27
0.418819 0.037983 2.006024 1 5 14
0.418903 0.039481 2.006424 0 5 15
0.418121 0.040895 2.002681 1 6 17
0.418618 0.042433 2.005061 2 7 18
0.418701 0.043931 2.005458 1 9 19
0.419243 0.045479 2.008055 1 11 19
0.421353 0.056201 2.018160 3 19 26
0.422152 0.057810 2.021987 4 20 27
0.422657 0.059382 2.024405 3 19 26
0.422811 0.060908 2.025146 2 17 26
0.422138 0.062313 2.021922 1 16 25
0.417288 0.063082 1.998689 0 15 24
0.418606 0.064770 2.005003 0 14 23
0.418527 0.066247 2.004623 0 13 22
0.416848 0.067464 1.996583 0 13 21
0.418560 0.069230 2.004781 0 11 15
0.418955 0.070786 2.006675 0 11 13
0.417796 0.072077 2.001123 0 11 13
0.417923 0.073586 2.001734 0 11 13
0.417862 0.075061 2.001439 0 11 13
0.417973 0.076568 2.001971 0 11 13
0.418478 0.078150 2.004390 0 10 12
0.416205 0.079206 1.993504 0 10 12
0.418096 0.081053 2.002561 0 10 12
0.417817 0.082486 2.001226 0 10 12
0.416982 0.083804 1.997223 0 10 12
0.416787 0.085248 1.996290 0 10 12
0.417657 0.086912 2.000460 0 10 12
0.417777 0.088423 2.001033 0 10 12
0.418091 0.089977 2.002538 0 10 12
0.417662 0.091370 2.000484 0 9 12
0.418499 0.093042 2.004491 0 7 10
0.418593 0.094552 2.004938 0 7 10
0.419018 0.096139 2.006976 0 7 10
0.419416 0.097722 2.008881 0 7 10
0.418257 0.100429 2.003333 0 7 10
0.419572 0.102237 2.009631 0 7 10
0.419204 0.103639 2.007865 0 7 10
0.417284 0.104649 1.998673 0 7 11
0.417180 0.106107 1.998175 0 6 12
0.419617 0.108219 2.009846 0 6 12
0.426244 0.114478 2.041585 0 6 12
0.426285 0.116005 2.041783 0 6 12
0.414658 0.115792 1.986095 0 6 11
0.414421 0.117200 1.984958 1 6 10
0.415339 0.118937 1.989354 1 6 10
0.415944 0.120590 1.992251 1 6 10
0.417388 0.123979 1.999171 1 6 10
0.425649 0.130975 2.038735 0 5 9
0.427597 0.133096 2.048066 0 5 9
0.428498 0.134901 2.052384 0 5 9
0.426930 0.135926 2.044873 0 5 9
0.426510 0.137310 2.042862 0 5 9
0.427241 0.139065 2.046360 0 5 9
0.427579 0.140696 2.047981 0 5 9
0.414858 0.137986 1.987051 0 5 8
0.415617 0.139717 1.990687 0 4 8
0.415489 0.141153 1.990076 0 5 9
0.419018 0.161731 2.006976 0 2 4
0.418850 0.163156 2.006173 0 2 4
0.419877 0.165050 2.011092 0 3 4
0.419636 0.166448 2.009939 0 3 4
0.418731 0.167579 2.005599 0 3 4
0.418292 0.168891 2.003500 0 3 4
0.418983 0.170661 2.006807 0 3 4
0.411671 0.169147 1.971784 0 3 4
0.409227 0.169599 1.960080 0 3 4
0.409507 0.171172 1.961422 0 3 3
0.414448 0.182084 1.985086 0 2 1
0.411979 0.182465 1.973263 0 2 0
0.413312 0.184525 1.979645 0 2 0
0.414830 0.191107 1.986918 0 3 2
0.436949 0.230832 2.092859 1 3 0
0.432111 0.235963 2.069687 1 3 0
0.429892 0.237810 2.059059 1 3 0
0.394299 -0.428439 1.881883 197 189 186
1.617094 -1.751377 7.717960 197 189 186
0.344499 -0.370663 1.644200 197 189 186
0.602386 -0.639595 2.875030 197 189 186
0.599378 -0.634276 2.860671 197 189 186
0.599668 -0.632457 2.862054 197 189 186
0.602246 -0.633041 2.874361 197 189 186
0.611447 -0.640545 2.918275 197 189 187
0.616980 -0.644155 2.944684 197 189 187
0.617484 -0.642491 2.947086 199 191 189
0.618367 -0.641218 2.951303 199 190 189
0.619846 -0.640554 2.958359 199 190 191
0.810973 -0.835192 3.870561 199 190 191
1.699992 -1.732680 8.113608 199 190 191
0.453159 -0.460266 2.162808 199 190 191
0.455293 -0.460820 2.172994 199 190 189
0.333469 -0.336334 1.591558 199 191 188
0.458784 -0.454595 2.189654 199 191 188
0.459782 -0.453953 2.194417 199 191 188
0.630176 -0.602081 3.007661 199 191 189
0.623329 -0.591120 2.974984 199 191 188
0.628660 -0.593947 3.000427 199 191 188
0.633263 -0.596051 3.022397 199 191 188
0.633940 -0.594441 3.025628 199 191 188
0.531418 -0.468165 2.536319 199 191 188
0.531332 -0.466205 2.535908 199 191 188
0.455630 -0.398167 2.174603 199 191 188
0.420698 -0.360183 2.007879 200 193 185
0.420381 -0.358422 2.006369 200 193 184
0.420908 -0.357379 2.008881 200 193 183
0.420851 -0.355838 2.008608 200 193 184
0.421010 -0.354481 2.009371 200 193 185
0.420095 -0.352221 2.005003 200 193 185
0.638558 -0.503695 3.047668 199 192 183
0.635718 -0.496948 3.034113 199 192 184
0.635887 -0.494826 3.034920 199 192 184
0.532999 -0.393977 2.543863 197 190 182
0.533098 -0.392160 2.544335 197 189 182
0.958466 -0.671094 4.574506 197 189 183
0.837619 -0.565694 3.997733 197 189 183
0.529824 -0.350309 2.528711 197 189 183
0.530094 -0.348608 2.529998 197 189 183
0.530829 -0.347210 2.533505 197 189 183
0.633611 -0.403207 3.024055 197 189 185
0.634716 -0.401661 3.029332 197 189 185
0.635788 -0.400085 3.034448 197 189 185
0.455771 -0.281958 2.175274 196 189 181
0.458270 -0.281879 2.187200 196 189 181
0.462453 -0.279534 2.207163 196 189 181
0.636595 -0.373512 3.038299 196 188 185
0.636759 -0.371350 3.039079 196 188 185
0.637025 -0.369247 3.040350 196 188 185
0.637152 -0.367062 3.040957 196 188 185
0.637450 -0.364974 3.042379 196 188 186
0.637329 -0.362646 3.041804 196 188 185
0.636685 -0.360022 3.038727 196 188 185
0.636310 -0.357555 3.036940 196 189 185
0.636567 -0.355442 3.038167 197 189 184
0.475707 -0.226835 2.270422 199 191 188
0.475618 -0.225106 2.269999 197 189 186
0.475362 -0.223300 2.268775 197 189 186
0.474914 -0.218039 2.266638 197 189 186
0.476823 -0.217225 2.275750 197 189 187
0.476560 -0.213726 2.274495 197 189 185
0.477291 -0.212362 2.277982 197 189 184
1.824298 -0.766418 8.706892 197 190 182
1.823832 -0.759757 8.704668 197 190 182
1.824658 -0.753632 8.708607 197 190 182
1.020684 -0.389005 4.871457 197 190 183
1.353108 -0.304638 6.458026 197 187 183
1.360266 -0.301428 6.492190 197 188 183
1.313841 -0.267852 6.270614 196 188 182
1.168904 -0.192722 5.578866 196 189 179
1.165335 -0.171478 5.561837 196 188 185
1.170070 -0.168026 5.584435 196 188 186
1.172305 -0.164191 5.595099 196 188 185
0.568780 -0.057483 2.714638 196 188 185
0.627864 -0.050099 2.996630 195 187 184
0.632846 -0.048253 3.020405 195 187 184
0.634687 -0.046144 3.029194 195 187 184
0.635015 -0.043916 3.030758 195 187 184
0.635686 -0.041709 3.033962 195 187 184
0.634669 -0.039392 3.029107 195 187 184
0.636140 -0.037229 3.036129 195 187 184
0.420881 0.035051 2.008754 125 127 136
0.419743 0.036444 2.003323 74 78 86
0.420143 0.037968 2.005229 33 37 45
0.420216 0.039464 2.005577 8 11 21
0.420439 0.040976 2.006642 0 2 13
0.419898 0.042411 2.004061 0 3 14
0.420253 0.043937 2.005757 0 7 18
0.420412 0.045444 2.006515 1 11 19
0.688491 0.086626 3.285986 5 21 27
0.423228 0.056251 2.019953 3 20 27
0.422214 0.057613 2.015116 4 21 29
0.421446 0.059002 2.011448 4 21 29
0.423677 0.062319 2.022100 0 18 26
0.419158 0.064626 2.000531 0 15 25
0.419724 0.066201 2.003229 0 14 24
0.418873 0.069037 1.999171 0 11 15
0.419571 0.070639 2.002499 0 11 13
0.419641 0.072138 2.002833 0 11 13
0.417954 0.073330 1.994783 0 11 13
0.419222 0.075039 2.000834 0 11 13
0.419047 0.076493 2.000002 0 11 13
0.418294 0.077838 1.996406 0 11 13
0.418186 0.079301 1.995889 0 11 13
0.418426 0.080830 1.997038 0 10 12
0.419530 0.082530 2.002306 0 10 12
0.418489 0.083809 1.997337 0 10 12
0.417683 0.085128 1.993492 0 10 12
0.418157 0.086707 1.995751 0 10 12
0.418987 0.088364 1.999712 0 10 12
0.418798 0.089809 1.998810 0 10 12
0.419200 0.091382 2.000730 0 10 12
0.418974 0.092818 1.999654 0 8 11
0.419564 0.094436 2.002468 0 7 10
0.419968 0.096015 2.004395 0 7 10
0.422030 0.097983 2.014235 0 7 10
0.419770 0.098947 2.003452 0 7 10
0.418472 0.100124 1.997256 0 8 11
0.418757 0.101677 1.998618 0 8 11
0.420220 0.103522 2.005599 0 8 11
0.417478 0.104326 1.992513 0 7 11
0.417380 0.105781 1.992046 0 7 13
0.417832 0.107377 1.994200 0 7 13
0.419377 0.109261 2.001574 0 7 13
0.419920 0.110891 2.004168 0 7 13
0.427929 0.116040 2.042391 0 7 13
0.417378 0.114658 1.992033 0 7 13
0.416401 0.115866 1.987371 0 6 12
0.416648 0.117412 1.988548 1 6 10
0.416613 0.118879 1.988382 1 6 10
0.417973 0.120749 1.994872 1 6 10
0.418327 0.122334 1.996564 1 6 10
0.418144 0.123763 1.995688 1 6 10
0.419135 0.125542 2.000418 1 6 10
0.422454 0.128034 2.016261 1 6 10
0.420392 0.128899 2.006419 1 6 10
0.430408 0.135022 2.054224 1 6 10
0.424589 0.134702 2.026452 1 6 10
0.423710 0.135925 2.022256 1 6 10
0.424951 0.137829 2.028178 1 6 10
0.426448 0.139827 2.035324 1 6 10
0.415890 0.139314 1.984932 0 5 9
0.415690 0.140720 1.983980 0 5 9
0.416050 0.142317 1.985695 0 5 9
0.417193 0.144187 1.991153 0 5 9
0.416818 0.145535 1.989363 0 4 8
0.415290 0.146474 1.982067 0 3 8
0.416557 0.160211 1.988115 1 2 4
0.416623 0.161713 1.988431 0 2 4
0.417432 0.163507 1.992294 0 3 4
0.417165 0.164881 1.991017 0 3 4
0.416132 0.165948 1.986086 0 3 4
0.414533 0.166780 1.978456 0 3 4
0.415353 0.168582 1.982368 0 3 4
0.414449 0.169685 1.978055 0 3 4
0.409386 0.169063 1.953889 0 3 4
0.408574 0.170177 1.950017 0 3 3
0.416015 0.177700 1.985529 0 2 1
0.415079 0.180243 1.981063 0 2 1
0.412174 0.181904 1.967196 0 2 0
0.412322 0.183431 1.967905 0 2 0
0.411958 0.187650 1.966167 0 2 1
0.413078 0.189625 1.971513 0 3 2
0.392105 0.210578 1.871411 1 3 0
0.425648 0.234628 2.031506 1 3 0
0.395697 -0.428439 1.881883 197 189 186
1.622827 -1.751377 7.717960 197 189 186
0.599884 -0.632569 2.852972 197 189 186
0.601664 -0.632320 2.861436 197 189 186
0.603630 -0.632255 2.870788 197 189 186
0.606411 -0.633025 2.884014 197 189 187
0.610319 -0.634949 2.902601 198 190 188
0.611194 -0.633700 2.906761 199 191 189
0.612130 -0.632508 2.911212 199 190 189
1.693960 -1.744370 8.056264 199 190 191
0.805964 -0.827101 3.833062 199 190 191
1.715406 -1.742215 8.158257 198 190 192
0.454485 -0.459982 2.161474 198 190 191
0.457006 -0.460920 2.173464 198 190 189
0.334794 -0.336478 1.592237 198 191 188
0.460878 -0.455057 2.191880 198 191 188
0.461878 -0.454413 2.196636 198 191 188
0.462096 -0.452994 2.197671 199 191 188
0.636223 -0.592227 3.025796 199 191 188
0.365586 -0.323516 1.738681 199 191 188
0.455214 -0.401222 2.164942 199 191 188
0.420923 -0.359103 2.001858 199 192 186
0.421101 -0.357767 2.002703 199 192 185
0.421760 -0.356838 2.005839 199 192 185
0.421733 -0.355325 2.005710 199 192 185
0.421583 -0.353709 2.004995 199 192 185
0.420966 -0.351704 2.002061 199 192 186
0.646720 -0.522039 3.075722 199 191 188
0.649878 -0.513109 3.090737 199 192 185
0.639318 -0.495738 3.040514 199 191 187
0.521866 -0.389915 2.481927 199 191 187
0.521778 -0.388007 2.481509 199 191 187
0.527709 -0.388689 2.509718 197 189 186
0.526720 -0.386100 2.505014 197 189 186
0.528531 -0.385560 2.513625 197 189 186
0.366412 -0.260824 1.742609 197 189 186
0.366685 -0.259723 1.743908 197 189 186
0.526172 -0.348524 2.502408 197 189 186
0.526172 -0.346665 2.502408 197 189 186
0.526172 -0.344807 2.502408 197 189 186
0.526172 -0.342948 2.502408 197 189 186
0.526421 -0.341250 2.503592 197 189 186
0.526172 -0.339230 2.502408 197 189 186
0.639112 -0.405272 3.039539 197 189 186
0.638597 -0.402689 3.037087 197 189 186
0.639217 -0.400822 3.040038 197 189 186
0.641065 -0.399716 3.048826 197 189 185
0.459789 -0.280190 2.186700 197 190 180
0.463631 -0.279256 2.204973 197 190 182
0.464306 -0.278023 2.208183 197 190 182
0.466229 -0.277527 2.217325 197 190 182
0.638117 -0.370828 3.034803 197 189 186
0.638122 -0.368577 3.034828 197 189 186
0.637877 -0.366182 3.033661 197 189 186
0.638120 -0.364067 3.034821 197 189 186
0.638058 -0.361778 3.034526 197 189 186
0.637680 -0.359311 3.032727 197 189 186
0.637497 -0.356956 3.031858 197 189 186
0.637506 -0.354709 3.031900 197 189 185
0.465630 -0.255787 2.214477 197 189 185
0.466098 -0.254398 2.216703 197 189 185
0.464896 -0.252100 2.210988 197 189 185
0.467037 -0.251611 2.221169 197 189 186
0.521507 -0.255164 2.480221 199 191 188
0.522885 -0.253992 2.486775 199 191 188
0.521487 -0.251471 2.480129 199 191 188
1.836633 -0.762387 8.734796 197 190 182
1.834565 -0.755048 8.724963 197 190 182
0.526514 -0.209257 2.504036 197 190 182
0.529132 -0.208428 2.516487 197 190 182
0.648728 -0.099706 3.085270 196 188 183
0.570811 -0.057484 2.714705 196 188 185
1.098408 -0.025253 5.223892 195 187 184
1.178853 -0.014610 5.606479 195 187 184
0.422332 0.035047 2.008560 199 199 204
0.422688 0.036570 2.010253 166 167 173
0.420855 0.037898 2.001535 112 113 120
0.421589 0.039453 2.005027 53 55 64
0.421096 0.040895 2.002681 16 16 28
0.421751 0.042448 2.005797 2 3 16
0.421972 0.043961 2.006848 1 6 17
0.421956 0.045450 2.006768 2 10 19
0.424473 0.057717 2.018743 4 21 28
0.424278 0.059189 2.017813 3 21 28
0.422865 0.060486 2.011092 1 20 26
0.425860 0.062418 2.025335 0 19 26
0.425201 0.063824 2.022203 0 18 25
0.420846 0.064657 2.001490 0 16 24
0.421613 0.066264 2.005137 0 15 22
0.420620 0.067594 2.000418 0 14 21
0.420046 0.068985 1.997686 0 12 15
0.420297 0.070511 1.998878 0 11 13
0.421487 0.072200 2.004539 0 11 13
0.420871 0.073581 2.001608 0 11 13
0.420654 0.075029 2.000578 0 11 13
0.420679 0.076520 2.000698 0 11 13
0.421108 0.078085 2.002738 0 11 13
0.418770 0.079131 1.991616 1 11 13
0.420686 0.080979 2.000730 0 10 12
0.420754 0.082478 2.001052 0 10 12
0.420647 0.083943 2.000545 0 10 12
0.420186 0.085336 1.998353 0 11 13
0.420092 0.086801 1.997905 0 11 13
0.420508 0.088372 1.999883 0 11 13
0.420748 0.089909 2.001024 0 10 12
0.420358 0.091310 1.999171 0 10 12
0.420883 0.092911 2.001666 0 9 11
0.420422 0.094295 1.999476 0 8 11
0.422363 0.096222 2.008706 0 8 11
0.422303 0.097700 2.008421 0 8 11
0.422332 0.099199 2.008560 0 8 11
0.423054 0.100863 2.011990 0 8 11
0.423026 0.102350 2.011858 0 8 11
0.422047 0.105095 2.007201 0 7 11
0.419313 0.105896 1.994200 0 7 13
0.420200 0.107604 1.998416 0 7 13
0.419741 0.108969 1.996236 0 7 13
0.429094 0.115945 2.040719 0 7 13
0.417691 0.115815 1.986489 0 6 12
0.416188 0.116868 1.979340 1 6 9
0.416856 0.118528 1.982514 1 6 9
0.416825 0.119992 1.982368 1 6 9
0.416874 0.121478 1.982599 1 6 10
0.431519 0.134892 2.052252 1 6 10
0.427933 0.136795 2.035195 1 6 10
0.428592 0.138519 2.038329 0 6 10
0.430006 0.140495 2.045056 0 6 10
0.434214 0.143404 2.065068 0 6 10
0.434019 0.144873 2.064138 0 6 9
0.416421 0.140470 1.980447 1 6 10
0.416502 0.141968 1.980829 1 6 10
0.418411 0.144097 1.989911 0 5 9
0.414242 0.145588 1.970081 0 4 8
0.425987 0.161754 2.025940 1 2 4
0.425425 0.163044 2.023270 1 2 4
0.422729 0.164997 2.010448 0 3 4
0.412993 0.165574 1.964142 0 3 4
0.414530 0.183762 1.971452 0 2 0
0.413712 0.187783 1.967560 0 2 1
0.412913 0.188880 1.963763 0 3 3
0.392147 0.209856 1.865002 0 3 0
0.424379 0.228604 2.018291 0 2 0
0.425020 0.230451 2.021344 0 2 0
0.425738 0.233848 2.024758 1 3 0
0.397094 -0.428439 1.881883 197 189 185
1.628559 -1.751377 7.717960 197 189 185
0.600740 -0.631242 2.846989 197 189 186
0.601197 -0.629606 2.849152 197 189 186
0.602127 -0.628460 2.853560 197 189 186
0.602663 -0.626898 2.856100 197 189 187
0.604847 -0.627041 2.866450 198 190 188
1.689183 -1.739273 8.005263 197 191 189
1.696949 -1.741296 8.042067 197 190 191
0.799206 -0.817279 3.787543 197 190 191
1.694972 -1.715402 8.032698 197 190 191
0.455393 -0.459279 2.158168 196 190 190
0.457989 -0.460285 2.170473 196 191 189
0.460814 -0.453392 2.183860 196 192 188
0.461127 -0.452076 2.185344 197 191 188
0.461162 -0.450487 2.185508 198 191 188
0.460875 -0.448584 2.184147 199 191 188
0.509904 -0.485536 2.416502 199 191 188
0.510463 -0.484272 2.419155 199 191 188
0.459922 -0.395850 2.179630 199 191 188
0.508462 -0.435838 2.409668 199 191 188
0.422545 -0.359218 2.002499 199 191 186
0.422537 -0.357724 2.002459 199 191 186
0.423206 -0.356800 2.005628 199 191 186
0.423211 -0.355315 2.005653 199 191 186
0.423173 -0.353794 2.005475 199 191 187
0.422538 -0.351775 2.002464 199 191 188
0.422462 -0.350225 2.002103 199 191 188
0.648742 -0.521827 3.074473 199 191 188
0.648732 -0.519536 3.074429 199 191 188
0.650887 -0.516679 3.084640 199 191 188
0.650502 -0.514084 3.082816 199 191 187
0.642272 -0.503058 3.043812 199 191 187
0.640818 -0.499664 3.036922 199 191 187
0.640556 -0.497204 3.035678 199 191 187
0.641162 -0.495418 3.038551 199 191 188
1.033216 -0.780168 4.896547 199 191 188
1.035888 -0.778540 4.909214 199 191 188
0.519254 -0.386598 2.460813 199 191 188
0.520297 -0.385543 2.465756 199 191 188
0.521368 -0.384502 2.470833 199 191 188
0.519706 -0.381447 2.462955 197 189 186
0.521598 -0.380999 2.471921 197 189 186
0.521953 -0.379422 2.473608 197 189 186
0.367144 -0.260425 1.739944 197 189 186
0.367277 -0.259227 1.740576 197 189 186
0.367433 -0.258043 1.741312 197 189 186
0.921006 -0.640325 4.364771 197 189 186
0.523225 -0.343510 2.479634 197 189 186
0.523387 -0.341774 2.480402 197 189 186
0.523133 -0.339767 2.479199 197 189 186
0.523084 -0.337894 2.478966 197 189 186
0.522979 -0.335985 2.478469 197 189 186
0.522979 -0.334144 2.478469 197 189 186
0.522979 -0.332303 2.478469 197 189 186
0.640853 -0.404945 3.037087 197 189 186
0.642069 -0.403453 3.042849 197 189 187
0.640853 -0.400433 3.037087 197 189 186
0.641475 -0.398564 3.040038 197 189 185
0.468031 -0.287504 2.218063 197 190 182
0.460660 -0.278111 2.183128 197 190 180
0.464043 -0.278520 2.199163 197 190 182
0.464940 -0.277422 2.203414 197 190 182
0.469870 -0.275402 2.226776 197 189 184
0.641013 -0.371200 3.037846 197 189 186
0.640723 -0.364266 3.036472 197 189 186
0.640231 -0.361732 3.034139 197 189 186
0.640225 -0.359475 3.034113 197 189 186
0.640348 -0.357290 3.034693 197 189 186
0.469870 -0.258862 2.226776 197 189 186
0.468091 -0.256234 2.218346 197 189 186
0.466309 -0.253617 2.209900 197 189 186
0.463859 -0.250652 2.198289 197 189 186
0.466971 -0.250690 2.213039 197 189 186
0.464389 -0.247669 2.200803 197 189 186
0.433044 -0.223330 2.052252 197 189 186
0.432092 -0.221318 2.047742 197 189 186
0.521038 -0.255872 2.469269 199 191 188
0.520328 -0.253692 2.465906 199 191 188
0.521358 -0.252358 2.470785 199 191 188
0.521363 -0.250526 2.470811 199 191 188
0.522057 -0.249022 2.474100 199 191 188
1.836398 -0.753142 8.702934 197 190 182
0.522559 -0.206954 2.476477 197 190 182
0.527299 -0.206975 2.498943 197 190 182
0.528801 -0.205703 2.506058 197 190 182
0.463182 -0.147568 2.195080 197 188 181
0.460194 -0.132037 2.180923 197 188 181
0.459134 -0.130117 2.175895 197 188 180
1.377253 -0.298195 6.526986 196 189 181
0.473249 -0.069148 2.242790 196 188 185
0.471762 -0.067270 2.235743 196 188 186
0.470392 -0.065419 2.229252 196 188 185
0.474814 -0.057677 2.250207 196 188 185
0.474905 -0.056016 2.250638 196 188 185
0.474315 -0.054277 2.247842 196 188 185
0.572558 -0.057457 2.713427 196 188 185
0.485137 -0.041853 2.299131 195 187 184
0.646020 -0.046637 3.061574 195 187 184
0.643966 -0.041955 3.051843 195 187 184
1.090396 -0.036496 5.167534 195 187 184
1.098679 -0.025170 5.206787 195 187 184
1.105897 -0.021443 5.240992 195 187 184
1.108092 -0.017585 5.251395 195 187 184
1.175642 -0.010380 5.571524 193 185 182
0.423745 0.036532 2.008183 213 211 215
0.424681 0.038108 2.012618 186 185 190
0.422342 0.039385 2.001535 134 133 141
0.422718 0.040908 2.003315 76 75 86
0.422291 0.042353 2.001293 35 34 47
0.423553 0.043970 2.007275 12 15 26
0.424133 0.045524 2.010022 1 7 16
0.424537 0.060511 2.011939 0 18 23
0.424542 0.062006 2.011961 0 19 24
0.425307 0.063615 2.015586 0 20 25
0.423048 0.064766 2.004884 0 19 25
0.422358 0.066147 2.001613 0 16 22
0.421456 0.067490 1.997337 0 14 18
0.421218 0.070417 1.996211 1 15 15
0.421843 0.072006 1.999171 2 14 14
0.421910 0.073503 1.999487 1 13 13
0.421520 0.074919 1.997639 1 11 13
0.421946 0.076480 1.999660 0 11 12
0.421608 0.077903 1.998056 1 10 12
0.421143 0.079299 1.995854 1 10 13
0.421493 0.080849 1.997511 0 8 13
0.421950 0.082422 1.999677 0 8 13
0.421784 0.083874 1.998891 1 9 14
0.421439 0.085289 1.997256 0 9 13
0.421651 0.086816 1.998260 0 9 13
0.421934 0.088360 1.999602 0 9 14
0.421778 0.089812 1.998864 0 10 14
0.421958 0.091335 1.999714 0 10 13
0.421411 0.092700 1.997121 0 8 11
0.422311 0.094385 2.001389 0 8 11
0.422850 0.095994 2.003945 0 8 11
0.423996 0.097747 2.009376 0 8 11
0.423060 0.099020 2.004938 0 8 11
0.424020 0.100737 2.009485 0 8 11
0.423756 0.102166 2.008237 0 8 11
0.423475 0.103589 2.006903 0 8 11
0.421341 0.104550 1.996790 0 7 11
0.422833 0.106409 2.003864 0 7 12
0.422335 0.107770 2.001500 0 7 12
0.424090 0.112696 2.009819 0 7 13
0.426629 0.114873 2.021853 0 7 13
0.423446 0.115506 2.006768 0 7 12
0.421868 0.116561 1.999287 0 7 10
0.418416 0.117080 1.982929 0 6 8
0.418712 0.118637 1.984330 1 6 9
0.417299 0.121174 1.977634 1 6 9
0.423427 0.133387 2.006675 1 6 10
0.426479 0.135850 2.021140 1 6 10
0.427408 0.137650 2.025542 0 6 10
0.427630 0.139227 2.026598 0 7 10
0.427322 0.140631 2.025136 0 7 10
0.429977 0.143018 2.037719 0 7 10
0.430234 0.144618 2.038939 1 7 10
0.420985 0.144473 1.995102 1 6 10
0.425298 0.162421 2.015542 1 2 4
0.421960 0.162632 1.999725 0 2 4
0.421493 0.163935 1.997511 0 2 4
0.411083 0.164228 1.948175 0 3 4
0.416129 0.183821 1.972092 0 2 0
0.416992 0.185670 1.976181 0 2 0
0.422063 0.229528 2.000215 1 3 0
0.425939 0.233135 2.018581 1 3 0
0.398492 -0.428439 1.881883 197 190 183
1.634292 -1.751377 7.717960 197 190 183
0.599846 -0.630196 2.832780 196 188 186
0.599190 -0.627405 2.829683 196 187 186
0.599479 -0.625605 2.831047 197 187 186
0.599526 -0.623551 2.831269 196 188 186
0.599704 -0.621633 2.832110 196 188 186
1.680001 -1.729644 7.933822 195 190 187
1.676049 -1.719696 7.915156 194 190 187
1.684737 -1.722702 7.956190 194 190 187
1.679486 -1.693767 7.931390 195 189 189
0.455502 -0.457778 2.151114 195 190 187
0.458542 -0.459225 2.165471 196 191 188
0.460093 -0.447866 2.172792 197 191 188
0.460081 -0.446241 2.172738 198 191 188
0.508947 -0.481140 2.403505 199 191 188
0.816528 -0.751867 3.856062 199 191 188
0.735240 -0.658963 3.472178 199 191 188
0.451466 -0.395127 2.132051 199 191 188
0.455619 -0.395565 2.151664 199 191 188
0.456482 -0.394714 2.155740 199 191 188
0.455598 -0.389155 2.151567 199 191 188
0.424572 -0.355207 2.005043 199 191 188
0.424543 -0.353694 2.004910 199 191 188
0.423981 -0.351739 2.002256 199 191 188
0.423659 -0.349985 2.000735 199 191 188
0.649794 -0.520841 3.068660 199 191 188
0.650846 -0.519400 3.073626 199 191 188
0.651504 -0.515355 3.076733 199 191 188
0.648471 -0.510681 3.062410 199 191 188
0.645447 -0.506036 3.048131 199 191 188
0.642906 -0.501788 3.036129 199 191 188
0.642029 -0.498852 3.031989 199 191 188
0.641971 -0.496555 3.031714 199 191 188
0.642662 -0.494835 3.034980 199 191 188
1.037922 -0.780973 4.901599 199 191 188
1.037238 -0.776819 4.898367 199 191 188
0.517666 -0.384065 2.444684 199 191 188
0.518328 -0.382737 2.447807 199 191 188
0.520044 -0.382181 2.455915 199 191 188
0.519620 -0.380046 2.453911 197 189 186
0.518035 -0.377069 2.446425 197 189 186
0.518481 -0.375575 2.448531 197 189 186
0.745535 -0.492975 3.520795 197 189 186
0.521174 -0.340963 2.461249 197 189 186
0.521963 -0.339648 2.464974 197 189 186
0.520682 -0.336989 2.458927 197 189 186
0.520559 -0.335083 2.458347 197 189 186
0.520275 -0.333075 2.457004 197 189 186
0.520179 -0.331189 2.456548 197 189 186
0.642802 -0.404752 3.035640 197 189 186
0.643699 -0.403059 3.039876 197 189 187
0.644200 -0.401113 3.042241 197 189 186
0.643005 -0.398113 3.036598 197 189 185
0.467077 -0.285911 2.205776 197 190 182
0.466927 -0.284182 2.205067 197 190 181
0.465249 -0.276632 2.197142 197 190 182
0.466466 -0.275720 2.202890 197 190 182
0.642175 -0.370568 3.032677 197 189 186
0.641309 -0.361070 3.028587 197 189 186
0.452971 -0.250265 2.139160 197 189 186
0.471524 -0.258862 2.226776 197 189 186
0.469822 -0.256279 2.218740 197 189 186
0.466577 -0.252873 2.203414 197 189 186
0.433044 -0.221028 2.045056 197 189 186
0.517509 -0.253247 2.443939 199 191 188
0.516965 -0.251168 2.441374 199 191 188
0.519235 -0.250449 2.452092 199 191 188
0.519932 -0.248962 2.455384 199 191 188
0.519091 -0.204859 2.451410 197 190 182
0.523895 -0.204917 2.474100 197 190 182
1.379737 -0.297685 6.515821 196 189 181
0.654313 -0.104449 3.089998 196 189 180
0.470895 -0.068562 2.223805 196 188 185
0.469972 -0.066779 2.219446 196 188 186
0.469661 -0.065088 2.217977 196 188 185
0.469438 -0.063410 2.216926 196 188 185
0.470772 -0.061939 2.223224 196 188 185
0.472198 -0.055501 2.229960 196 188 185
0.471860 -0.053806 2.228362 196 188 185
0.471332 -0.052093 2.225871 196 188 185
0.647317 -0.044296 3.056962 195 187 184
0.646233 -0.041955 3.051843 195 187 184
0.643447 -0.032746 3.038686 195 187 184
1.084754 -0.036179 5.122761 195 187 184
0.478998 -0.014296 2.262071 195 187 184
1.092620 -0.024944 5.159909 195 187 184
1.092917 -0.021117 5.161311 195 187 184
1.092482 -0.017276 5.159259 195 187 184
0.661827 0.015071 3.125483 193 185 182
0.531105 0.041901 2.508148 188 184 183
0.424761 0.037981 2.005937 213 211 215
0.425531 0.039543 2.009576 201 199 206
0.423489 0.040839 1.999932 160 158 167
0.424386 0.042414 2.004168 110 109 120
0.425094 0.043976 2.007513 61 62 72
0.425011 0.045458 2.007118 18 22 30
0.426560 0.056097 2.014434 2 12 16
0.425698 0.057477 2.010364 6 24 28
0.425690 0.060463 2.010326 2 22 28
0.427037 0.062152 2.016685 2 23 28
0.426801 0.063615 2.015571 4 25 29
0.426323 0.065039 2.013316 7 26 30
0.423328 0.066067 1.999171 9 27 31
0.422275 0.067384 1.994200 9 27 31
0.421112 0.068675 1.988705 1 16 16
0.420532 0.070056 1.985969 1 16 16
0.422902 0.071934 1.997158 1 15 15
0.422787 0.073397 1.996615 1 14 14
0.423741 0.075050 2.001123 1 12 13
0.423081 0.076417 1.998006 1 11 13
0.423328 0.077946 1.999171 1 10 13
0.422275 0.079234 1.994200 3 9 13
0.423313 0.080913 1.999099 1 7 13
0.423254 0.082387 1.998824 1 7 13
0.423224 0.083865 1.998680 1 8 14
0.423465 0.085398 1.999817 0 8 14
0.423419 0.086874 1.999602 0 8 14
0.423603 0.088398 2.000469 0 8 15
0.422894 0.089733 1.997121 0 9 16
0.422399 0.091110 1.994783 0 9 14
0.423302 0.092790 1.999050 0 8 12
0.423140 0.094238 1.998284 0 8 11
0.424408 0.096009 2.004269 0 8 11
0.424565 0.097534 2.005013 0 8 11
0.425000 0.099125 2.007066 0 8 11
0.425183 0.100659 2.007931 0 8 11
0.425790 0.102296 2.010797 0 8 11
0.423915 0.103333 2.001944 0 8 11
0.422028 0.104353 1.993034 0 8 11
0.421278 0.105645 1.989488 0 8 11
0.424761 0.108009 2.005937 0 7 11
0.421301 0.108607 1.989597 0 7 13
0.422977 0.110523 1.997511 0 7 13
0.423856 0.112239 2.001666 0 7 13
0.425178 0.114081 2.007907 0 7 13
0.423424 0.115095 1.999624 0 7 12
0.423558 0.116617 2.000255 0 7 10
0.421079 0.118889 1.988548 0 7 5
0.421189 0.120397 1.989070 0 7 7
0.432351 0.129654 2.041783 0 7 7
0.422849 0.132738 1.996908 0 6 9
0.424223 0.134657 2.003397 0 6 9
0.426042 0.136729 2.011990 0 6 9
0.424945 0.137868 2.006807 0 7 10
0.422475 0.138548 1.995145 0 6 10
0.426067 0.141221 2.012108 0 6 10
0.426014 0.142698 2.011858 0 7 10
0.421885 0.144274 1.992356 0 6 10
0.428942 0.158725 2.025684 0 2 3
0.423040 0.160992 1.997813 1 2 2
0.423856 0.162790 2.001666 1 2 2
0.412911 0.164379 1.949975 0 3 2
0.415660 0.166932 1.962958 0 3 2
0.417773 0.169246 1.972939 0 3 2
0.420102 0.171663 1.983938 0 3 2
0.419263 0.172791 1.979975 0 3 2
0.419296 0.174275 1.980131 0 3 2
0.420706 0.182240 1.986789 0 2 1
0.418116 0.182585 1.974558 0 2 0
0.417172 0.183636 1.970101 0 2 0
0.416511 0.184806 1.966978 0 2 0
0.414830 0.185515 1.959039 0 2 0
0.416294 0.187630 1.965953 0 2 2
0.417125 0.189467 1.969875 0 3 3
0.416450 0.224220 1.966689 1 3 0
0.419955 0.227580 1.983240 1 3 0
0.423328 0.230893 1.999171 1 3 0
0.399890 -0.428439 1.881883 197 190 181
1.086812 -1.156804 5.114542 197 190 182
0.602658 -0.633044 2.836112 196 188 186
0.602485 -0.630756 2.835295 196 187 186
0.602050 -0.628196 2.833250 197 187 186
0.601769 -0.625799 2.831925 197 187 186
0.601527 -0.623445 2.830786 196 187 186
0.601204 -0.621009 2.829268 195 188 186
0.600696 -0.618385 2.826878 194 189 186
1.676298 -1.719800 7.888665 194 190 187
1.674537 -1.712139 7.880374 193 190 187
1.684094 -1.716025 7.925354 192 190 187
0.774760 -0.786741 3.646021 193 190 187
0.373823 -0.376990 1.759211 194 189 187
0.459791 -0.458866 2.163778 195 191 188
0.720902 -0.706851 3.392565 194 193 189
0.462593 -0.445492 2.176965 199 190 188
0.583656 -0.529437 2.746685 199 191 188
0.584122 -0.527818 2.748882 199 191 188
0.739338 -0.660320 3.479328 199 191 188
0.457326 -0.394061 2.152176 199 191 188
0.456974 -0.388966 2.150523 199 191 188
0.425875 -0.355052 2.004168 199 191 188
0.425938 -0.353616 2.004465 199 191 188
0.425290 -0.351591 2.001417 199 191 188
0.647102 -0.507822 3.045266 199 191 188
0.645335 -0.504180 3.036950 199 191 188
0.643886 -0.500796 3.030128 199 191 188
0.643074 -0.497917 3.026308 199 191 188
0.642989 -0.495604 3.025906 199 191 188
0.643867 -0.494030 3.030042 199 191 188
1.387917 -1.045523 6.531541 199 191 188
1.034281 -0.775513 4.867329 199 191 188
1.034428 -0.772007 4.868021 199 191 188
1.034052 -0.768112 4.866251 199 191 188
0.518218 -0.383130 2.438736 199 191 188
0.518209 -0.381312 2.438693 199 191 188
0.743307 -0.544347 3.498005 199 191 188
0.520139 -0.379096 2.447776 197 189 186
0.519630 -0.376909 2.445382 197 189 186
0.518421 -0.374219 2.439690 197 189 186
0.745464 -0.532898 3.508158 197 189 186
0.745926 -0.530621 3.510331 197 189 186
0.745191 -0.527493 3.506870 197 189 186
0.746246 -0.525631 3.511834 197 189 186
0.366431 -0.256821 1.724427 197 189 186
0.886426 -0.611976 4.171524 197 189 186
0.885914 -0.608525 4.169114 197 189 186
0.890027 -0.608240 4.188470 197 189 186
0.718099 -0.480705 3.379378 197 189 186
0.746212 -0.491698 3.511675 197 189 186
0.742798 -0.486853 3.495610 197 189 186
0.746628 -0.486753 3.513634 197 189 186
0.521106 -0.336084 2.452324 197 189 186
0.520911 -0.334138 2.451410 197 189 186
0.520640 -0.332144 2.450131 197 189 186
0.520321 -0.330121 2.448630 197 189 186
0.519450 -0.327754 2.444535 197 189 186
0.644438 -0.404363 3.032727 197 189 186
0.644390 -0.395324 3.032503 197 189 183
0.467256 -0.283388 2.198907 197 190 181
0.464605 -0.275284 2.186431 197 190 182
0.465774 -0.274349 2.191935 197 190 182
0.461016 -0.247374 2.169544 197 189 186
0.462392 -0.246496 2.176019 197 189 186
0.434362 -0.222444 2.044108 197 189 186
0.434286 -0.220887 2.043753 197 189 186
0.514345 -0.250819 2.420507 199 191 188
0.513413 -0.248570 2.416122 199 191 188
0.462727 -0.206238 2.177595 197 189 186
0.463454 -0.204943 2.181017 197 189 185
0.483470 -0.207034 2.275212 197 190 180
3.258705 -0.734796 15.335476 196 189 181
1.377959 -0.305895 6.484677 196 189 181
1.382637 -0.302101 6.506694 196 189 181
1.383450 -0.297443 6.510518 196 189 181
0.469916 -0.068181 2.211424 196 188 185
0.470564 -0.066630 2.214477 196 188 186
0.470259 -0.064943 2.213039 196 188 185
0.471057 -0.063406 2.216794 196 188 185
0.472137 -0.061902 2.221879 196 188 185
1.945899 -0.248324 9.157406 196 188 185
0.472487 -0.055341 2.223526 196 188 185
0.472615 -0.053704 2.224129 196 188 185
0.477995 -0.039278 2.249448 195 187 184
0.519397 -0.039049 2.444286 195 187 184
0.476153 -0.015825 2.240776 195 187 184
0.476371 -0.014168 2.241802 195 187 184
1.094601 -0.024902 5.151195 195 187 184
1.093890 -0.021062 5.147850 195 187 184
1.093081 -0.017225 5.144044 195 187 184
0.579692 0.000996 2.728030 193 185 182
0.580000 0.003024 2.729482 193 185 182
0.653770 0.021691 3.076646 193 185 182
0.655082 0.024024 3.082816 193 185 182
0.655194 0.026318 3.083343 193 185 182
0.657187 0.028696 3.092724 193 185 182
0.532468 0.040001 2.505797 193 189 185
0.530149 0.041680 2.494883 189 185 183
0.527220 0.043292 2.481098 181 179 176
0.526983 0.045115 2.479985 185 184 182
0.526156 0.046883 2.476093 202 200 202
0.426942 0.044012 2.009189 142 141 150
0.426998 0.045511 2.009454 83 86 93
0.718897 0.086674 3.383132 0 5 9
0.426778 0.055930 2.008417 5 19 25
0.427769 0.057555 2.013080 4 20 26
0.427228 0.058975 2.010535 2 21 28
0.426885 0.060420 2.008924 2 21 28
0.428817 0.062193 2.018012 1 20 27
0.429068 0.063729 2.019195 1 20 26
0.426233 0.064798 2.005855 1 18 25
