ply
format ascii 1.0
element vertex 1302
property float x
property float y
property float z
property uchar red
property uchar green
property uchar blue
end_header
0.173883 0.135213 2.206748 0 1 5
0.175396 0.138043 2.225951 0 1 5
0.166560 0.143649 2.113817 0 0 2
0.166560 0.145219 2.113817 1 1 3
0.167586 0.147693 2.126831 0 0 1
0.167277 0.148998 2.122913 0 0 1
0.169475 0.160541 2.150807 1 0 5
0.169680 0.162334 2.153404 1 0 5
0.167023 0.164516 2.119689 0 0 2
0.166382 0.165453 2.111555 0 0 2
0.166093 0.166732 2.107890 0 0 2
0.165882 0.168083 2.105212 0 0 2
0.165951 0.169717 2.106079 0 0 2
0.165871 0.171199 2.105065 0 0 2
0.165823 0.172713 2.104461 0 0 2
0.165817 0.174270 2.104383 0 0 4
0.166208 0.176247 2.109345 0 0 6
0.166656 0.178293 2.115029 0 0 8
0.166971 0.180204 2.119022 0 0 8
0.166630 0.181407 2.114698 0 0 8
0.167662 0.188852 2.127793 0 0 8
0.167708 0.190484 2.128376 0 0 10
0.167305 0.191605 2.123270 0 0 10
0.167463 0.193364 2.125270 0 0 10
0.168040 0.195614 2.132591 0 0 10
0.164909 0.204405 2.092859 0 0 10
0.166265 0.210788 2.110071 0 0 10
0.166100 0.212145 2.107979 0 0 10
0.165894 0.213445 2.105355 0 0 10
0.165925 0.215049 2.105751 1 1 11
0.166147 0.216903 2.108569 1 1 11
0.165969 0.224493 2.106305 1 1 11
0.164520 0.227186 2.087926 0 0 10
0.166639 0.231682 2.114808 0 0 10
0.141075 -0.403801 1.773663 193 183 190
0.276040 -0.787536 3.470510 192 184 189
0.301375 -0.856999 3.789024 190 184 188
2.282617 -6.448299 28.698149 189 185 188
5.773276 -16.255350 72.584358 187 185 186
0.199188 -0.557119 2.504292 187 185 186
0.152769 -0.425860 1.920686 187 185 186
0.251985 -0.700080 3.168070 189 185 186
0.173643 -0.469455 2.183128 192 183 186
0.152041 -0.398273 1.911529 190 180 188
0.238243 -0.617406 2.995303 190 180 188
0.238831 -0.616699 3.002692 190 180 188
0.690265 -1.666344 8.678332 189 180 183
0.137407 -0.317595 1.727548 189 179 187
0.137566 -0.316678 1.729549 189 179 187
0.137871 -0.316091 1.733373 189 179 187
0.137614 -0.314219 1.730154 189 179 187
0.137362 -0.312359 1.726978 190 180 188
0.143268 -0.312410 1.801230 189 179 187
0.167895 -0.361408 2.110850 189 179 187
0.167716 -0.359458 2.108607 189 179 187
0.168107 -0.358726 2.113523 189 180 186
0.167734 -0.356364 2.108834 189 180 184
0.167959 -0.352135 2.111656 189 180 183
0.167661 -0.349945 2.107909 189 180 183
0.167814 -0.348697 2.109833 189 180 183
0.285644 -0.569528 3.591254 190 181 184
0.286331 -0.565550 3.599895 190 181 184
0.285909 -0.559376 3.594584 192 183 186
0.285143 -0.555214 3.584947 192 183 186
0.289697 -0.558670 3.642203 192 183 186
0.290288 -0.557101 3.649642 192 183 186
0.289148 -0.552212 3.635303 192 183 187
0.288730 -0.548718 3.630053 192 183 188
0.286682 -0.542149 3.604308 192 183 188
0.190178 -0.308146 2.391013 59 74 108
0.190763 -0.307312 2.398364 64 82 113
0.190837 -0.305649 2.399297 61 82 107
0.189762 -0.302154 2.385772 50 75 97
0.191073 -0.302459 2.402265 26 52 74
0.188639 -0.296844 2.371660 27 54 75
0.189940 -0.297117 2.388016 25 50 72
0.190104 -0.295597 2.390071 16 41 60
0.189745 -0.293268 2.385560 10 33 50
0.189002 -0.290354 2.376219 8 30 44
0.187860 -0.286846 2.361863 4 23 38
0.187930 -0.285197 2.362740 0 14 28
0.187163 -0.282286 2.353102 0 13 25
0.186684 -0.279820 2.347080 0 14 24
0.186112 -0.277225 2.339890 0 15 25
0.187582 -0.277664 2.358375 0 14 24
0.187593 -0.275928 2.358511 0 12 21
0.187586 -0.274165 2.358419 0 10 19
0.186622 -0.271013 2.346296 0 8 17
0.186484 -0.269071 2.344562 0 7 16
0.185782 -0.266324 2.335739 2 11 19
0.185451 -0.264117 2.331574 3 13 22
0.186040 -0.263219 2.338983 2 12 21
0.185879 -0.261255 2.336956 1 11 20
0.186257 -0.260048 2.341712 0 10 19
0.186026 -0.257987 2.338804 0 9 18
0.185999 -0.256213 2.338463 0 8 18
0.185846 -0.254268 2.336548 0 8 17
0.187099 -0.254235 2.352302 0 8 16
0.185972 -0.250966 2.338122 1 8 16
0.187967 -0.251903 2.363208 1 8 15
0.188852 -0.251325 2.374335 0 8 13
0.188293 -0.248824 2.367314 0 7 12
0.188149 -0.246876 2.365503 0 7 12
0.187714 -0.244552 2.360027 0 6 12
0.186980 -0.241850 2.350803 0 5 13
0.187937 -0.241333 2.362833 0 5 14
0.187163 -0.238591 2.353102 2 5 16
0.187249 -0.236952 2.354186 1 3 15
0.185658 -0.233205 2.334185 5 7 19
0.186671 -0.232734 2.346914 9 11 23
0.185433 -0.229459 2.331351 3 7 15
0.184931 -0.227111 2.325041 2 7 12
0.184870 -0.225309 2.324273 14 22 25
0.185596 -0.224461 2.333402 34 43 46
0.185221 -0.222278 2.328685 50 61 63
0.185196 -0.220519 2.328376 72 83 85
0.185088 -0.218662 2.327019 80 89 92
0.185050 -0.216889 2.326541 79 86 92
0.185573 -0.215769 2.333114 89 93 102
0.185492 -0.213943 2.332099 99 102 111
0.184834 -0.211458 2.323826 101 104 113
0.185744 -0.210764 2.335264 103 105 117
0.185538 -0.208798 2.332676 106 108 121
0.184737 -0.206170 2.322596 106 107 125
0.183886 -0.203503 2.311896 106 107 134
0.182726 -0.200514 2.297323 108 109 143
0.181996 -0.198012 2.288134 111 110 151
0.182087 -0.196412 2.289285 111 109 154
0.182463 -0.195113 2.294015 108 107 148
0.182308 -0.193245 2.292064 103 103 135
0.182029 -0.191249 2.288551 77 78 97
0.182123 -0.189647 2.289737 81 81 93
0.181221 -0.187015 2.278393 77 77 87
0.181167 -0.185268 2.277711 69 69 78
0.181284 -0.183695 2.279186 73 73 83
0.181062 -0.181779 2.276401 92 92 101
0.181302 -0.180327 2.279410 108 108 118
0.181327 -0.178659 2.279731 114 114 126
0.181025 -0.176670 2.275930 114 112 126
0.181487 -0.175427 2.281742 115 113 128
0.181561 -0.173803 2.282676 117 114 131
0.181233 -0.171796 2.278543 116 113 130
0.180863 -0.169756 2.273894 115 112 129
0.180721 -0.167935 2.272108 116 113 128
0.180757 -0.166281 2.272566 118 116 130
0.180558 -0.164412 2.270065 121 119 133
0.180641 -0.162800 2.271101 125 123 137
0.180524 -0.161009 2.269632 127 126 139
0.179960 -0.158825 2.262539 115 114 124
0.180014 -0.157193 2.263226 100 99 105
0.180371 -0.155819 2.267706 96 94 97
0.180383 -0.154145 2.267859 89 84 86
0.180643 -0.152681 2.271134 78 69 70
0.180968 -0.151265 2.275212 72 62 63
0.181573 -0.150075 2.282815 62 49 53
0.181384 -0.148226 2.280450 72 58 64
0.181298 -0.146462 2.279368 92 80 87
0.181531 -0.144955 2.282292 114 104 111
0.181246 -0.143035 2.278715 120 114 120
0.181007 -0.141156 2.275709 111 109 115
0.180992 -0.139454 2.275520 104 105 108
0.181185 -0.137911 2.277941 103 107 108
0.180812 -0.135938 2.273252 103 107 106
0.179424 -0.133219 2.255804 96 99 100
0.180641 -0.132436 2.271101 93 92 97
0.180116 -0.130369 2.264504 97 92 100
0.179902 -0.128534 2.261815 98 88 100
0.179978 -0.126908 2.262771 90 77 92
0.180471 -0.125570 2.268961 87 69 85
0.180750 -0.124077 2.272479 89 67 85
0.181483 -0.122885 2.281686 83 60 76
0.180968 -0.120846 2.275212 80 53 70
0.181105 -0.119246 2.276935 54 25 43
0.182826 -0.116965 2.298581 65 34 55
0.182174 -0.114847 2.290375 97 65 88
0.181800 -0.112913 2.285675 104 72 96
0.180748 -0.110572 2.272449 101 71 94
0.180456 -0.108708 2.268775 102 78 97
0.180489 -0.107042 2.269193 97 78 93
0.179363 -0.104700 2.255034 92 75 87
0.179041 -0.102840 2.250987 87 73 83
0.178991 -0.101139 2.250354 80 70 78
0.178636 -0.099271 2.245901 76 69 75
0.178961 -0.097780 2.249982 81 76 80
0.179440 -0.096366 2.256010 92 88 89
0.179720 -0.094838 2.259524 105 101 102
0.179556 -0.093075 2.257458 109 105 106
0.179778 -0.091511 2.260249 110 107 108
0.180032 -0.089959 2.263453 112 112 112
0.180348 -0.088433 2.267415 115 117 116
0.180216 -0.086685 2.265763 116 122 120
0.179917 -0.084861 2.261999 117 125 122
0.180012 -0.083225 2.263193 118 127 124
0.180256 -0.081655 2.266270 116 122 122
0.179931 -0.079827 2.262181 116 122 122
0.180191 -0.078260 2.265452 115 121 119
0.180382 -0.076658 2.267845 110 116 114
0.180992 -0.075227 2.275520 109 115 111
0.180407 -0.073299 2.268164 109 115 111
0.179699 -0.071334 2.259260 104 111 106
0.179761 -0.069680 2.260047 98 104 98
0.179921 -0.068061 2.262048 92 99 92
0.179981 -0.066403 2.262800 91 98 91
0.179784 -0.064652 2.260336 88 95 87
0.180648 -0.063276 2.271197 77 85 74
0.180498 -0.061537 2.269310 58 66 55
0.179862 -0.059641 2.261311 39 47 36
0.181079 -0.058353 2.276606 25 33 22
0.180865 -0.056596 2.273922 18 26 15
0.179862 -0.054602 2.261311 13 19 12
0.179272 -0.052749 2.253896 9 14 9
0.179808 -0.051227 2.260626 3 8 4
0.182913 -0.050404 2.299671 0 4 3
0.181628 -0.046657 2.283510 0 2 2
0.180921 -0.044786 2.274626 0 2 3
0.181368 -0.043203 2.280244 0 2 3
0.182671 -0.041808 2.296622 1 4 4
0.178923 -0.039279 2.249504 9 12 11
0.179350 -0.037698 2.254867 14 17 16
0.179071 -0.035967 2.251370 11 15 14
0.179673 -0.034410 2.258932 6 9 8
0.179502 -0.032701 2.256789 3 6 5
0.179248 -0.030981 2.253595 1 5 5
0.180645 -0.029536 2.271155 1 2 3
0.182079 -0.028070 2.289186 0 0 2
0.181846 -0.024637 2.286251 0 0 2
0.182963 -0.014537 2.300303 0 0 0
0.182542 -0.012799 2.295002 0 0 0
0.179176 -0.009217 2.252690 0 0 0
0.173523 -0.005685 2.181616 0 0 0
0.182944 0.007674 2.300056 0 0 0
0.183310 0.009401 2.304656 0 0 1
0.183306 0.011112 2.304607 0 0 2
0.180992 0.012662 2.275520 0 0 3
0.181966 0.016129 2.287761 0 0 4
0.183139 0.019654 2.302516 0 0 4
0.183291 0.021381 2.304416 0 0 4
0.185743 0.023402 2.335244 0 0 4
0.179105 0.045981 2.251787 0 0 8
0.179424 0.047739 2.255804 0 0 8
0.183040 0.057248 2.301267 0 0 2
0.182883 0.058906 2.299288 0 0 2
0.183484 0.060813 2.306846 0 0 2
0.183145 0.072673 2.302588 0 0 8
0.185081 0.078627 2.326928 0 1 6
0.184161 0.081675 2.315357 0 1 6
0.184034 0.083337 2.313759 0 1 6
0.204091 0.098138 2.565931 0 1 6
0.204435 0.100212 2.570249 0 1 6
0.223443 0.124136 2.809228 0 0 8
0.176577 0.107993 2.220014 1 1 12
0.177115 0.109976 2.226776 1 1 11
0.183352 0.117273 2.305189 1 1 11
0.183748 0.119242 2.310169 0 2 11
0.176547 0.122813 2.219639 0 3 12
0.176174 0.124198 2.214939 0 3 12
0.176555 0.126116 2.219731 0 3 12
0.175838 0.127246 2.210721 0 2 11
0.173875 0.129072 2.186038 0 1 7
0.174506 0.131170 2.193971 0 1 5
0.175970 0.133915 2.212383 0 1 5
0.177057 0.136395 2.226048 0 1 5
0.176870 0.137902 2.223688 0 1 5
0.177485 0.140039 2.231423 0 1 5
0.168282 0.143778 2.115720 0 0 3
0.168037 0.145139 2.112647 0 1 3
0.168959 0.147512 2.124231 0 0 2
0.168778 0.148931 2.121955 0 0 1
0.168522 0.151852 2.118736 0 1 5
0.173031 0.159147 2.175429 0 0 6
0.170968 0.158846 2.149496 0 0 5
0.171316 0.160769 2.153866 0 0 5
0.171053 0.162119 2.150555 0 0 5
0.171097 0.163759 2.151114 1 0 5
0.169983 0.164280 2.137101 0 0 4
0.167472 0.164981 2.105534 0 0 2
0.166899 0.165975 2.098330 0 0 2
0.167030 0.167665 2.099977 0 0 2
0.167339 0.169538 2.103859 0 0 2
0.167571 0.171338 2.106780 0 0 2
0.167519 0.172850 2.106133 0 0 2
0.167733 0.174637 2.108823 0 0 4
0.168017 0.176502 2.112394 0 0 6
0.168245 0.178312 2.115256 0 0 8
0.168193 0.179828 2.114603 0 0 8
0.168300 0.181514 2.115946 0 0 8
0.167641 0.182368 2.107658 0 0 8
0.168934 0.188508 2.123914 0 0 8
0.169124 0.190299 2.126305 0 0 10
0.169332 0.192114 2.128920 0 0 10
0.168628 0.192891 2.120073 0 0 10
0.165960 0.194488 2.086524 0 0 10
0.165808 0.202053 2.084623 0 0 10
0.168091 0.209543 2.113322 0 0 10
0.167503 0.210374 2.105922 0 0 10
0.167032 0.211343 2.100008 0 0 10
0.166713 0.212496 2.095993 0 0 10
0.166812 0.214180 2.097243 1 1 11
0.166555 0.220071 2.094007 1 1 11
0.166601 0.221688 2.094587 1 1 11
0.166531 0.223150 2.093704 1 1 11
0.167364 0.228955 2.104181 0 0 10
0.167483 0.230681 2.105672 0 0 10
0.142393 -0.403801 1.773663 193 183 189
0.303201 -0.854216 3.776717 191 184 188
2.299943 -6.437130 28.648439 188 184 187
5.827189 -16.255350 72.584358 187 185 186
0.201243 -0.557658 2.506716 187 185 186
0.255572 -0.703477 3.183441 188 185 186
0.188726 -0.505512 2.350803 192 183 186
0.154156 -0.402929 1.920186 190 180 188
0.154182 -0.401571 1.920514 190 180 188
0.153971 -0.399598 1.917889 190 180 188
0.236117 -0.606235 2.941108 190 180 188
0.237195 -0.606808 2.954536 190 180 188
0.457965 -1.150413 5.704487 190 180 188
0.185229 -0.451588 2.307245 190 180 188
0.697637 -1.668560 8.689872 189 180 183
0.184314 -0.437418 2.295839 189 180 183
0.183369 -0.424998 2.284076 190 180 187
0.138046 -0.316120 1.719524 190 180 188
0.138363 -0.315566 1.723473 190 180 188
0.138742 -0.315147 1.728197 190 180 188
0.138393 -0.313073 1.723843 190 180 188
0.138116 -0.311168 1.720392 190 180 188
0.169655 -0.363389 2.113254 189 179 187
0.169636 -0.361777 2.113007 189 179 187
0.169612 -0.360159 2.112718 189 179 187
0.169835 -0.359060 2.115493 189 179 186
0.169488 -0.356758 2.111165 189 179 185
0.169759 -0.355759 2.114547 189 180 183
0.169796 -0.354264 2.115000 189 180 183
0.169562 -0.352207 2.112085 189 180 183
0.169299 -0.350095 2.108811 189 180 183
0.169494 -0.348930 2.111245 189 180 183
0.251949 -0.509352 3.138314 190 181 184
0.130717 -0.263055 1.628233 190 181 184
0.287665 -0.568250 3.583198 190 181 184
0.288440 -0.564444 3.592850 190 181 184
0.287867 -0.557996 3.585716 192 183 186
0.292930 -0.556968 3.648776 192 183 186
0.291936 -0.552379 3.636402 192 183 187
0.291584 -0.549014 3.632010 192 183 188
0.189969 -0.304958 2.366277 65 80 115
0.190141 -0.303476 2.368427 61 77 110
0.189901 -0.301336 2.365442 56 76 103
0.190804 -0.301003 2.376681 55 77 102
0.191234 -0.299912 2.382042 37 61 85
0.190965 -0.297724 2.378695 33 59 82
0.191090 -0.296151 2.380251 27 52 75
0.191001 -0.294245 2.379136 19 41 63
0.190783 -0.292145 2.376425 13 35 52
0.189985 -0.289165 2.366487 10 29 44
0.189607 -0.286836 2.361779 3 21 35
0.189281 -0.284591 2.357714 0 13 25
0.188468 -0.281625 2.347591 0 12 24
0.188256 -0.279566 2.344947 0 14 25
0.189036 -0.278976 2.354663 0 15 25
0.189115 -0.277342 2.355642 0 14 23
0.189270 -0.275818 2.357577 0 12 21
0.189048 -0.273746 2.354816 0 10 19
0.189028 -0.271969 2.354567 0 9 18
0.187845 -0.268528 2.339828 0 9 18
0.187698 -0.266580 2.337989 2 12 19
0.187232 -0.264187 2.332186 2 13 19
0.188435 -0.264142 2.347181 2 13 19
0.188821 -0.262935 2.351980 1 12 18
0.188694 -0.261012 2.350397 0 10 18
0.187645 -0.257825 2.337335 0 9 18
0.187713 -0.256181 2.338176 0 8 18
0.188335 -0.255288 2.345927 0 7 17
0.188122 -0.253260 2.343279 0 7 15
0.188429 -0.251929 2.347098 0 7 15
0.189777 -0.251976 2.363892 1 8 15
0.189743 -0.250175 2.363465 0 9 14
0.191414 -0.250607 2.384278 0 9 15
0.190317 -0.247411 2.370621 0 8 15
0.190491 -0.245874 2.372783 0 6 14
0.190401 -0.243996 2.371660 0 4 14
0.190326 -0.242139 2.370725 0 3 13
0.188978 -0.238676 2.353940 0 1 13
0.188978 -0.236927 2.353940 0 2 14
0.187405 -0.233221 2.334342 3 5 18
0.187521 -0.231630 2.335787 8 11 22
0.187701 -0.230117 2.338036 11 14 23
0.186790 -0.227271 2.326681 16 20 28
0.186446 -0.225128 2.322397 27 33 39
0.187332 -0.224465 2.333438 38 46 52
0.186779 -0.222074 2.326553 50 59 64
0.186616 -0.220153 2.324519 66 75 79
0.186894 -0.218752 2.327976 79 87 90
0.187225 -0.217407 2.332099 87 92 96
0.187100 -0.215531 2.330547 93 96 104
0.187068 -0.213763 2.330146 100 103 112
0.186864 -0.211801 2.327603 103 105 117
0.187388 -0.210662 2.334135 103 105 120
0.187145 -0.208657 2.331106 99 100 120
0.186400 -0.206102 2.321827 105 105 133
0.185373 -0.203251 2.309033 110 110 148
0.185357 -0.201519 2.308839 114 112 160
0.183820 -0.198147 2.289687 128 125 180
0.183430 -0.196030 2.284838 145 142 198
0.183663 -0.194579 2.287728 135 132 186
0.184079 -0.193316 2.292910 104 103 144
0.183668 -0.191186 2.287794 73 74 95
0.183904 -0.189730 2.290739 74 76 88
0.183405 -0.187519 2.284525 67 69 80
0.182996 -0.185408 2.279430 54 56 67
0.182482 -0.183198 2.273021 53 55 66
0.182661 -0.181688 2.275255 67 69 80
0.182815 -0.180150 2.277173 87 87 98
0.182793 -0.178436 2.276894 98 98 110
0.182809 -0.176761 2.277102 107 106 120
0.182977 -0.175230 2.279186 110 108 122
0.182969 -0.173530 2.279084 109 106 121
0.182806 -0.171684 2.277066 105 103 118
0.182503 -0.169711 2.273280 109 107 122
0.182088 -0.167640 2.268113 118 116 130
0.181667 -0.165572 2.262873 122 120 134
0.182343 -0.164501 2.271287 120 118 131
0.181835 -0.162361 2.264969 126 124 138
0.181761 -0.160613 2.264048 125 123 136
0.181525 -0.158724 2.261099 110 108 119
0.181164 -0.156733 2.256606 96 95 102
0.181612 -0.155440 2.262181 86 84 88
0.181890 -0.153996 2.265655 76 72 73
0.181855 -0.152283 2.265215 61 53 54
0.182241 -0.150920 2.270019 48 38 39
0.183412 -0.150193 2.284613 50 39 42
0.183026 -0.148183 2.279794 74 61 68
0.183052 -0.146511 2.280122 99 88 95
0.183022 -0.144793 2.279744 115 105 113
0.182831 -0.142951 2.277366 122 116 123
0.182687 -0.141148 2.275576 117 116 121
0.182813 -0.139554 2.277147 110 110 114
0.182539 -0.137656 2.273739 106 109 110
0.182199 -0.135714 2.269498 101 105 104
0.182440 -0.134205 2.272500 96 100 101
0.181213 -0.131627 2.257220 94 94 98
0.181879 -0.130427 2.265514 94 90 98
0.181270 -0.128313 2.257923 92 84 95
0.181432 -0.126750 2.259946 87 74 89
0.181939 -0.125420 2.266258 85 69 84
0.181925 -0.123728 2.266084 89 67 85
0.182552 -0.122465 2.273901 82 58 74
0.182373 -0.120658 2.271665 77 51 68
0.183177 -0.119495 2.281686 55 26 44
0.187041 -0.120285 2.329808 43 13 31
0.183775 -0.116484 2.289130 67 37 58
0.183421 -0.114563 2.284719 98 67 90
0.183046 -0.112635 2.280054 105 73 97
0.182831 -0.110811 2.277366 96 68 90
0.182133 -0.108703 2.268682 97 73 91
0.181383 -0.106578 2.259340 92 73 88
0.180807 -0.104566 2.252155 87 70 82
0.180251 -0.102577 2.245238 80 66 77
0.180039 -0.100790 2.242591 73 63 71
0.180241 -0.099236 2.245111 71 64 69
0.180707 -0.097821 2.250915 78 73 76
0.180741 -0.096167 2.251335 89 85 86
0.181124 -0.094695 2.256106 105 101 102
0.181125 -0.093019 2.256117 110 106 107
0.181116 -0.091339 2.256010 111 108 109
0.181374 -0.089791 2.259225 113 112 112
0.181394 -0.088123 2.259477 115 117 116
0.181046 -0.086279 2.255139 116 121 119
0.181143 -0.084649 2.256348 116 125 122
0.181538 -0.083154 2.261261 118 127 124
0.181693 -0.081544 2.263193 115 121 121
0.181557 -0.079803 2.261499 115 121 121
0.181761 -0.078211 2.264039 113 119 118
0.181977 -0.076620 2.266731 109 115 113
0.182678 -0.075225 2.275460 108 114 110
0.182076 -0.073293 2.267966 107 113 109
0.181237 -0.071278 2.257513 103 110 103
0.181097 -0.069548 2.255768 96 103 96
0.180952 -0.067818 2.253969 91 98 90
0.181235 -0.066247 2.257492 90 97 89
0.181398 -0.064629 2.259524 87 95 84
0.182004 -0.063160 2.267065 76 84 73
0.181755 -0.061393 2.263971 57 65 52
0.182485 -0.059951 2.273063 37 45 32
0.181640 -0.057993 2.262539 23 31 18
0.183456 -0.056875 2.285154 16 24 12
0.183434 -0.055171 2.284879 10 15 8
0.183277 -0.053428 2.282923 6 11 5
0.181343 -0.051187 2.258834 2 7 1
0.184233 -0.050298 2.294838 0 5 1
0.181325 -0.046149 2.258617 0 3 2
0.181222 -0.044446 2.257333 0 2 2
0.184578 -0.043561 2.299131 0 2 3
0.181722 -0.041206 2.263557 7 11 10
0.180730 -0.039309 2.251199 20 24 23
0.180644 -0.037619 2.250131 30 34 33
0.180370 -0.035893 2.246718 29 33 32
0.180920 -0.034328 2.253563 21 25 24
0.180795 -0.032632 2.252009 14 18 17
0.180929 -0.030982 2.253685 9 13 13
0.181176 -0.029348 2.256760 5 9 10
0.183221 -0.014423 2.282227 0 0 0
0.182283 0.004202 2.270539 1 1 1
0.182852 0.005907 2.277630 1 1 2
0.183613 0.007630 2.287109 0 0 2
0.183875 0.009343 2.290375 0 0 2
0.184402 0.011075 2.296935 0 0 2
0.182695 0.012663 2.275680 0 0 3
0.181359 0.014249 2.259036 0 0 4
0.181997 0.017666 2.266982 0 0 4
0.186997 0.023342 2.329268 0 0 4
0.181003 0.047714 2.254601 0 0 8
0.182658 0.049840 2.275212 0 0 6
0.181909 0.051319 2.265888 0 1 6
0.181982 0.053023 2.266790 0 0 4
0.182234 0.054782 2.269934 0 0 4
0.182655 0.056599 2.275179 0 0 2
0.182789 0.058331 2.276849 0 0 2
0.183026 0.070260 2.279794 0 0 7
0.182925 0.071914 2.278543 0 0 8
0.182811 0.073561 2.277122 0 0 6
0.183684 0.082409 2.287999 0 1 6
0.203260 0.096834 2.531836 0 1 6
0.203467 0.098815 2.534420 0 1 6
0.222353 0.120330 2.769657 0 0 8
0.222559 0.122501 2.772232 0 0 8
0.178537 0.106530 2.223885 1 1 12
0.184675 0.118735 2.300343 0 1 11
0.178175 0.117853 2.219380 0 2 11
0.179497 0.120388 2.235837 0 3 12
0.179131 0.121800 2.231282 0 3 12
0.178846 0.123260 2.227727 0 3 12
0.178166 0.124440 2.219260 0 3 12
0.178198 0.126111 2.219657 0 3 12
0.176524 0.126560 2.198807 0 2 11
0.175839 0.127696 2.190284 0 2 11
0.175091 0.128773 2.180960 0 1 9
0.175340 0.130578 2.184059 0 1 7
0.176611 0.133159 2.199897 0 1 6
0.177978 0.135836 2.216926 0 1 6
0.178075 0.137558 2.218134 0 1 6
0.177433 0.138703 2.210137 0 1 6
0.177706 0.140561 2.213537 0 1 5
0.177696 0.142197 2.213414 0 1 5
0.169980 0.143886 2.117298 0 0 3
0.169978 0.145457 2.117274 0 1 3
0.170782 0.147725 2.127288 0 1 3
0.170811 0.149330 2.127651 0 0 3
0.169840 0.150053 2.115552 0 0 4
0.169319 0.151159 2.109061 0 1 5
0.172864 0.157522 2.153215 0 1 6
0.174006 0.160173 2.167449 0 1 6
0.172643 0.160516 2.150474 0 1 6
0.172586 0.162059 2.149758 0 0 6
0.171631 0.162750 2.137861 1 0 6
0.171621 0.164329 2.137734 0 0 5
0.171347 0.165652 2.134320 0 0 4
0.170845 0.166747 2.128075 0 0 4
0.169900 0.167396 2.116296 0 0 4
0.169598 0.168668 2.112540 0 0 3
0.169466 0.170105 2.110890 0 0 2
0.169613 0.171822 2.112728 0 0 2
0.169854 0.173637 2.115727 0 0 2
0.169939 0.175297 2.116789 0 0 4
0.170815 0.177781 2.127699 0 0 6
0.169982 0.178487 2.117328 0 0 8
0.169881 0.179952 2.116061 0 0 8
0.171529 0.183285 2.136595 0 0 8
0.171455 0.186379 2.135675 0 0 8
0.171332 0.187830 2.134135 0 0 8
0.171202 0.189272 2.132523 0 0 8
0.171360 0.191031 2.134483 0 0 8
0.171869 0.193189 2.140832 0 0 8
0.172079 0.195018 2.143448 0 0 8
0.169783 0.211265 2.114838 0 0 9
0.170974 0.222238 2.129680 1 1 10
0.170654 0.223401 2.125693 1 1 10
0.169847 0.223917 2.115645 1 1 10
0.172561 0.245056 2.149443 0 0 8
0.143498 -0.403207 1.771052 193 183 189
0.284142 -0.795787 3.506870 192 184 189
0.305106 -0.851703 3.765608 190 184 188
2.315897 -6.422361 28.582712 188 184 187
5.881103 -16.255350 72.584358 187 185 186
0.203249 -0.558054 2.508497 187 185 186
0.257417 -0.702061 3.177034 188 185 186
0.188422 -0.501796 2.325493 192 183 186
0.188303 -0.499754 2.324027 192 183 186
0.155357 -0.402346 1.917407 190 180 188
0.155190 -0.400490 1.915345 190 180 188
0.155070 -0.398761 1.913870 190 180 188
0.235698 -0.597450 2.908972 190 180 188
0.186129 -0.449621 2.297199 190 180 188
0.186983 -0.448256 2.307737 189 180 184
0.186184 -0.439513 2.297875 189 180 183
0.184942 -0.424714 2.282552 190 180 187
0.139706 -0.314428 1.724252 190 180 188
0.139086 -0.311756 1.716590 190 180 188
0.146539 -0.315029 1.808583 189 179 187
0.146286 -0.313144 1.805459 189 179 187
0.170930 -0.364331 2.109616 189 179 187
0.171029 -0.362972 2.110829 189 179 187
0.171075 -0.361502 2.111396 189 179 187
0.171176 -0.360147 2.112647 189 179 187
0.171476 -0.359206 2.116348 189 179 185
0.170884 -0.356399 2.109043 189 179 183
0.171201 -0.355490 2.112950 189 180 183
0.171115 -0.353744 2.111898 189 180 183
0.170919 -0.351771 2.109471 189 180 183
0.170822 -0.350007 2.108284 189 180 183
0.170942 -0.348686 2.109764 189 180 183
0.290085 -0.567778 3.580222 190 181 184
0.208890 -0.406942 2.578115 190 181 184
0.290253 -0.562784 3.582287 190 181 184
0.290423 -0.557790 3.584389 192 183 186
0.295173 -0.558794 3.643010 192 183 186
0.295173 -0.556088 3.643010 192 183 186
0.294741 -0.552573 3.637679 192 183 187
0.294473 -0.549371 3.634374 192 183 188
0.293990 -0.545776 3.628418 192 183 188
0.208662 -0.360589 2.575299 175 170 176
0.201139 -0.325462 2.482455 75 86 115
0.193382 -0.307592 2.386719 65 81 116
0.190152 -0.300711 2.346850 62 81 113
0.190828 -0.300031 2.355196 60 81 108
0.192581 -0.301021 2.376824 59 83 109
0.194924 -0.302897 2.405746 43 68 94
0.193421 -0.298788 2.387192 37 62 88
0.193191 -0.296661 2.384353 28 52 76
0.192964 -0.294545 2.381559 17 42 64
0.192993 -0.292818 2.381907 14 37 55
0.192325 -0.290042 2.373666 13 35 49
0.191455 -0.286975 2.362925 7 26 40
0.190376 -0.283613 2.349615 1 16 29
0.189513 -0.280590 2.338959 0 15 27
0.191379 -0.281598 2.361988 0 15 26
0.190808 -0.279009 2.354945 0 15 26
0.190608 -0.276970 2.352480 1 14 24
0.190364 -0.274870 2.349471 2 12 22
0.190338 -0.273087 2.349140 0 10 20
0.189546 -0.270214 2.339373 0 10 19
0.189658 -0.268635 2.340758 1 10 19
0.189538 -0.266727 2.339276 2 12 20
0.189209 -0.264529 2.335206 2 13 19
0.189604 -0.263343 2.340084 2 12 19
0.190361 -0.262649 2.349425 1 12 18
0.189648 -0.259927 2.340624 0 10 18
0.189353 -0.257788 2.336993 0 9 18
0.189842 -0.256712 2.343018 0 7 18
0.189170 -0.254070 2.334730 0 6 17
0.190472 -0.254073 2.350803 0 7 15
0.189583 -0.251149 2.339828 0 7 15
0.190858 -0.251088 2.355560 1 8 15
0.191069 -0.249613 2.358162 1 10 15
0.192251 -0.249396 2.372761 1 10 16
0.191784 -0.247032 2.366993 0 9 16
0.191688 -0.245150 2.365802 0 6 14
0.191808 -0.243546 2.367285 0 4 14
0.191359 -0.241222 2.361746 0 2 13
0.190439 -0.238317 2.350397 0 1 13
0.189770 -0.235739 2.342136 0 1 14
0.188504 -0.232438 2.326506 2 4 17
0.188684 -0.230931 2.328735 5 7 20
0.188870 -0.229426 2.331022 8 11 22
0.188684 -0.227471 2.328727 16 20 28
0.188170 -0.225126 2.322382 30 35 41
0.188494 -0.223786 2.326384 42 49 56
0.187764 -0.221199 2.317379 53 63 69
0.188109 -0.219880 2.321635 67 77 83
0.188722 -0.218867 2.329199 80 89 93
0.188923 -0.217368 2.331684 87 94 98
0.188387 -0.215025 2.325069 93 97 104
0.188433 -0.213349 2.325630 99 102 112
0.188961 -0.212215 2.332150 103 105 118
0.189270 -0.210827 2.335966 103 104 123
0.188714 -0.208477 2.329098 102 102 127
0.188385 -0.206387 2.325036 107 107 141
0.188432 -0.204711 2.325620 112 110 157
0.188358 -0.202904 2.324707 114 111 168
0.188513 -0.201343 2.326621 126 121 186
0.185094 -0.195994 2.284423 143 139 204
0.184919 -0.194114 2.282263 131 127 188
0.185880 -0.193418 2.294119 99 97 143
0.185357 -0.191175 2.287671 78 79 101
0.185762 -0.189891 2.292673 82 84 96
0.185144 -0.187561 2.285042 79 81 93
0.184843 -0.185562 2.281328 68 70 82
0.184837 -0.183861 2.281253 60 62 74
0.184064 -0.181405 2.271716 61 63 75
0.184099 -0.179751 2.272138 68 69 81
0.184316 -0.178274 2.274818 73 73 85
0.184245 -0.176516 2.273940 92 91 105
0.184620 -0.175184 2.278579 101 100 114
0.184496 -0.173374 2.277043 108 106 120
0.184468 -0.171657 2.276700 108 106 120
0.184442 -0.169941 2.276371 113 111 125
0.182845 -0.166794 2.256661 122 120 134
0.183853 -0.166028 2.269104 126 124 138
0.183799 -0.164295 2.268446 124 122 135
0.183757 -0.162572 2.267920 127 124 139
0.183123 -0.160333 2.260103 125 122 136
0.183077 -0.158614 2.259524 112 110 121
0.182573 -0.156504 2.253305 95 94 100
0.183221 -0.155380 2.261311 71 69 72
0.183406 -0.153855 2.263591 55 51 52
0.183560 -0.152302 2.265489 41 34 34
0.184058 -0.151027 2.271632 34 25 27
0.184669 -0.149836 2.279176 57 46 51
0.184729 -0.148191 2.279914 86 73 80
0.184423 -0.146255 2.276141 106 95 103
0.184626 -0.144723 2.278642 114 103 111
0.184589 -0.143002 2.278185 120 114 121
0.184633 -0.141344 2.278728 118 117 123
0.183989 -0.139164 2.270780 113 113 118
0.184193 -0.137630 2.273308 111 114 117
0.184183 -0.135934 2.273174 103 109 108
0.183680 -0.133879 2.266966 101 105 106
0.184018 -0.132438 2.271139 98 98 102
0.182525 -0.129690 2.252712 91 89 96
0.182973 -0.128332 2.258248 85 78 90
0.183028 -0.126692 2.258923 83 71 85
0.182689 -0.124783 2.254741 85 68 84
0.183332 -0.123542 2.262679 89 68 85
0.183139 -0.121733 2.260299 80 57 73
0.183480 -0.120277 2.264504 72 45 62
0.186375 -0.120466 2.300230 54 25 43
0.188174 -0.119904 2.322435 45 17 36
0.185025 -0.116201 2.283569 67 39 60
0.184715 -0.114313 2.279744 100 71 93
0.184522 -0.112503 2.277366 107 78 102
0.184442 -0.110763 2.276371 91 64 85
0.183455 -0.108488 2.264196 91 68 86
0.182361 -0.106170 2.250692 89 71 85
0.181991 -0.104286 2.246132 85 70 81
0.181152 -0.102144 2.235767 77 64 74
0.181167 -0.100492 2.235954 71 61 69
0.181334 -0.098923 2.238021 72 65 72
0.181738 -0.097477 2.242998 83 78 82
0.181906 -0.095900 2.245080 95 91 93
0.182838 -0.094714 2.256574 108 104 105
0.182684 -0.092960 2.254675 111 107 108
0.182354 -0.091120 2.250602 112 110 111
0.182745 -0.089641 2.255436 114 114 114
0.182567 -0.087880 2.253239 115 117 116
0.182142 -0.086005 2.247984 114 119 117
0.181882 -0.084215 2.244783 112 120 118
0.182985 -0.083049 2.258396 112 121 118
0.183546 -0.081620 2.265317 112 118 118
0.183029 -0.079713 2.258937 112 118 118
0.183067 -0.078051 2.259400 111 117 115
0.184229 -0.076858 2.273750 110 116 114
0.183925 -0.075045 2.269999 107 113 109
0.183246 -0.073088 2.261612 103 109 105
0.183256 -0.071412 2.261742 99 106 99
0.181550 -0.069083 2.240683 97 104 97
0.181621 -0.067445 2.241558 91 98 90
0.182052 -0.065936 2.246880 85 92 84
0.182730 -0.064506 2.255241 77 85 74
0.183557 -0.063116 2.265452 66 74 63
0.184000 -0.061581 2.270917 47 55 43
0.183602 -0.059765 2.266010 26 34 21
0.182839 -0.057840 2.256594 13 21 8
0.185013 -0.056832 2.283418 8 16 5
0.188013 -0.056030 2.320454 10 15 8
0.185452 -0.053567 2.288837 5 10 4
0.183054 -0.051196 2.259250 0 5 0
0.182602 -0.047722 2.253672 0 2 1
0.182053 -0.045909 2.246894 0 2 1
0.185274 -0.043325 2.286643 0 2 2
0.183826 -0.041301 2.268775 1 5 4
0.181852 -0.039190 2.244408 21 25 24
0.182096 -0.037574 2.247424 39 43 42
0.181585 -0.035803 2.241110 44 48 47
0.182162 -0.034247 2.248238 42 46 45
0.182109 -0.032568 2.247579 37 41 40
0.181990 -0.030878 2.246119 22 26 26
0.182792 -0.029339 2.256010 4 7 8
0.182621 -0.027637 2.253896 0 0 2
0.184348 -0.026208 2.275212 0 0 2
0.181939 -0.015859 2.245481 1 1 1
0.182981 -0.014272 2.258347 0 0 0
0.183386 0.005870 2.263342 0 0 2
0.184281 0.007588 2.274385 0 0 2
0.185320 0.009330 2.287208 0 0 2
0.185862 0.011061 2.293903 0 0 2
0.181026 0.017411 2.234221 0 0 4
0.188429 0.023305 2.325578 0 0 4
0.182691 0.049392 2.254766 0 0 6
0.182706 0.051071 2.254953 0 1 6
0.182216 0.052604 2.248900 0 0 4
0.182036 0.054221 2.246686 0 0 4
0.182414 0.056006 2.251351 0 0 2
0.182617 0.057742 2.253847 0 0 2
0.182667 0.069480 2.254472 0 0 7
0.202487 0.097438 2.499092 0 1 6
0.221447 0.118741 2.733089 0 0 8
0.221731 0.120927 2.736602 0 0 8
0.180907 0.110271 2.232746 1 1 11
0.181743 0.117445 2.243066 1 1 11
0.180150 0.119719 2.223408 1 2 12
0.180718 0.121753 2.230419 0 2 12
0.180318 0.123136 2.225474 0 3 12
0.179986 0.124559 2.221378 0 3 12
0.178074 0.124869 2.197787 0 3 12
0.177426 0.126041 2.189785 0 2 13
0.176883 0.127276 2.183084 0 2 12
0.175296 0.127741 2.163495 0 1 9
0.176502 0.130239 2.178384 1 1 8
0.177495 0.132598 2.190636 0 0 7
0.177748 0.134417 2.193757 0 0 7
0.178162 0.136363 2.198863 0 0 7
0.177936 0.137821 2.196075 0 0 7
0.178000 0.139502 2.196865 0 0 6
0.177911 0.141063 2.195767 0 1 6
0.178441 0.143120 2.202314 0 1 6
0.172879 0.141829 2.133672 0 1 5
0.171486 0.143829 2.116468 0 1 4
0.173011 0.148281 2.135295 0 1 3
0.172674 0.149575 2.131132 0 1 4
0.171002 0.149694 2.110504 0 1 5
0.171480 0.151685 2.116405 0 0 6
0.173324 0.154905 2.139160 0 0 6
0.173672 0.156807 2.143448 0 0 6
0.173990 0.158690 2.147384 0 0 6
0.174520 0.160773 2.153916 0 0 6
0.173335 0.161270 2.139290 0 0 6
0.173486 0.163002 2.141159 0 0 6
0.172595 0.163747 2.130163 0 0 5
0.172850 0.165573 2.133311 0 0 4
0.171705 0.166050 2.119172 0 0 4
0.170490 0.166438 2.104181 0 0 4
0.170870 0.168376 2.108876 0 0 3
0.171242 0.173452 2.113469 0 0 2
0.172463 0.176270 2.128538 0 0 4
0.172780 0.178177 2.132442 0 0 6
0.172802 0.179784 2.132718 0 0 8
0.172901 0.181472 2.133942 0 0 8
0.173227 0.183402 2.137962 0 0 8
0.172948 0.184692 2.134518 0 0 8
0.172704 0.186015 2.131511 0 0 8
0.172924 0.187837 2.134224 0 0 8
0.172886 0.189381 2.133752 0 0 8
0.173004 0.191096 2.135204 0 0 8
0.172769 0.192420 2.132303 0 0 8
0.173740 0.196688 2.144297 0 0 8
0.172646 0.197031 2.130792 0 0 8
0.175278 0.201642 2.163273 0 0 8
0.174840 0.218769 2.157868 0 0 8
0.172972 0.219603 2.134812 0 0 8
0.171910 0.221407 2.121709 0 0 8
0.171974 0.223066 2.122501 0 0 8
0.172337 0.225116 2.126981 0 0 8
0.173181 0.240507 2.137399 0 0 8
0.174677 0.244186 2.155859 0 0 7
0.173111 0.243583 2.136526 0 0 6
0.179788 0.256275 2.218934 0 1 6
0.144389 -0.402023 1.765852 193 183 189
0.286747 -0.795787 3.506870 192 184 189
2.337127 -6.422361 28.582712 188 184 187
5.935016 -16.255350 72.584358 187 185 186
5.092855 -13.856238 62.284859 187 185 186
0.259202 -0.700506 3.169996 188 185 186
0.188002 -0.497839 2.299237 192 183 186
0.188116 -0.496432 2.300632 192 183 186
0.187922 -0.494211 2.298252 192 183 186
0.156505 -0.401638 1.914035 190 180 188
0.156272 -0.399621 1.911186 190 180 188
0.156393 -0.398509 1.912662 190 180 188
0.234228 -0.588331 2.864573 190 180 188
0.256830 -0.638104 3.140995 190 180 188
0.185246 -0.445105 2.265528 190 180 188
0.186250 -0.445827 2.277812 190 180 188
0.185984 -0.443500 2.274558 190 180 187
0.187165 -0.437815 2.288999 189 180 183
0.186096 -0.433625 2.275930 189 180 183
0.186063 -0.423406 2.275520 190 180 187
0.141337 -0.315208 1.728532 190 180 188
0.141371 -0.312716 1.728951 190 180 188
0.147714 -0.314669 1.806516 189 179 187
0.172252 -0.363813 2.106620 189 179 187
0.172401 -0.362562 2.108441 189 179 187
0.172505 -0.361213 2.109712 189 179 187
0.172497 -0.359630 2.109616 189 179 187
0.172849 -0.358793 2.113916 189 179 186
0.172277 -0.356040 2.106919 189 179 185
0.172566 -0.355070 2.110451 189 180 183
0.172328 -0.353016 2.107548 189 180 183
0.172281 -0.351355 2.106976 189 180 183
0.159178 -0.315955 1.946720 190 181 184
0.291723 -0.560496 3.567723 190 181 184
0.293354 -0.558300 3.587671 192 183 186
0.294194 -0.557228 3.597951 192 183 186
0.294517 -0.555163 3.601893 192 183 186
0.297770 -0.555886 3.641686 192 183 186
0.296395 -0.550626 3.624862 192 183 187
0.296830 -0.548738 3.630183 192 183 188
0.296346 -0.545151 3.624266 192 183 188
0.419467 -0.741159 5.130022 188 180 187
0.192904 -0.300540 2.359190 67 86 116
0.194710 -0.301584 2.381271 67 88 117
0.195910 -0.301664 2.395955 53 76 107
0.194968 -0.298442 2.384433 43 68 98
0.194834 -0.296466 2.382787 29 53 81
0.195357 -0.295488 2.389184 19 42 66
0.195167 -0.293428 2.386864 20 41 61
0.194271 -0.290316 2.375903 22 41 57
0.192895 -0.286508 2.359082 14 33 47
0.192711 -0.284484 2.356830 4 22 36
0.194133 -0.284819 2.374214 2 18 33
0.193311 -0.281858 2.364168 1 17 30
0.194111 -0.281261 2.373953 1 16 29
0.192880 -0.277725 2.358895 1 14 26
0.192566 -0.275523 2.355051 2 13 25
0.192304 -0.273401 2.351847 2 12 22
0.192584 -0.272050 2.355270 2 11 21
0.192011 -0.269497 2.348267 2 11 20
0.192406 -0.268304 2.353102 2 12 21
0.191857 -0.265794 2.346381 2 12 21
0.192238 -0.264577 2.351046 2 12 21
0.191433 -0.261729 2.341194 1 11 20
0.192169 -0.260990 2.350199 0 9 18
0.192740 -0.260015 2.357181 0 9 18
0.192486 -0.257923 2.354072 0 7 18
0.191997 -0.255524 2.348091 0 6 17
0.192717 -0.254732 2.356899 0 6 16
0.192765 -0.253044 2.357487 0 7 16
0.192968 -0.251558 2.359973 1 8 15
0.193924 -0.251042 2.371660 2 9 15
0.193542 -0.248790 2.366993 2 9 16
0.193370 -0.246813 2.364892 1 8 16
0.193645 -0.245403 2.368244 0 6 15
0.193706 -0.243721 2.368991 0 4 15
0.194482 -0.242931 2.378481 0 3 14
0.192820 -0.239104 2.358162 0 1 14
0.191998 -0.236341 2.348109 0 1 14
0.190385 -0.232625 2.328376 0 2 15
0.190563 -0.231112 2.330555 2 4 16
0.190425 -0.229215 2.328869 4 6 18
0.190611 -0.227706 2.331138 14 17 28
0.190420 -0.225749 2.328805 31 36 45
0.190420 -0.224019 2.328805 47 54 62
0.189305 -0.220988 2.315172 60 69 77
0.189788 -0.219828 2.321079 73 82 88
0.190631 -0.219073 2.331393 84 91 97
0.190415 -0.217094 2.328747 90 95 99
0.190502 -0.215463 2.329808 93 97 104
0.190458 -0.213683 2.329268 98 101 113
0.190628 -0.212142 2.331351 102 103 119
0.190841 -0.210646 2.333955 103 103 124
0.190680 -0.208736 2.331984 106 106 135
0.190454 -0.206759 2.329226 110 108 147
0.190553 -0.205135 2.330441 114 112 163
0.190475 -0.203321 2.329480 116 112 173
0.191013 -0.202160 2.336062 124 119 186
0.190306 -0.199683 2.327410 136 130 199
0.189565 -0.197184 2.318353 126 121 185
0.189022 -0.193184 2.311706 81 83 107
0.188247 -0.190682 2.302229 91 95 107
0.187430 -0.188153 2.292246 95 99 111
0.187618 -0.186637 2.294545 89 92 104
0.186769 -0.184095 2.284152 77 80 93
0.186730 -0.182361 2.283681 68 70 82
0.186543 -0.180483 2.281393 59 61 74
0.185773 -0.178051 2.271976 54 55 68
0.185635 -0.176232 2.270283 71 70 83
0.186044 -0.174931 2.275295 85 85 98
0.186336 -0.173512 2.278860 100 98 112
0.186225 -0.171718 2.277508 107 105 118
0.185919 -0.169747 2.273767 114 112 125
0.185323 -0.167519 2.266473 121 119 133
0.185106 -0.165641 2.263813 127 125 138
0.185441 -0.164257 2.267920 127 124 138
0.185208 -0.162367 2.265060 133 127 143
0.184880 -0.160401 2.261053 130 125 139
0.184286 -0.158211 2.253785 118 115 126
0.184433 -0.156662 2.255587 91 88 95
0.185097 -0.155544 2.263705 49 47 50
0.184901 -0.153700 2.261311 25 21 22
0.185080 -0.152168 2.263502 23 17 18
0.186286 -0.151467 2.278252 41 32 35
0.186076 -0.149606 2.275680 77 66 72
0.185876 -0.147756 2.273230 99 86 93
0.185653 -0.145893 2.270506 110 99 107
0.186244 -0.144666 2.277736 115 105 113
0.186668 -0.143300 2.282923 122 116 125
0.185939 -0.141051 2.274004 122 120 128
0.185337 -0.138910 2.266638 115 116 121
0.185655 -0.137463 2.270539 112 116 120
0.185257 -0.135485 2.265667 109 115 115
0.185099 -0.133688 2.263730 105 109 110
0.184533 -0.131603 2.256816 99 100 104
0.184270 -0.129741 2.253595 89 87 94
0.184016 -0.127891 2.250490 81 74 85
0.184399 -0.126482 2.255176 78 67 81
0.184337 -0.124765 2.254415 80 65 80
0.184445 -0.123163 2.255737 85 66 82
0.184688 -0.121647 2.258706 77 55 71
0.184998 -0.120171 2.262500 68 43 59
0.186583 -0.119506 2.281887 52 26 43
0.188313 -0.118903 2.303043 49 22 40
0.186320 -0.115952 2.278660 72 44 64
0.186567 -0.114411 2.281686 101 74 96
0.186189 -0.112488 2.277066 108 81 104
0.185519 -0.110398 2.268867 94 69 90
0.185565 -0.108739 2.269434 85 67 83
0.184342 -0.106348 2.254480 83 68 81
0.184016 -0.104489 2.250490 79 66 76
0.183864 -0.102732 2.248630 72 61 71
0.184160 -0.101225 2.252255 67 61 68
0.183369 -0.099124 2.242576 72 67 72
0.183567 -0.097564 2.244998 85 81 83
0.184021 -0.096133 2.250548 97 94 95
0.184836 -0.094880 2.260515 108 104 105
0.184563 -0.093063 2.257174 111 107 108
0.184433 -0.091322 2.255587 112 110 111
0.184441 -0.089651 2.255685 114 114 114
0.184487 -0.087997 2.256248 115 117 116
0.183778 -0.085990 2.247579 114 119 117
0.183972 -0.084409 2.249949 112 120 118
0.184610 -0.083025 2.257754 112 120 118
0.185275 -0.081641 2.265888 111 118 117
0.185130 -0.079896 2.264117 111 117 117
0.185537 -0.078386 2.269095 111 117 115
0.185555 -0.076708 2.269310 109 115 113
0.185752 -0.075102 2.271721 106 112 108
0.185128 -0.073168 2.264092 103 109 105
0.185115 -0.071481 2.263923 99 106 99
0.185302 -0.069870 2.266211 97 104 97
0.184149 -0.067762 2.252111 90 97 89
0.184280 -0.066137 2.253717 84 91 83
0.184532 -0.064551 2.256798 76 83 75
0.185934 -0.063352 2.273940 65 73 62
0.184930 -0.061330 2.261666 47 55 44
0.184698 -0.059576 2.258834 24 32 20
0.185748 -0.058227 2.271665 10 18 5
0.189005 -0.057531 2.311501 6 14 3
0.188403 -0.055636 2.304135 9 14 7
0.187726 -0.053731 2.295865 4 9 2
0.186132 -0.051584 2.276371 0 4 0
0.184270 -0.047720 2.253595 0 2 0
0.186214 -0.044840 2.277366 0 2 1
0.186268 -0.043161 2.278030 0 3 2
0.185244 -0.041241 2.265508 1 5 4
0.184582 -0.039417 2.257407 22 26 25
0.184475 -0.037719 2.256104 44 48 47
0.184142 -0.035978 2.252028 51 55 54
0.184047 -0.034287 2.250862 51 55 54
0.183930 -0.032595 2.249441 46 50 49
0.184002 -0.030936 2.250317 27 31 32
0.184375 -0.029324 2.254875 4 7 8
0.184745 -0.027704 2.259400 0 0 2
0.184684 -0.026018 2.258658 0 0 2
0.188715 -0.023157 2.307953 0 0 2
0.189506 -0.021533 2.317631 0 0 2
0.183684 -0.015865 2.246425 1 1 1
0.183778 -0.014204 2.247579 0 0 0
0.183853 -0.012540 2.248500 0 0 0
0.183712 -0.010861 2.246770 0 0 0
0.184719 0.005859 2.259092 0 0 1
0.185212 0.007557 2.265114 0 0 2
0.186434 0.009301 2.280064 0 0 4
0.187667 0.011067 2.295142 0 0 4
0.186166 0.012669 2.276778 0 0 4
0.190651 0.023366 2.331637 0 0 3
0.191881 0.032232 2.346675 0 0 0
0.184260 0.049364 2.253474 0 0 6
0.183930 0.050946 2.249431 0 1 6
0.182962 0.052340 2.237599 0 0 4
0.181782 0.053654 2.223166 0 0 4
0.182340 0.055475 2.229987 0 0 2
0.199253 0.091390 2.436836 0 1 6
0.200150 0.093620 2.447807 0 1 6
0.196540 0.095502 2.403649 0 1 6
0.195525 0.096785 2.391244 0 1 6
0.220719 0.117276 2.699356 0 0 8
0.190885 0.111828 2.334496 1 1 10
0.190931 0.113589 2.335059 1 1 10
0.183664 0.119276 2.246180 1 1 11
0.184745 0.121657 2.259400 2 2 12
0.182538 0.121861 2.232411 0 2 12
0.182256 0.123329 2.228960 0 3 12
0.181680 0.124589 2.221915 0 3 12
0.180252 0.125247 2.204451 0 3 12
0.179093 0.126069 2.190284 0 2 13
0.178192 0.127054 2.179261 0 1 13
0.176804 0.127670 2.162285 0 1 11
0.177529 0.129806 2.171154 0 0 8
0.177817 0.131632 2.174681 0 0 8
0.177966 0.133359 2.176503 0 0 8
0.178077 0.135060 2.177854 0 0 8
0.178273 0.136828 2.180254 0 0 8
0.178400 0.138546 2.181808 0 0 6
0.178605 0.140328 2.184318 0 1 6
0.174381 0.141761 2.132648 0 1 5
0.172969 0.143756 2.115387 0 1 5
0.173577 0.145837 2.122815 0 1 5
0.174291 0.148021 2.131558 0 1 5
0.174500 0.149784 2.134114 0 1 5
0.173135 0.151757 2.117414 0 0 7
0.175639 0.155548 2.148041 0 0 8
0.174819 0.156409 2.138006 0 0 8
0.175264 0.158400 2.143448 0 0 8
0.175264 0.159992 2.143448 0 0 8
0.176027 0.162287 2.152779 0 0 7
0.174273 0.162253 2.131327 0 1 6
0.173869 0.163457 2.126397 0 1 6
0.173689 0.164866 2.124193 0 1 6
0.173480 0.166243 2.121637 0 0 6
0.173069 0.175282 2.116608 0 0 5
0.174817 0.178640 2.137982 0 0 6
0.174738 0.180147 2.137022 0 0 8
0.174641 0.181634 2.135836 0 0 8
0.174277 0.182838 2.131384 0 0 8
0.173544 0.183645 2.122417 0 0 8
0.173777 0.185471 2.125270 0 0 8
0.174600 0.187935 2.135331 0 0 8
0.174349 0.189249 2.132265 0 0 8
0.174424 0.190915 2.133185 0 0 8
0.174464 0.192543 2.133672 0 0 7
0.174398 0.194054 2.132861 0 0 6
0.174719 0.195998 2.136785 0 0 6
0.174394 0.197218 2.132807 0 0 6
0.175434 0.199988 2.145534 0 0 6
0.173338 0.218068 2.119894 0 0 7
0.173370 0.219683 2.120286 0 0 7
0.173757 0.221753 2.125027 0 0 7
0.173800 0.223385 2.125543 0 0 7
0.173921 0.225121 2.127024 0 0 7
0.177371 0.232809 2.169218 0 0 7
0.176048 0.243867 2.153039 0 0 7
0.174381 0.243141 2.132648 0 1 6
0.178464 0.250456 2.182591 0 1 6
0.180201 0.254530 2.203827 0 1 6
0.146345 -0.403801 1.773663 193 183 189
0.289352 -0.795787 3.506870 192 184 189
0.292092 -0.798065 3.540084 189 184 188
2.358357 -6.422361 28.582712 188 184 187
5.988930 -16.255350 72.584358 187 185 186
2.697906 -7.298460 32.697964 187 185 186
5.139119 -13.856238 62.284859 187 185 186
0.259740 -0.695641 3.147980 188 185 186
0.158910 -0.422736 1.925950 189 184 186
0.158245 -0.419542 1.917889 191 183 186
0.186468 -0.492688 2.259946 192 183 186
0.187223 -0.492998 2.269095 192 183 186
0.187929 -0.491474 2.277653 192 183 186
0.187792 -0.489424 2.275991 192 183 186
0.157792 -0.402716 1.912401 190 180 188
0.157656 -0.400950 1.910756 190 180 188
0.157464 -0.399043 1.908423 190 180 188
0.157514 -0.397753 1.909035 190 180 188
0.157768 -0.396974 1.912113 190 180 188
0.157542 -0.394986 1.909365 190 180 188
0.158929 -0.397034 1.926182 190 180 188
0.257347 -0.635948 3.118977 190 180 188
0.256956 -0.632670 3.114243 190 180 188
0.425719 -1.029030 5.159604 190 180 188
0.185931 -0.442730 2.253438 190 180 188
0.186370 -0.442099 2.258764 190 180 188
0.186283 -0.440214 2.257704 190 180 186
0.188002 -0.437508 2.278543 189 180 183
0.187258 -0.434089 2.269520 189 180 183
0.186709 -0.431137 2.262873 189 180 183
0.233190 -0.502779 2.826200 190 180 188
0.232751 -0.499738 2.820884 190 180 188
0.148887 -0.314314 1.804478 189 179 187
0.173784 -0.363745 2.106223 189 179 187
0.173933 -0.362491 2.108031 189 179 187
0.173981 -0.361024 2.108607 189 179 187
0.173877 -0.359243 2.107344 189 179 187
0.174169 -0.358278 2.110881 189 179 185
0.174075 -0.354951 2.109749 189 180 183
0.426534 -0.827496 5.169493 190 181 184
0.294750 -0.566522 3.572300 190 181 184
0.209702 -0.401168 2.541534 190 181 184
0.209804 -0.397586 2.542776 192 183 186
0.295782 -0.557855 3.584810 192 183 186
0.296432 -0.556412 3.592686 192 183 186
0.300195 -0.558070 3.638287 192 183 186
0.300833 -0.556548 3.646021 192 183 186
0.299963 -0.552238 3.635476 192 183 187
0.298848 -0.547496 3.621970 192 183 188
0.299320 -0.545666 3.627690 192 183 188
0.300226 -0.544614 3.638660 192 183 188
0.161332 -0.288301 1.955300 192 182 190
0.161182 -0.286582 1.953486 192 182 190
0.422900 -0.744304 5.125439 190 182 190
0.209569 -0.363182 2.539924 184 179 185
0.195901 -0.300698 2.374273 67 90 121
0.196445 -0.299765 2.380868 60 85 116
0.195778 -0.296984 2.372783 48 73 105
0.196738 -0.296670 2.384420 31 54 85
0.197573 -0.296150 2.394540 20 43 70
0.197103 -0.293671 2.388838 23 45 67
0.195330 -0.289271 2.367352 27 48 66
0.195685 -0.284512 2.371660 6 22 37
0.195966 -0.283157 2.375066 4 20 35
0.194794 -0.279710 2.360861 2 16 31
0.194734 -0.277871 2.360134 1 13 28
0.194259 -0.275444 2.354373 2 12 27
0.194244 -0.273674 2.354190 2 11 24
0.194183 -0.271840 2.353456 1 10 21
0.194010 -0.269850 2.351350 1 9 19
0.194223 -0.268399 2.353940 2 11 20
0.193797 -0.266066 2.348777 2 12 21
0.193217 -0.263530 2.341741 1 11 20
0.193636 -0.262358 2.346820 1 11 20
0.193851 -0.260904 2.349425 0 9 18
0.194209 -0.259637 2.353760 0 9 18
0.194554 -0.258348 2.357949 0 7 18
0.193843 -0.255658 2.349327 0 6 16
0.194647 -0.254967 2.359074 0 6 15
0.194209 -0.252644 2.353760 0 7 15
0.195685 -0.252804 2.371660 1 8 15
0.196221 -0.249963 2.378152 2 9 15
0.194512 -0.246035 2.357442 1 8 16
0.194755 -0.244589 2.360383 1 7 16
0.195535 -0.243808 2.369832 1 5 16
0.195198 -0.241630 2.365747 0 3 15
0.195903 -0.240740 2.374294 0 1 14
0.193597 -0.236164 2.346352 0 1 14
0.192457 -0.233040 2.332535 0 1 14
0.191986 -0.230741 2.326819 0 0 13
0.192419 -0.229530 2.332077 2 3 15
0.192215 -0.227556 2.329597 13 16 27
0.192043 -0.225623 2.327510 34 39 47
0.192807 -0.224786 2.336776 53 60 68
0.192307 -0.222472 2.330719 67 76 84
0.191855 -0.220222 2.325241 78 88 94
0.191833 -0.218469 2.324967 87 95 100
0.192008 -0.216940 2.327089 90 96 102
0.191807 -0.214987 2.324659 93 96 106
0.192398 -0.213916 2.331815 98 100 112
0.192088 -0.211842 2.328054 101 102 119
0.192798 -0.210891 2.336669 102 102 124
0.192309 -0.208624 2.330739 106 106 134
0.192130 -0.206700 2.328567 109 107 146
0.192029 -0.204863 2.327346 116 114 164
0.192309 -0.203430 2.330737 119 116 174
0.192991 -0.202414 2.339000 122 117 182
0.191647 -0.199280 2.322716 128 123 188
0.191222 -0.197116 2.317558 121 117 176
0.190934 -0.195101 2.314077 100 98 143
0.190979 -0.193427 2.314615 80 82 104
0.189797 -0.190522 2.300292 92 96 108
0.189909 -0.188924 2.301645 101 105 117
0.189332 -0.186646 2.294655 99 103 115
0.188835 -0.184456 2.288632 91 94 107
0.188390 -0.182326 2.283241 81 84 96
0.188317 -0.180559 2.282352 69 71 84
0.188446 -0.178987 2.283922 60 62 75
0.186796 -0.175738 2.263923 59 59 71
0.187603 -0.174808 2.273698 68 67 79
0.187398 -0.172931 2.271220 80 78 91
0.187439 -0.171281 2.271712 89 87 100
0.187843 -0.169959 2.276606 100 98 111
0.186633 -0.167185 2.261949 113 111 124
0.187051 -0.165875 2.267015 122 120 133
0.186921 -0.164077 2.265435 127 123 137
0.186688 -0.162192 2.262611 139 132 148
0.185871 -0.159809 2.252712 134 127 141
0.185314 -0.157662 2.245965 121 117 128
0.185469 -0.156124 2.247842 82 79 86
0.186376 -0.155210 2.258834 28 25 29
0.186844 -0.153917 2.264504 5 3 4
0.187894 -0.153091 2.277227 16 11 13
0.188051 -0.151526 2.279138 57 50 52
0.188039 -0.149823 2.278984 97 86 92
0.186961 -0.147282 2.265926 109 97 105
0.187662 -0.146144 2.274413 111 99 108
0.188874 -0.145388 2.289110 114 104 113
0.188252 -0.143215 2.281574 123 117 127
0.187905 -0.141259 2.277366 124 122 130
0.187667 -0.139390 2.274474 115 118 123
0.187319 -0.137446 2.270261 113 118 121
0.187337 -0.135772 2.270477 113 119 120
0.186218 -0.133285 2.256911 108 113 114
0.186346 -0.131699 2.258462 99 101 105
0.186204 -0.129923 2.256746 87 87 93
0.185925 -0.128054 2.253369 78 73 83
0.186046 -0.126463 2.254832 76 65 79
0.186114 -0.124834 2.255657 78 64 79
0.186220 -0.123228 2.256936 83 66 82
0.186345 -0.121633 2.258451 73 54 69
0.187066 -0.120420 2.267200 63 41 56
0.187808 -0.119207 2.276191 50 27 43
0.188262 -0.117800 2.281686 54 28 46
0.189381 -0.116796 2.295254 78 52 72
0.188262 -0.114411 2.281686 103 79 100
0.187319 -0.112152 2.270261 109 85 107
0.186784 -0.110150 2.263774 98 76 96
0.186650 -0.108390 2.262151 85 69 85
0.186299 -0.106509 2.257892 80 68 80
0.186073 -0.104706 2.255164 75 66 75
0.185689 -0.102818 2.250509 69 62 70
0.185713 -0.101159 2.250795 67 62 68
0.185458 -0.099351 2.247709 73 71 75
0.185345 -0.097621 2.246331 86 85 87
0.185624 -0.096098 2.249719 98 96 97
0.186304 -0.094773 2.257965 106 105 106
0.186243 -0.093065 2.257220 109 107 108
0.185888 -0.091214 2.252914 112 110 111
0.186080 -0.089633 2.255241 114 114 114
0.185938 -0.087891 2.253519 115 117 116
