ply
format ascii 1.0
element vertex 1203
property float x
property float y
property float z
property uchar red
property uchar green
property uchar blue
end_header
0.592285 -0.363543 2.711471 182 174 171
0.596716 -0.364234 2.731759 182 174 171
0.589782 -0.341952 2.700014 182 174 171
0.590634 -0.340438 2.703914 182 174 171
0.590100 -0.336117 2.701469 182 174 171
0.889770 -0.482602 4.073352 182 174 171
0.887855 -0.478544 4.064585 182 174 171
0.527919 -0.275567 2.416803 182 174 171
0.356331 -0.184789 1.631278 182 174 171
0.438242 -0.209385 2.006267 182 174 171
0.364622 -0.164291 1.669233 182 174 171
0.363996 -0.162772 1.666370 182 174 171
0.670156 -0.283728 3.067964 182 174 171
0.670821 -0.281729 3.071010 182 174 171
0.672711 -0.280235 3.079659 182 174 171
0.673274 -0.278180 3.082238 182 174 171
0.671434 -0.275137 3.073813 182 174 171
0.669920 -0.269960 3.066884 182 174 171
0.672252 -0.268614 3.077558 182 174 171
0.674997 -0.267416 3.090127 182 174 171
0.676123 -0.265563 3.095282 182 174 171
0.673936 -0.262412 3.085270 182 174 171
0.676810 -0.261230 3.098424 182 174 171
0.768740 -0.265344 3.519279 182 174 171
0.765967 -0.261782 3.506584 182 174 171
0.522695 -0.171531 2.392891 182 174 171
0.522336 -0.169636 2.391244 182 174 171
0.524698 -0.168619 2.402059 182 174 171
0.527705 -0.167792 2.415828 182 173 170
0.671623 -0.204417 3.074678 182 172 170
0.772123 -0.208750 3.534767 181 173 170
0.767343 -0.204849 3.512886 181 173 170
0.768872 -0.202643 3.519884 181 173 170
0.770244 -0.200385 3.526166 181 173 170
0.773600 -0.195997 3.541527 182 174 171
0.442586 -0.109122 2.026152 182 174 171
0.773380 -0.174903 3.540520 181 173 170
0.778093 -0.173323 3.562099 181 173 170
0.780570 -0.171220 3.573437 181 173 170
0.876790 -0.186364 4.013932 181 173 170
0.880502 -0.184159 4.030925 181 173 170
0.904094 -0.186019 4.138930 181 173 170
0.674281 -0.127270 3.086846 181 173 170
0.675902 -0.125278 3.094271 181 173 170
0.674717 -0.122764 3.088842 181 173 170
0.674087 -0.120357 3.085961 181 173 170
0.674635 -0.118161 3.088470 181 173 170
0.673963 -0.115752 3.085395 181 173 170
0.675920 -0.113789 3.094351 181 173 170
0.767449 -0.116150 3.513369 181 173 170
0.740997 -0.049155 3.392274 180 172 169
0.759157 -0.021964 3.475411 178 170 167
0.775160 -0.019791 3.548671 178 170 167
0.779111 -0.017242 3.566759 178 170 167
0.777043 -0.014554 3.557290 178 170 167
0.776123 -0.011898 3.553080 178 170 167
0.769510 -0.009180 3.522805 178 170 167
0.770111 -0.006568 3.525558 178 170 167
0.771841 -0.003959 3.533478 178 170 167
0.686756 0.026836 3.143959 179 171 168
0.743609 0.034115 3.404230 178 170 167
0.724659 0.038173 3.317479 178 170 167
0.719658 0.040357 3.294582 178 170 167
0.693600 0.050688 3.175292 178 170 167
0.680375 0.054349 3.114747 178 170 167
0.777320 0.104384 3.558560 178 170 167
0.775567 0.119972 3.550534 177 169 166
0.780729 0.123425 3.574165 177 169 166
0.779993 0.125961 3.570797 177 169 166
0.675458 0.113673 3.092236 177 169 166
0.672893 0.115530 3.080494 177 169 166
0.670706 0.117435 3.070484 177 169 167
0.663920 0.118505 3.039417 177 169 166
0.671870 0.129062 3.075809 178 171 161
0.673107 0.131588 3.081475 177 170 160
0.675932 0.134439 3.094407 176 169 160
0.678117 0.137180 3.104411 176 169 161
0.686035 0.141114 3.140657 175 168 160
0.706601 0.150150 3.234807 172 165 157
0.779908 0.171031 3.570406 171 164 156
0.781386 0.174012 3.577174 171 164 156
0.781776 0.176758 3.578960 171 164 156
0.783499 0.179811 3.586846 171 164 156
0.785068 0.182841 3.594028 171 164 156
0.690135 0.165425 3.159428 170 163 155
0.693268 0.196822 3.173769 167 164 157
0.687616 0.197555 3.147895 167 164 156
0.687296 0.199800 3.146431 167 164 154
0.686962 0.202039 3.144900 167 164 154
0.691812 0.205818 3.167107 167 164 153
0.718104 0.220966 3.287471 170 164 150
0.720990 0.224305 3.300681 170 164 151
0.451094 0.169483 2.065102 163 157 141
0.387022 0.149358 1.771782 161 155 142
0.348747 0.146446 1.596558 164 161 144
0.349531 0.147963 1.600148 164 161 144
0.351221 0.149873 1.607886 164 161 144
0.946303 0.429549 4.332160 162 156 142
0.402604 0.186859 1.843116 161 154 144
0.401647 0.187780 1.838733 161 154 146
0.907762 0.436749 4.155722 157 150 142
0.847722 0.430922 3.880858 153 147 136
0.855823 0.437950 3.917943 151 145 134
0.405039 0.212780 1.854264 151 144 135
0.404600 0.213925 1.852252 148 141 132
0.594119 -0.617121 2.710653 182 174 172
0.779354 -0.806886 3.555781 182 174 172
0.780354 -0.805276 3.560342 182 174 172
0.477693 -0.489711 2.179460 182 174 172
0.454611 -0.464508 2.074148 182 174 172
0.439272 -0.441392 2.004168 181 174 172
0.437088 -0.430310 1.994200 178 175 172
0.438766 -0.430475 2.001858 179 175 172
0.438834 -0.429054 2.002166 179 175 172
0.414415 -0.402371 1.890758 179 174 172
0.433494 -0.417958 1.977805 182 173 174
0.433723 -0.416708 1.978846 182 173 174
0.433171 -0.414710 1.976328 182 173 174
0.432428 -0.412533 1.972939 182 173 174
0.400373 -0.377883 1.826692 182 173 174
0.438881 -0.405304 2.002383 182 174 172
0.438819 -0.403760 2.002100 182 174 172
0.438938 -0.402381 2.002641 182 174 172
0.348954 -0.311614 1.592093 183 173 172
0.349113 -0.310573 1.592818 182 173 172
0.348991 -0.309281 1.592261 181 174 172
0.348623 -0.307774 1.590583 180 174 172
0.598336 -0.509978 2.729889 183 175 173
0.601275 -0.510446 2.743300 183 176 174
0.895212 -0.753912 4.084377 184 176 174
0.894201 -0.713666 4.079764 184 176 174
0.895748 -0.711866 4.086824 184 176 174
0.897080 -0.709884 4.092900 184 176 174
1.901192 -1.478694 8.674131 184 176 174
0.582782 -0.451297 2.658927 184 176 174
0.582345 -0.448985 2.656934 184 176 174
0.582513 -0.447141 2.657699 183 175 173
0.897098 -0.682537 4.092982 182 174 171
0.582262 -0.441028 2.656552 182 174 171
0.578920 -0.434573 2.641306 182 174 171
0.578509 -0.432304 2.639433 182 174 171
0.581759 -0.432761 2.654258 182 174 171
0.662048 -0.479025 3.020576 182 174 171
0.662692 -0.477245 3.023514 182 174 171
0.667914 -0.478742 3.047337 182 174 171
0.668655 -0.477008 3.050719 182 174 171
0.382824 -0.271803 1.746621 182 174 171
0.383659 -0.271096 1.750434 182 174 172
0.438144 -0.305141 1.999020 182 173 172
0.584948 -0.391522 2.668807 182 173 172
0.526042 -0.350313 2.400053 182 173 172
0.437466 -0.286879 1.995926 182 174 172
0.583968 -0.378992 2.664336 182 174 171
0.586579 -0.374724 2.676250 182 174 171
0.586871 -0.372921 2.677580 182 174 171
0.584523 -0.369448 2.666868 182 174 171
0.356028 -0.222615 1.624365 182 174 171
0.582916 -0.358556 2.659539 182 174 171
0.583598 -0.356998 2.662651 182 174 171
0.586538 -0.338919 2.676061 182 174 171
0.585821 -0.332549 2.672793 182 174 171
0.585636 -0.330459 2.671945 182 174 171
0.894296 -0.483413 4.080200 182 174 171
0.892111 -0.479209 4.070230 182 174 171
0.528301 -0.274832 2.410358 182 174 171
0.435976 -0.209073 1.989126 182 174 171
0.674166 -0.316444 3.075861 182 174 171
0.670535 -0.280654 3.059294 182 174 171
0.672459 -0.276902 3.068073 182 174 171
0.672359 -0.274582 3.067617 182 174 171
0.671060 -0.267229 3.061691 182 174 171
0.673870 -0.266064 3.074511 182 174 171
0.675916 -0.264582 3.083847 182 174 171
0.674438 -0.261718 3.077106 182 174 171
0.677078 -0.260448 3.089150 182 174 171
0.759741 -0.261349 3.466294 182 174 171
0.761884 -0.259504 3.476073 182 174 171
0.762120 -0.257002 3.477149 182 174 171
0.519097 -0.169772 2.368364 182 174 171
0.519205 -0.168048 2.368858 182 174 171
0.670535 -0.205667 3.059294 182 172 170
0.672868 -0.204102 3.069942 182 172 170
0.759891 -0.202172 3.466980 181 173 170
0.760691 -0.199807 3.470628 181 173 170
0.762920 -0.197807 3.480801 181 173 170
0.768714 -0.194099 3.507234 182 174 171
0.750727 -0.171749 3.425169 181 173 170
0.766032 -0.172654 3.495001 181 173 170
0.767751 -0.170440 3.502840 181 173 170
0.760278 -0.166204 3.468744 181 173 170
0.769348 -0.165580 3.510126 181 173 170
0.870729 -0.181498 3.972675 181 173 170
0.891134 -0.182731 4.065774 181 173 170
0.673963 -0.126779 3.074936 181 173 170
0.676393 -0.124944 3.086022 181 173 170
0.675181 -0.122432 3.080494 181 173 170
0.674784 -0.120073 3.078683 181 173 170
0.675690 -0.117945 3.082816 181 173 170
0.674908 -0.115521 3.079249 181 173 170
0.675131 -0.113271 3.080266 181 173 170
0.759064 -0.114491 3.463205 181 173 170
0.756923 -0.111604 3.453440 181 173 170
0.765372 -0.110256 3.491988 181 173 171
0.766950 -0.107884 3.499186 181 173 171
0.745365 -0.089692 3.400705 181 172 174
0.744999 -0.087123 3.399036 181 172 176
0.746292 -0.084745 3.404934 181 172 175
0.746645 -0.082255 3.406544 181 172 175
0.748064 -0.079876 3.413020 181 172 174
0.746476 -0.056939 3.405773 181 173 171
0.745324 -0.054326 3.400521 181 173 171
0.744018 -0.051709 3.394560 181 173 171
0.743109 -0.049128 3.390414 180 172 169
0.743177 -0.046614 3.390724 179 171 168
0.745631 -0.041714 3.401920 179 171 168
0.738116 -0.028787 3.367633 178 170 167
0.678076 -0.021849 3.093701 178 170 167
0.754101 -0.021743 3.440564 178 170 167
0.763776 -0.009081 3.484704 178 170 167
0.761130 -0.006470 3.472632 178 170 167
0.758502 -0.001307 3.460643 178 170 167
0.717038 0.025494 3.271464 179 171 168
0.724763 0.038050 3.306712 178 170 167
0.721517 0.042769 3.291900 178 170 167
0.780354 0.104436 3.560342 178 170 167
0.651883 0.093870 2.974196 178 170 167
0.774452 0.116769 3.533414 178 170 167
0.779166 0.122761 3.554921 177 169 166
0.677347 0.111310 3.090376 177 169 166
0.675602 0.113312 3.082415 177 169 166
0.674755 0.115457 3.078548 177 169 166
0.657984 0.117047 3.002031 177 169 166
0.654600 0.118663 2.986591 177 169 165
0.648059 0.121870 2.956750 178 171 163
0.672749 0.128793 3.069397 178 171 161
0.672587 0.131041 3.068660 177 170 160
0.674032 0.133607 3.075250 176 169 160
0.678184 0.136728 3.094194 176 169 161
0.684066 0.140232 3.121033 175 168 160
0.784223 0.176710 3.577992 171 164 156
0.783326 0.179163 3.573904 171 164 156
0.779166 0.180851 3.554921 171 164 156
0.684152 0.161116 3.121423 171 164 156
0.690092 0.164854 3.148523 170 163 155
0.689318 0.167005 3.144995 170 163 155
0.694925 0.170718 3.170574 170 163 155
0.682436 0.172276 3.113595 170 163 155
0.617471 0.162153 2.817193 169 163 155
0.693570 0.196240 3.164392 167 164 157
0.689297 0.197367 3.144900 167 164 156
0.688327 0.199422 3.140471 167 164 154
0.688033 0.201669 3.139132 167 164 153
0.686626 0.203583 3.132709 167 164 152
0.692325 0.207619 3.158710 168 164 152
0.388428 0.149393 1.772193 161 155 141
0.703538 0.292044 3.209870 165 160 144
0.846848 0.426149 3.863718 155 149 136
0.848077 0.429642 3.869325 152 146 133
0.405467 0.212283 1.849932 152 144 132
0.405201 0.213517 1.848719 154 146 135
0.596133 -0.617121 2.710653 182 174 172
0.781995 -0.806886 3.555781 182 174 172
0.774441 -0.796475 3.521430 182 174 172
0.479312 -0.489711 2.179460 182 174 172
0.455170 -0.463509 2.069687 182 174 172
0.439915 -0.440545 2.000322 181 174 172
0.439951 -0.430180 2.000484 179 175 172
0.440632 -0.429357 2.003578 179 175 172
0.433351 -0.413481 1.970473 182 173 176
0.433692 -0.412342 1.972025 182 173 176
0.406710 -0.383941 1.849334 182 173 174
0.401616 -0.377775 1.826172 182 173 174
0.350219 -0.325881 1.592467 182 173 172
0.440149 -0.405102 2.001384 182 174 172
0.440016 -0.403494 2.000782 182 174 172
0.440041 -0.402030 2.000895 182 174 172
0.351071 -0.319560 1.596341 182 174 172
0.351300 -0.318582 1.597383 182 174 172
0.350102 -0.311583 1.591937 183 173 172
0.349972 -0.310285 1.591343 182 173 172
0.350050 -0.309172 1.591699 181 174 172
0.586700 -0.502335 2.667763 179 175 172
0.589804 -0.503000 2.681874 179 175 172
0.591728 -0.502642 2.690622 181 176 173
0.587450 -0.497025 2.671171 183 176 174
0.897983 -0.741560 4.083182 184 176 174
0.896781 -0.734510 4.077720 184 176 174
0.895957 -0.730809 4.073971 184 176 174
0.887238 -0.705718 4.034325 184 176 174
0.886887 -0.702443 4.032730 184 176 174
0.888255 -0.700527 4.038950 184 176 174
0.657051 -0.509310 2.987651 184 176 174
0.583551 -0.450366 2.653441 184 176 174
0.580905 -0.446362 2.641411 184 176 174
0.579973 -0.443687 2.637171 183 175 173
0.579985 -0.441737 2.637225 182 174 171
0.882423 -0.669104 4.012430 182 174 171
0.578515 -0.434756 2.630545 182 174 171
0.578280 -0.432627 2.629476 182 174 171
0.578393 -0.430758 2.629989 182 174 171
0.580116 -0.430081 2.637823 182 174 171
0.579892 -0.427956 2.636802 182 174 171
0.658453 -0.474815 2.994025 182 174 171
0.658197 -0.472408 2.992864 182 174 171
0.664915 -0.474983 3.023410 182 174 171
0.666821 -0.474093 3.032077 182 174 171
0.579995 -0.390814 2.637271 182 173 174
0.580298 -0.389058 2.638649 182 173 174
0.582628 -0.388653 2.649247 182 173 174
0.529650 -0.351524 2.408353 182 173 174
0.657751 -0.432100 2.990835 182 173 172
0.437891 -0.286188 1.991119 182 174 172
0.580528 -0.377448 2.639696 182 174 172
0.581734 -0.376267 2.645178 182 174 172
0.581805 -0.374348 2.645501 182 174 171
0.583730 -0.369673 2.654258 182 174 171
0.586930 -0.369717 2.668807 182 174 171
0.355344 -0.221437 1.615770 182 174 171
0.579177 -0.355053 2.633555 182 174 171
0.762707 -0.457258 3.468075 182 174 171
0.660832 -0.387254 3.004843 182 174 171
0.662351 -0.385907 3.011750 182 174 171
0.582959 -0.335713 2.650748 182 174 171
0.675457 -0.386700 3.071346 182 174 171
0.678783 -0.386311 3.086467 182 174 171
0.581456 -0.328956 2.643915 182 174 171
0.582232 -0.327428 2.647442 182 174 171
0.894458 -0.481868 4.067153 182 174 171
0.517713 -0.259672 2.354072 182 174 171
0.669663 -0.281604 3.044997 182 174 171
0.668556 -0.278881 3.039966 182 174 171
0.668585 -0.274377 3.040098 182 174 171
0.668979 -0.272279 3.041888 182 174 171
0.671915 -0.271205 3.055240 182 174 171
0.670760 -0.266208 3.049986 182 174 171
0.670636 -0.263893 3.049424 182 174 171
0.672807 -0.262475 3.059294 182 174 171
0.672807 -0.260203 3.059294 182 174 171
0.680888 -0.261029 3.096041 182 174 171
0.688080 -0.261462 3.128741 182 174 171
3.675524 -1.309757 16.712833 182 174 171
0.758929 -0.260188 3.450896 182 174 171
0.759499 -0.257819 3.453490 182 174 171
0.759876 -0.255380 3.455202 182 174 171
0.512487 -0.165314 2.330309 182 174 171
0.512716 -0.163656 2.331351 182 174 171
0.760146 -0.237499 3.456432 182 172 170
0.670302 -0.204901 3.047904 182 172 170
0.760073 -0.204104 3.456098 181 173 170
0.758551 -0.201134 3.449177 181 173 170
0.758976 -0.198683 3.451112 181 173 170
0.760023 -0.196390 3.455871 181 173 170
0.763641 -0.194746 3.472324 182 174 171
0.769421 -0.193621 3.498605 182 174 171
0.762091 -0.171186 3.465274 181 173 170
0.764466 -0.169137 3.476073 181 173 170
0.762349 -0.166094 3.466445 181 173 170
0.763048 -0.163669 3.469627 181 173 170
0.880447 -0.179930 4.003446 181 173 170
0.677191 -0.124669 3.079229 181 173 170
0.676388 -0.122237 3.075577 181 173 170
0.676130 -0.119906 3.074403 181 173 170
0.676939 -0.117764 3.078083 181 173 170
0.676247 -0.115359 3.074936 181 173 170
0.676439 -0.113108 3.075809 181 173 170
0.747224 -0.109801 3.397672 181 173 170
0.744236 -0.089254 3.384088 181 172 174
0.742972 -0.086593 3.378340 181 172 176
0.743798 -0.084177 3.382094 181 172 175
0.743681 -0.081652 3.381565 181 172 175
0.744567 -0.079234 3.385592 181 172 175
0.745417 -0.076807 3.389458 181 172 175
0.745672 -0.074315 3.390615 181 172 173
0.746207 -0.071848 3.393050 181 172 173
0.596220 -0.055393 2.711050 181 172 173
0.745201 -0.061684 3.388476 181 173 171
0.745447 -0.056669 3.389595 181 173 171
0.744526 -0.054084 3.385404 181 173 171
0.743975 -0.051532 3.382900 181 173 171
0.743456 -0.048985 3.380538 180 172 169
0.743266 -0.046462 3.379675 179 171 168
0.743365 -0.043957 3.380124 179 171 168
0.746132 -0.034041 3.392709 179 171 168
0.741430 -0.028818 3.371326 178 170 167
0.673664 -0.021634 3.063190 178 170 167
0.749120 -0.003816 3.406294 178 170 167
0.747524 -0.001283 3.399036 178 170 167
0.725562 0.025710 3.299174 179 171 168
0.719887 0.027940 3.273371 179 171 168
0.724905 0.030584 3.296189 179 171 168
0.736494 0.033560 3.348881 178 170 167
0.727010 0.040494 3.305757 178 170 167
0.725528 0.042862 3.299022 178 170 167
0.730797 0.065387 3.322978 178 170 167
0.730238 0.067803 3.320437 178 170 167
0.734449 0.070675 3.339584 178 170 167
0.648816 0.095304 2.950208 178 170 167
0.782931 0.120293 3.560037 177 169 166
0.783497 0.123026 3.562610 177 169 166
0.675384 0.108331 3.071010 177 169 166
0.674738 0.110506 3.068073 177 169 166
0.675271 0.112874 3.070499 177 169 166
0.672396 0.114665 3.057428 177 169 166
0.668134 0.116194 3.038046 177 169 167
0.651274 0.117662 2.961382 177 169 164
0.640510 0.120044 2.912438 178 171 163
0.668050 0.131974 3.037662 176 169 160
0.670497 0.134722 3.048789 176 169 161
0.717917 0.158798 3.264413 171 164 156
0.679881 0.157273 3.091460 171 164 156
0.687621 0.163709 3.126653 170 163 155
0.686271 0.165705 3.120518 170 163 155
0.691678 0.169347 3.145102 170 163 155
0.689487 0.171139 3.135141 170 163 155
0.685733 0.172523 3.118071 170 163 155
0.612094 0.160198 2.783228 169 163 155
0.692565 0.192955 3.149137 167 164 155
0.695203 0.196038 3.161131 167 164 157
0.690038 0.196912 3.137644 167 164 156
0.688693 0.198854 3.131530 167 164 155
0.687604 0.200862 3.126580 167 164 154
0.687011 0.203009 3.123880 167 164 153
0.687702 0.205536 3.127023 168 164 152
0.799426 0.244327 3.635038 170 164 150
0.451946 0.168656 2.055026 164 158 142
0.390280 0.150916 1.774627 161 155 143
0.700133 0.289649 3.183549 166 160 144
0.699714 0.291839 3.181644 166 160 144
0.412210 0.183063 1.874343 165 159 147
0.853142 0.399053 3.879291 160 153 145
0.408168 0.196432 1.855963 156 149 141
0.712078 0.361930 3.237862 150 144 129
0.405855 0.211768 1.845445 155 146 133
0.406730 0.213599 1.849427 154 146 132
0.598146 -0.617121 2.710653 182 174 172
0.784637 -0.806886 3.555781 182 174 172
0.480931 -0.489711 2.179460 182 174 172
0.455923 -0.462713 2.066132 182 174 172
0.440269 -0.439416 1.995192 181 174 172
0.438959 -0.429242 1.989253 178 175 172
0.441514 -0.428769 2.000834 179 175 172
0.439564 -0.425396 1.991998 179 175 173
0.437061 -0.420031 1.980655 181 173 175
0.433002 -0.411758 1.962260 182 173 176
0.434448 -0.411670 1.968813 182 173 176
0.403346 -0.380842 1.827867 182 173 175
0.404564 -0.380629 1.833383 182 173 174
0.351098 -0.326781 1.591090 182 173 174
0.350988 -0.325497 1.590590 182 173 172
0.373585 -0.343938 1.692996 182 173 172
0.440598 -0.402667 1.996682 182 174 172
0.440525 -0.401118 1.996353 182 174 172
0.351141 -0.318548 1.591286 182 174 172
0.351354 -0.317558 1.592252 182 174 172
7.578857 -6.824353 34.345528 182 174 172
7.970263 -7.149964 36.119286 182 174 172
7.691577 -6.874071 34.856350 182 174 172
0.351234 -0.310356 1.591709 182 173 172
7.803383 -6.842660 35.363026 180 174 172
0.586921 -0.500832 2.659781 179 175 172
0.586794 -0.498749 2.659209 179 175 172
0.588336 -0.498079 2.666197 183 175 173
0.584887 -0.493190 2.650563 183 176 174
0.581850 -0.488671 2.636802 184 176 174
7.280063 -6.089708 32.991467 184 176 174
1.080612 -0.900285 4.897069 184 176 174
0.889978 -0.705515 4.033164 184 176 174
0.880599 -0.695116 3.990662 184 176 174
0.583945 -0.451118 2.646295 184 176 174
0.582928 -0.448371 2.641689 184 176 174
0.581014 -0.444943 2.633015 184 176 174
0.579152 -0.441568 2.624577 183 175 173
0.578253 -0.438936 2.620501 182 174 171
0.575759 -0.429291 2.609200 182 174 171
0.577294 -0.428492 2.616157 182 174 171
0.579759 -0.428370 2.627328 182 174 171
0.579831 -0.426472 2.627654 182 174 171
0.591378 -0.430983 2.679982 182 174 171
0.654118 -0.470101 2.964301 182 174 171
0.656166 -0.469364 2.973583 182 174 171
0.659973 -0.469866 2.990835 182 174 171
0.574919 -0.386089 2.605391 182 173 174
0.576167 -0.384988 2.611046 182 173 174
0.532014 -0.351904 2.410956 182 173 174
0.654049 -0.428222 2.963988 182 173 172
0.568150 -0.362420 2.574718 182 174 171
0.572021 -0.362963 2.592259 182 174 171
0.573142 -0.350170 2.597340 182 174 171
0.568618 -0.345492 2.576840 182 174 171
0.673869 -0.384492 3.053812 182 174 171
0.677901 -0.384510 3.072080 182 174 171
0.577043 -0.325361 2.615020 182 174 171
0.578589 -0.324285 2.622022 182 174 171
0.901325 -0.486967 4.084583 182 174 171
0.898331 -0.482325 4.071017 182 174 171
0.560157 -0.293213 2.538495 182 174 171
0.905010 -0.424985 4.101282 182 174 171
0.672514 -0.281851 3.047668 182 174 171
0.672003 -0.279375 3.045353 182 174 171
0.669967 -0.274019 3.036129 182 174 171
0.669967 -0.271764 3.036129 182 174 171
0.672403 -0.270488 3.047164 182 174 171
0.673893 -0.262014 3.053917 182 174 171
0.676111 -0.260601 3.063970 182 174 171
0.679225 -0.259515 3.078083 182 174 171
0.682895 -0.258618 3.094713 182 174 171
0.758996 -0.256780 3.439583 182 174 170
0.757591 -0.253755 3.433219 182 174 170
0.750272 -0.233625 3.400048 182 172 170
0.751003 -0.200990 3.403364 181 173 170
0.751988 -0.198722 3.407826 181 173 170
0.752956 -0.196444 3.412214 181 173 170
0.447553 -0.110739 2.028202 182 174 171
0.750519 -0.175598 3.401167 182 174 171
0.749413 -0.172816 3.396157 181 173 170
0.749576 -0.170331 3.396895 181 173 170
0.754894 -0.166457 3.420994 181 173 170
0.750685 -0.163002 3.401920 181 173 170
0.865591 -0.176298 3.922648 181 173 170
0.680154 -0.124793 3.082290 181 173 170
0.679296 -0.122349 3.078403 181 173 170
0.678945 -0.120001 3.076814 181 173 170
0.679628 -0.117834 3.079908 181 173 170
0.678830 -0.115410 3.076291 181 173 170
0.679265 -0.113198 3.078265 181 173 170
0.737055 -0.107942 3.340152 181 173 170
1.421380 -0.174672 6.441345 181 172 172
0.739790 -0.088422 3.352548 181 172 174
0.736284 -0.085524 3.336659 181 172 176
0.738739 -0.083323 3.347785 181 172 176
0.737087 -0.080655 3.340297 181 172 176
0.737271 -0.078194 3.341130 181 172 175
0.739265 -0.075917 3.350168 181 172 175
0.739512 -0.073453 3.351289 181 172 174
0.597569 -0.055331 2.708037 181 172 173
0.597364 -0.053302 2.707108 181 172 173
0.599768 -0.051497 2.718003 181 172 171
0.741830 -0.056204 3.361791 181 173 171
0.739355 -0.053528 3.350577 181 173 171
0.738607 -0.050987 3.347187 181 173 171
0.737313 -0.048416 3.341323 180 172 169
0.737115 -0.045922 3.340427 179 171 168
0.735488 -0.043345 3.333052 179 171 168
0.613877 -0.032045 2.781941 179 171 168
0.617303 -0.030146 2.797468 179 171 168
0.735762 -0.030978 3.334294 179 171 168
0.736929 -0.028547 3.339584 178 170 167
0.738511 -0.008721 3.346751 178 170 167
0.739829 -0.006246 3.352725 178 170 167
0.739569 -0.001265 3.351547 178 170 167
0.721309 0.025473 3.268797 179 171 168
0.731058 0.028279 3.312976 179 171 168
0.726947 0.030566 3.294347 179 171 168
0.728835 0.033099 3.302904 178 170 167
0.732115 0.035712 3.317768 178 170 167
0.728748 0.038001 3.302510 178 170 167
0.729503 0.040496 3.305930 178 170 167
0.727759 0.042849 3.298028 178 170 167
0.730453 0.045466 3.310234 178 170 167
0.726968 0.047696 3.294442 178 170 167
0.727462 0.050177 3.296681 178 170 167
0.729036 0.052740 3.303811 178 170 167
0.723584 0.054781 3.279108 178 170 167
0.729981 0.062637 3.308095 178 170 167
0.728835 0.064992 3.302904 178 170 167
0.731685 0.067709 3.315820 178 170 167
0.732282 0.070229 3.318525 178 170 167
0.733393 0.072804 3.323557 178 170 167
0.735016 0.075440 3.330914 178 170 167
0.735704 0.077987 3.334030 178 170 167
0.671354 0.114102 3.042412 177 169 166
0.637262 0.121178 2.887914 178 171 161
0.644352 0.124695 2.920046 177 170 160
0.653071 0.128581 2.959560 176 169 160
0.662089 0.132585 3.000427 176 169 161
0.670565 0.136539 3.038836 175 168 160
0.712263 0.152222 3.227802 171 164 156
0.716513 0.157954 3.247062 171 164 156
0.678429 0.156409 3.074473 171 164 156
0.681018 0.161591 3.086206 170 163 155
0.681222 0.163932 3.087132 170 163 155
0.683350 0.166745 3.096774 170 163 155
0.680672 0.170674 3.084640 170 163 155
0.607311 0.158411 2.752184 169 163 155
0.689548 0.189146 3.124861 167 164 155
0.686427 0.195222 3.110720 167 164 156
0.687872 0.197949 3.117269 167 164 155
0.683845 0.199091 3.099018 167 164 153
0.684293 0.201525 3.101049 167 164 152
0.685983 0.204332 3.108710 168 164 152
0.452212 0.168187 2.049314 164 158 142
0.391415 0.150845 1.773796 162 156 144
0.391633 0.152248 1.774785 162 156 144
0.368670 0.147044 1.670724 162 156 144
0.698243 0.290245 3.164265 166 160 144
0.701399 0.293918 3.178568 166 160 144
0.356675 0.151864 1.616362 166 159 145
0.356499 0.152989 1.615568 166 159 146
0.357647 0.154686 1.620768 166 159 146
0.414313 0.180589 1.877567 166 160 148
0.414476 0.182055 1.878302 165 159 147
0.412321 0.182496 1.868538 165 159 147
0.405628 0.184995 1.838207 162 156 144
0.407144 0.210356 1.845079 154 146 130
0.406780 0.211537 1.843430 154 145 130
0.600160 -0.617121 2.710653 182 174 172
0.787278 -0.806886 3.555781 182 174 172
0.482549 -0.489711 2.179460 182 174 172
0.457121 -0.462372 2.064612 182 174 172
0.442412 -0.428199 1.998175 179 175 172
0.440801 -0.425161 1.990899 179 174 173
0.430122 -0.407647 1.942669 182 173 177
0.434614 -0.410446 1.962958 182 173 176
0.403658 -0.379857 1.823142 182 173 176
0.404309 -0.379113 1.826083 182 173 176
0.351812 -0.325167 1.588976 182 173 174
0.916983 -0.838305 4.141601 182 174 172
0.439191 -0.400035 1.983629 182 174 172
0.438623 -0.398046 1.981063 182 174 172
0.351701 -0.317985 1.588476 182 174 172
0.352158 -0.317217 1.590541 182 174 172
7.493945 -6.725257 33.846798 182 174 172
7.733610 -6.914393 34.929256 182 174 172
7.940450 -7.072685 35.863461 182 174 172
7.388787 -6.482160 33.371849 181 174 172
7.476886 -6.534366 33.769749 179 174 172
33.342876 -28.804173 150.594864 177 176 172
0.585819 -0.498215 2.645881 179 175 172
0.583922 -0.494642 2.637313 179 175 172
0.582346 -0.491354 2.630198 182 176 173
0.578831 -0.486446 2.614320 183 176 174
0.576022 -0.482153 2.601634 184 176 174
7.304568 -6.089708 32.991467 184 176 174
0.901117 -0.721018 4.069943 184 176 174
0.903551 -0.713871 4.080935 184 176 174
0.584438 -0.449985 2.639643 184 176 174
0.583042 -0.446954 2.633339 184 176 174
0.581489 -0.443813 2.626326 184 176 174
0.576518 -0.438084 2.603872 183 175 172
0.854009 -0.643215 3.857176 182 174 171
0.541869 -0.406302 2.447382 182 174 171
0.592682 -0.430484 2.676879 182 174 171
0.651264 -0.464295 2.941468 182 174 171
0.569993 -0.381497 2.574404 181 173 175
0.650412 -0.424412 2.937619 181 173 172
0.568528 -0.359537 2.567789 181 174 171
0.568617 -0.346240 2.568191 182 174 171
0.567775 -0.341918 2.564386 182 174 171
0.568653 -0.340539 2.568353 182 174 171
0.568252 -0.336486 2.566542 182 174 171
0.640111 -0.370447 2.891095 182 174 171
0.642129 -0.369461 2.900209 182 174 171
0.644707 -0.368781 2.911852 182 174 171
0.675976 -0.382132 3.053083 182 174 171
0.573994 -0.320630 2.592476 182 174 171
0.904840 -0.487226 4.086759 182 174 171
0.901836 -0.482583 4.073191 182 174 171
0.899152 -0.478130 4.061066 182 174 171
0.514913 -0.256534 2.325630 180 174 171
0.907939 -0.424931 4.100756 182 174 171
0.633601 -0.288033 2.861692 182 174 171
0.671093 -0.287066 3.031029 182 174 171
0.672636 -0.285470 3.037994 182 174 171
0.671730 -0.278325 3.033906 182 174 171
0.671270 -0.273630 3.031824 182 174 171
0.670530 -0.271079 3.028485 182 174 171
0.671496 -0.269217 3.032848 182 174 171
0.674364 -0.265842 3.045801 182 174 171
0.674975 -0.263819 3.048559 182 174 171
0.674034 -0.261190 3.044309 182 174 171
0.673680 -0.258793 3.042712 182 174 171
0.677352 -0.257931 3.059294 182 174 171
0.681977 -0.257404 3.080185 182 174 171
0.682432 -0.239260 3.082238 182 174 171
0.585663 -0.166038 2.645178 181 172 170
0.449072 -0.110742 2.028260 182 174 171
0.448837 -0.109179 2.027197 182 174 171
0.741066 -0.160374 3.347063 181 173 170
0.745620 -0.158858 3.367633 181 173 170
0.850994 -0.172744 3.843560 181 173 170
0.683554 -0.124996 3.087307 181 173 170
0.682238 -0.122467 3.081366 181 173 170
0.681624 -0.120070 3.078589 181 173 170
0.682682 -0.117966 3.083368 181 173 170
0.681607 -0.115494 3.078512 181 173 170
0.682401 -0.113339 3.082098 181 173 170
1.126016 -0.168131 5.085710 181 173 170
1.422170 -0.174182 6.423306 181 172 171
0.599819 -0.055353 2.709114 181 172 173
0.600241 -0.053379 2.711018 181 172 172
0.601242 -0.051451 2.715540 181 172 171
0.728414 -0.047671 3.289918 180 172 169
0.728538 -0.042791 3.290481 179 171 168
0.603226 -0.031384 2.724501 179 171 168
0.608791 -0.029631 2.749636 179 171 168
0.603002 -0.011143 2.723488 178 170 167
0.728090 -0.006127 3.288456 178 170 167
0.596893 0.015002 2.695899 179 171 168
0.603658 0.017197 2.726451 179 171 168
0.604779 0.019258 2.731517 179 171 168
0.608732 0.021426 2.749368 179 171 168
0.722343 0.027848 3.262501 179 171 168
0.726850 0.030460 3.282858 179 171 168
0.726269 0.032872 3.280231 178 170 167
0.726151 0.035303 3.279697 178 170 167
0.727412 0.037804 3.285392 178 170 167
0.726147 0.040175 3.279679 178 170 167
0.726064 0.042606 3.279306 178 170 167
0.726673 0.045079 3.282055 178 170 167
0.726753 0.047522 3.282420 178 170 167
0.725511 0.049875 3.276811 178 170 167
0.725808 0.052330 3.278151 178 170 167
0.725246 0.054723 3.275611 178 170 167
0.724049 0.059491 3.270205 178 170 167
0.724139 0.061927 3.270612 178 170 167
0.724865 0.064421 3.273892 178 170 167
0.724172 0.066789 3.270761 178 170 167
0.726699 0.069460 3.282176 178 170 167
0.726964 0.071924 3.283370 178 170 167
0.606714 0.082416 2.740254 178 170 167
0.642492 0.123918 2.901848 177 170 160
0.644707 0.126508 2.911852 176 169 160
0.651264 0.129979 2.941468 176 169 161
0.663018 0.134550 2.994558 175 168 160
0.671027 0.138426 3.030729 175 168 160
0.714610 0.157006 3.227574 171 164 156
0.662524 0.154453 2.992323 171 164 156
0.671658 0.161089 3.033577 170 163 155
0.676062 0.166681 3.053470 170 163 155
0.670133 0.167467 3.026692 170 163 155
0.662955 0.167898 2.994271 170 163 155
0.604625 0.155153 2.730821 170 163 155
0.603276 0.156831 2.724728 169 163 155
0.675976 0.191605 3.053083 167 164 156
0.680547 0.197467 3.073727 167 164 154
1.481574 0.504446 6.691608 167 161 148
0.392297 0.151994 1.771829 163 157 145
0.391593 0.153035 1.768648 163 157 145
0.695085 0.287963 3.139389 167 160 144
0.355934 0.151040 1.607594 167 159 145
0.414409 0.181415 1.871698 165 159 147
0.406762 0.184890 1.837162 162 156 144
0.407185 0.186448 1.839071 161 154 145
0.407568 0.187991 1.840804 161 154 145
0.406644 0.194386 1.836628 158 151 143
0.602173 -0.617121 2.710653 182 174 172
0.789919 -0.806886 3.555781 182 174 172
0.484168 -0.489711 2.179460 182 174 172
0.458655 -0.462372 2.064612 182 174 172
0.779549 -0.783261 3.509102 182 174 172
0.442336 -0.426694 1.991153 179 175 172
0.440509 -0.423459 1.982929 179 174 173
0.427476 -0.405214 1.924262 182 173 178
0.428108 -0.404381 1.927107 182 173 177
0.403894 -0.377458 1.818109 182 173 176
0.370554 -0.338867 1.668032 182 173 172
0.910394 -0.829499 4.098095 182 174 172
0.353051 -0.316958 1.589243 182 174 172
7.426477 -6.642426 33.429924 182 174 172
7.587530 -6.761106 34.154900 182 174 172
7.727845 -6.860300 34.786518 182 173 172
8.186364 -7.239973 36.850521 182 173 172
7.272658 -6.334630 32.737514 180 174 172
15.661226 -13.484150 70.498253 177 176 172
57.746006 -49.525623 259.940857 177 175 172
0.587333 -0.497832 2.643851 179 175 172
0.583411 -0.492558 2.626198 180 175 172
0.579934 -0.487683 2.610546 183 176 174
0.575079 -0.481678 2.588692 183 176 174
0.571975 -0.477165 2.574718 184 176 174
0.571713 -0.473123 2.573538 184 176 174
0.904463 -0.721275 4.071397 183 176 174
0.907243 -0.714391 4.083909 183 176 174
0.585441 -0.449250 2.635334 183 176 174
0.584241 -0.446376 2.629932 183 176 174
0.639913 -0.456817 2.880537 182 174 171
0.644388 -0.457857 2.900681 182 174 171
0.635629 -0.441007 2.861254 182 173 172
0.563946 -0.376188 2.538578 180 173 174
0.635737 -0.419826 2.861740 180 173 174
0.559486 -0.354507 2.518501 180 175 171
0.562474 -0.337593 2.531948 182 174 171
0.564506 -0.333150 2.541095 182 174 171
0.627631 -0.364109 2.825252 182 174 171
0.630668 -0.363762 2.838919 182 174 171
0.636091 -0.364763 2.863333 182 174 171
0.637735 -0.363574 2.870734 182 174 171
0.664867 -0.376818 2.992864 182 174 171
0.678244 -0.379865 3.053083 181 173 171
0.904808 -0.485580 4.072950 181 173 171
0.903648 -0.481936 4.067728 181 173 171
0.637329 -0.293021 2.868906 182 174 171
0.634497 -0.287476 2.856159 182 174 171
0.665124 -0.283562 2.994025 182 174 171
0.672910 -0.264382 3.029072 182 174 171
0.675757 -0.263241 3.041888 182 174 171
0.675208 -0.260770 3.039417 182 174 171
0.674209 -0.258130 3.034920 182 174 171
0.676340 -0.256684 3.044512 182 174 171
0.681814 -0.256482 3.069154 182 174 171
0.678406 -0.239322 3.053812 181 173 170
0.681223 -0.238038 3.066494 181 173 170
0.505022 -0.161272 2.273331 182 175 167
0.585767 -0.165513 2.636802 181 172 170
0.620017 -0.168971 2.790977 181 173 170
0.623288 -0.167778 2.805700 181 173 170
0.633789 -0.166367 2.852972 181 173 170
0.449568 -0.108991 2.023709 181 173 170
0.776771 -0.172733 3.496595 181 173 170
0.731983 -0.157879 3.294987 181 173 170
0.735762 -0.156234 3.311998 181 173 170
0.686288 -0.122782 3.089294 181 173 170
0.685508 -0.120350 3.085782 181 173 170
0.687416 -0.118387 3.094372 181 173 170
0.686133 -0.115872 3.088593 181 173 170
1.125120 -0.167435 5.064672 181 173 170
1.118079 -0.158911 5.032980 181 173 171
1.440191 -0.180615 6.482948 181 173 171
0.720662 -0.071102 3.244027 180 171 171
0.599449 -0.055134 2.698389 180 171 171
0.599984 -0.053178 2.700799 180 171 170
0.600943 -0.051253 2.705114 180 172 169
0.602371 -0.049361 2.711544 180 172 169
0.600747 -0.031150 2.704232 179 171 168
0.604484 -0.029323 2.721055 179 171 168
0.639112 -0.022455 2.876934 178 170 167
0.600864 -0.011066 2.704759 178 170 167
0.601755 -0.009071 2.708769 178 170 167
0.712565 -0.008358 3.207576 178 170 167
0.717038 -0.006014 3.227713 178 170 167
0.598264 0.014986 2.693058 179 171 168
0.602677 0.017111 2.712923 179 171 168
0.602774 0.019130 2.713358 179 171 168
0.608693 0.021353 2.740002 179 171 168
0.718749 0.027616 3.235413 179 171 168
0.721511 0.030135 3.247845 179 171 168
0.725950 0.032748 3.267828 178 170 167
0.722630 0.035014 3.252886 178 170 167
0.722367 0.037417 3.251701 178 170 167
0.723503 0.039894 3.256814 178 170 167
0.722162 0.042235 3.250776 178 170 167
0.722826 0.044691 3.253765 178 170 167
0.724106 0.047191 3.259530 178 170 167
0.723805 0.049591 3.258172 178 170 167
0.720459 0.051771 3.243113 178 170 167
0.715663 0.053819 3.221523 178 170 167
0.712230 0.055942 3.206067 178 170 167
0.711808 0.058289 3.204170 178 170 167
0.717475 0.061152 3.229678 178 170 167
0.716815 0.063493 3.226708 178 170 167
0.717229 0.065927 3.228573 178 170 167
0.716920 0.068296 3.227180 178 170 167
0.717805 0.070780 3.231165 178 170 167
0.663067 0.105289 2.984763 177 169 166
0.638132 0.120532 2.872522 178 171 161
0.639558 0.122940 2.878941 177 170 160
0.638689 0.124908 2.875030 176 169 160
0.640824 0.127468 2.884637 176 169 161
0.664566 0.136635 2.991511 175 168 160
0.709528 0.155368 3.193906 171 164 156
0.709205 0.157669 3.192453 171 164 156
0.600578 0.153600 2.703473 170 163 155
0.599567 0.155346 2.698923 169 163 155
0.675873 0.193195 3.042412 167 164 155
0.720722 0.237342 3.244297 169 163 151
1.474824 0.500469 6.638849 167 161 148
0.393602 0.153306 1.771782 163 157 145
0.715567 0.293065 3.221091 167 159 144
0.699755 0.288928 3.149913 167 159 144
0.355546 0.150371 1.600473 167 159 145
1.336879 0.587756 6.017898 165 159 147
0.604186 -0.617121 2.710653 182 174 172
0.792560 -0.806886 3.555781 182 174 172
0.882970 -0.893046 3.961404 182 174 172
0.485787 -0.489711 2.179460 182 174 172
0.460188 -0.462372 2.064612 182 174 172
0.405244 -0.377458 1.818109 182 173 176
0.405791 -0.376615 1.820562 182 173 175
0.369276 -0.336572 1.656738 182 173 172
7.558185 -6.687326 33.909428 182 173 172
7.745337 -6.827104 34.749073 182 173 172
0.578844 -0.487073 2.596953 179 175 172
0.575119 -0.482022 2.580242 182 176 174
0.572015 -0.477514 2.566317 182 176 174
0.568181 -0.472420 2.549116 182 176 174
0.566519 -0.467262 2.541658 182 176 174
0.912268 -0.725075 4.092847 182 177 174
0.913634 -0.720072 4.098976 182 177 174
0.914660 -0.717832 4.103578 181 176 173
0.921436 -0.720079 4.133976 181 176 173
0.586954 -0.448910 2.633339 181 176 173
0.586170 -0.446357 2.629824 181 176 173
0.536708 -0.399750 2.407914 180 175 171
0.552597 -0.407902 2.479199 180 175 171
0.595634 -0.431730 2.672282 181 174 171
0.629540 -0.447914 2.824399 182 174 171
0.629097 -0.439213 2.822411 182 174 172
0.627165 -0.435775 2.813746 182 174 172
0.629941 -0.435605 2.826200 182 173 172
0.557964 -0.370957 2.503276 180 173 174
0.558770 -0.369631 2.506893 180 174 174
0.558351 -0.365633 2.505014 180 174 172
0.556491 -0.351434 2.496671 179 175 172
0.556530 -0.334767 2.496843 182 174 172
0.557434 -0.333453 2.500902 182 174 172
0.558619 -0.332301 2.506218 182 174 172
0.621225 -0.359192 2.787097 182 174 171
0.626593 -0.360207 2.811180 182 174 171
0.628520 -0.359220 2.819822 182 174 171
0.631051 -0.358564 2.831180 182 174 171
0.905861 -0.481506 4.064102 181 173 171
0.657529 -0.279389 2.949969 182 174 171
0.680166 -0.255010 3.051534 182 174 171
0.682607 -0.240002 3.062481 181 173 170
0.683305 -0.237970 3.065616 181 173 170
0.686208 -0.236694 3.078639 181 173 170
0.619288 -0.166146 2.778406 181 173 170
0.451476 -0.112097 2.025522 181 173 170
0.780665 -0.173020 3.502414 181 173 170
0.721265 -0.155049 3.235922 181 173 170
0.723481 -0.153114 3.245863 181 173 170
0.719543 -0.149883 3.228192 181 173 170
0.689549 -0.127550 3.093628 181 173 170
0.690961 -0.125508 3.099960 181 173 170
0.689791 -0.122997 3.094713 181 173 170
0.689165 -0.120589 3.091906 181 173 170
0.690743 -0.118563 3.098984 181 173 170
0.689883 -0.116117 3.095125 181 173 170
1.127939 -0.167295 5.060443 181 173 170
1.121519 -0.158868 5.031640 181 173 171
1.120933 -0.155050 5.029010 181 173 171
1.442806 -0.180340 6.473081 181 173 171
0.599328 -0.054940 2.688854 179 171 168
0.598216 -0.052844 2.683869 179 171 168
0.599784 -0.050984 2.690902 179 171 168
0.601679 -0.049140 2.699401 179 171 168
0.604747 -0.047375 2.713168 179 171 168
0.597550 -0.030881 2.680878 179 171 168
0.600827 -0.029048 2.695581 179 171 168
0.636910 -0.020181 2.857467 179 171 168
0.636427 -0.015924 2.855300 179 171 168
0.638840 -0.013855 2.866124 179 171 168
0.597667 -0.010971 2.681405 179 171 168
0.707819 -0.008275 3.175597 179 171 168
0.708942 -0.005926 3.180635 178 170 167
0.707731 0.010593 3.175202 178 170 167
0.487515 0.008922 2.187212 178 170 167
0.487005 0.010535 2.184925 179 171 168
0.596553 0.014893 2.676404 179 171 168
0.612531 0.021416 2.748089 179 171 168
0.720899 0.030009 3.234280 179 171 168
0.724019 0.032552 3.248274 178 170 167
0.727868 0.035150 3.265543 178 170 167
0.725153 0.037436 3.253365 178 170 167
0.725663 0.039880 3.255652 178 170 167
0.727158 0.042386 3.262358 178 170 167
0.723286 0.044570 3.244987 178 170 167
0.724543 0.047062 3.250625 178 170 167
0.713032 0.051067 3.198984 178 170 167
0.711361 0.053317 3.191485 178 170 167
0.708496 0.055464 3.178633 178 170 167
0.708431 0.057819 3.178343 178 170 167
0.710227 0.060333 3.186400 178 170 167
0.710413 0.062716 3.187231 178 170 167
0.710111 0.065056 3.185880 178 170 167
0.710586 0.067467 3.188011 178 170 167
0.710571 0.069834 3.187940 178 170 167
0.639793 0.069274 2.870399 178 170 167
0.637911 0.073322 2.861957 178 170 167
1.251237 0.189683 5.613614 177 169 166
0.658157 0.104161 2.952790 177 169 164
0.658311 0.106379 2.953479 177 169 164
0.637776 0.122189 2.861351 177 170 160
0.634427 0.125775 2.846325 176 169 161
0.655233 0.134267 2.939670 175 168 160
0.638866 0.147945 2.866241 171 164 155
0.647792 0.154329 2.906288 170 163 154
0.593685 0.153309 2.663538 169 163 155
0.686084 0.181742 3.078083 166 164 155
1.483750 0.501820 6.656771 167 161 148
0.719844 0.291435 3.229543 167 159 144
0.713619 0.291293 3.201615 167 159 144
0.700606 0.288316 3.143234 168 159 144
0.356315 0.151382 1.598591 167 158 146
0.859255 0.399418 3.855007 161 154 148
0.606200 -0.617121 2.710653 182 174 172
0.795201 -0.806886 3.555781 182 174 172
0.880623 -0.887713 3.937747 182 174 172
0.779306 -0.777815 3.484704 182 173 172
0.445205 -0.429567 1.990756 179 175 172
0.406798 -0.376295 1.819017 182 173 174
0.407328 -0.375433 1.821386 182 173 173
0.357110 -0.318473 1.596836 181 174 172
7.578676 -6.683186 33.888432 181 174 172
0.409906 -0.354664 1.832914 179 175 172
0.408453 -0.352051 1.826416 179 175 172
0.573722 -0.481160 2.565426 179 175 172
0.570704 -0.476733 2.551933 181 177 174
0.567300 -0.472005 2.536711 182 177 174
0.561967 -0.465702 2.512864 182 177 174
0.560962 -0.463006 2.508372 182 177 174
0.561268 -0.461394 2.509737 182 177 174
0.911181 -0.721806 4.074393 182 177 174
0.912973 -0.714128 4.082404 181 176 173
0.914849 -0.712558 4.090795 179 175 172
0.915880 -0.710318 4.095403 179 175 172
0.588171 -0.446393 2.630035 179 175 172
0.536738 -0.398445 2.400053 179 175 171
0.551314 -0.403772 2.465226 179 175 171
0.596597 -0.430992 2.667712 181 174 171
0.608427 -0.433475 2.720609 182 174 172
0.624337 -0.434443 2.791755 182 174 172
0.621352 -0.430302 2.778406 182 174 172
0.624743 -0.430575 2.793570 182 174 172
0.551777 -0.369291 2.467297 180 174 172
0.552409 -0.367879 2.470124 179 174 172
0.553887 -0.367024 2.476735 179 174 172
0.554035 -0.365282 2.477397 179 174 172
0.554173 -0.361691 2.478011 179 175 172
0.551328 -0.330537 2.465293 182 174 172
0.553219 -0.329832 2.473745 182 174 172
0.554023 -0.328472 2.477342 182 174 172
0.619164 -0.354754 2.768622 182 174 171
0.622739 -0.354734 2.784609 182 174 171
0.625985 -0.354505 2.799125 182 174 171
0.682780 -0.375329 3.053083 181 173 171
0.686856 -0.240694 3.071312 181 173 170
0.684169 -0.235207 3.059294 181 173 170
0.613526 -0.164053 2.743410 181 173 170
0.783117 -0.172987 3.501747 181 173 170
0.711739 -0.152492 3.182577 181 173 170
0.711637 -0.150107 3.182120 181 173 170
0.707159 -0.146814 3.162095 181 173 170
0.698378 -0.142671 3.122833 181 173 170
0.691747 -0.136722 3.093183 181 173 170
0.692357 -0.134543 3.095908 181 173 170
0.694282 -0.132611 3.104516 181 173 170
0.694771 -0.130396 3.106702 181 173 170
0.692943 -0.127752 3.098530 181 173 170
0.694125 -0.125665 3.103817 181 173 170
0.692735 -0.123112 3.097599 181 173 170
0.692176 -0.120714 3.095098 181 173 170
0.694125 -0.118748 3.103817 181 173 170
0.693118 -0.116274 3.099313 181 173 170
0.694982 -0.114278 3.107647 181 173 170
0.692981 -0.111648 3.098700 181 173 170
0.694303 -0.109555 3.104611 181 173 170
1.126716 -0.159074 5.038168 181 173 171
1.123428 -0.154879 5.023462 181 173 171
1.122460 -0.151017 5.019135 181 173 171
1.453444 -0.185894 6.499145 181 173 171
1.443265 -0.175005 6.453632 181 173 171
0.711305 -0.067350 3.180635 179 171 168
0.601066 -0.054916 2.687698 179 171 168
0.600888 -0.052904 2.686901 179 171 168
0.600545 -0.050879 2.685366 179 171 168
0.603761 -0.049146 2.699749 179 171 168
0.597809 -0.030792 2.673133 179 171 168
0.599942 -0.028909 2.682672 179 171 168
0.630982 -0.019927 2.821465 179 171 168
0.633069 -0.015787 2.830801 179 171 168
0.636730 -0.013764 2.847168 179 171 168
0.702115 -0.008181 3.139542 179 171 168
0.703693 -0.005862 3.146598 179 171 168
0.710178 -0.003558 3.175597 179 171 168
0.700399 0.008123 3.131867 179 171 168
0.700978 0.010457 3.134458 179 171 168
0.486536 0.008874 2.175570 179 171 168
0.598493 0.014892 2.676191 179 171 168
0.608861 0.019194 2.722554 179 171 168
0.614749 0.021422 2.748882 179 171 168
0.724273 0.034860 3.238622 178 170 167
0.729963 0.037559 3.264066 178 170 167
0.729748 0.039972 3.263105 178 170 167
0.729907 0.042404 3.263815 178 170 167
0.726957 0.047062 3.250625 178 170 167
0.720133 0.049012 3.220112 178 170 167
0.716992 0.051180 3.206067 178 170 167
0.710451 0.053072 3.176817 178 170 167
0.704044 0.054932 3.148170 178 170 167
0.704167 0.057281 3.148719 178 170 167
0.707849 0.059931 3.165184 178 170 167
0.706819 0.062191 3.160578 178 170 167
0.703934 0.064276 3.147676 178 170 167
0.706170 0.066825 3.157674 178 170 167
0.705707 0.069125 3.155603 178 170 167
0.700196 0.070911 3.130962 178 170 167
0.637311 0.068776 2.849766 178 170 167
0.668659 0.094367 2.989943 177 169 166
1.247375 0.188470 5.577701 177 169 165
1.247375 0.192613 5.577701 177 169 164
0.650895 0.102669 2.910508 177 170 164
0.657952 0.105968 2.942067 177 169 164
0.661109 0.108672 2.956184 177 169 164
0.637173 0.130133 2.849152 173 166 158
0.630652 0.158125 2.819990 170 163 153
0.690757 0.182372 3.088753 166 164 153
0.711932 0.289639 3.183441 167 159 144
0.701787 0.287843 3.138076 168 159 144
0.701382 0.290006 3.136264 168 158 144
0.356995 0.149981 1.596321 168 158 145
0.608213 -0.617121 2.710653 182 174 172
0.797842 -0.806886 3.555781 182 174 172
0.879137 -0.883281 3.918091 181 174 172
0.446214 -0.429115 1.988661 179 175 172
0.405663 -0.374004 1.807938 180 174 172
0.405563 -0.372568 1.807491 180 174 172
0.358764 -0.327202 1.598921 181 174 172
0.357869 -0.318092 1.594930 179 175 172
7.860886 -6.961147 35.033985 179 175 172
0.358670 -0.312868 1.598503 179 175 172
0.359194 -0.312137 1.600839 179 175 172
0.359138 -0.310899 1.600590 179 175 172
0.409642 -0.351907 1.825673 179 175 172
57.578674 -49.082306 256.613617 179 175 172
0.561977 -0.466029 2.504591 181 177 174
0.558582 -0.461365 2.489461 181 177 174
0.556562 -0.457854 2.480458 181 177 174
0.913061 -0.720900 4.069281 181 177 174
0.915477 -0.713716 4.080050 180 176 173
0.918483 -0.713019 4.093447 179 175 172
0.919317 -0.710624 4.097165 179 175 172
0.540369 -0.398024 2.408290 179 176 171
0.544104 -0.398974 2.424936 179 176 171
0.547434 -0.399603 2.439775 179 176 171
0.549758 -0.399479 2.450131 179 175 171
0.597317 -0.430083 2.662090 180 174 172
0.608000 -0.435763 2.709701 181 174 172
0.609756 -0.435003 2.717531 182 174 172
0.609132 -0.432541 2.714746 182 174 172
0.612120 -0.432637 2.728065 182 174 172
0.615203 -0.432779 2.741805 182 174 172
0.615511 -0.424845 2.743175 182 174 172
0.620565 -0.426280 2.765699 182 174 172
0.547643 -0.365311 2.440705 181 174 172
0.548544 -0.364096 2.444723 179 175 172
0.550574 -0.363621 2.453768 179 175 172
0.549485 -0.361082 2.448915 179 175 172
0.545536 -0.342234 2.431315 179 175 172
0.609685 -0.380459 2.717213 179 175 172
0.603550 -0.374633 2.689870 179 175 172
0.607626 -0.375152 2.708037 179 175 172
0.613923 -0.377007 2.736099 179 175 172
0.546652 -0.330267 2.436289 182 174 172
0.545447 -0.327733 2.430918 182 174 172
0.546853 -0.326768 2.437187 182 174 172
0.548111 -0.325706 2.442794 182 174 172
0.549557 -0.324746 2.449237 182 174 172
0.549281 -0.319128 2.448009 182 174 171
0.614329 -0.350819 2.737908 182 174 171
0.616714 -0.350140 2.748539 182 174 171
0.617921 -0.348779 2.753917 182 174 171
0.685047 -0.373061 3.053083 181 173 171
0.914475 -0.482867 4.075584 181 173 171
0.536187 -0.263596 2.389650 179 176 171
0.537524 -0.262474 2.395609 179 176 171
0.540352 -0.262066 2.408212 177 176 171
0.542254 -0.261194 2.416688 177 176 171
0.540865 -0.258734 2.410501 178 176 171
0.541153 -0.239166 2.411782 182 174 171
0.724995 -0.241218 3.231120 182 175 167
0.693051 -0.221412 3.088753 182 175 165
0.692987 -0.219098 3.088470 182 175 165
3.076382 -0.728230 13.710656 181 173 170
0.783813 -0.172568 3.493256 181 173 170
0.783652 -0.169938 3.492537 181 173 170
0.705488 -0.150653 3.144182 181 173 170
0.705078 -0.148231 3.142354 181 173 170
0.702845 -0.145435 3.132401 181 173 170
0.697356 -0.141991 3.107938 181 173 170
0.693815 -0.138973 3.092156 181 173 170
0.691558 -0.136232 3.082098 181 173 170
0.691494 -0.133930 3.081815 181 173 170
0.693145 -0.131955 3.089172 181 173 170
0.693354 -0.129700 3.090102 181 173 170
0.693071 -0.127353 3.088842 181 173 170
0.692517 -0.124958 3.086375 181 173 170
0.691608 -0.122505 3.082323 181 173 170
0.691310 -0.120164 3.080994 181 173 170
0.691832 -0.117964 3.083320 181 173 170
0.691335 -0.115591 3.081107 181 173 170
0.692190 -0.113442 3.084918 181 173 170
0.690691 -0.110910 3.078236 181 173 170
0.691154 -0.108697 3.080297 181 173 170
0.690812 -0.106356 3.078775 181 173 170
1.451878 -0.185079 6.470654 181 173 171
1.458004 -0.181033 6.497957 181 173 171
1.453748 -0.175692 6.478987 181 173 171
0.603025 -0.054912 2.687529 179 171 168
0.602833 -0.052899 2.686676 179 171 168
0.603427 -0.050954 2.689324 179 171 168
0.603550 -0.048966 2.689870 179 171 168
0.609237 -0.047411 2.715213 179 171 168
0.599666 -0.030785 2.672559 179 171 168
0.600649 -0.028848 2.676940 179 171 168
0.631216 -0.015689 2.813170 179 171 168
0.694546 -0.008066 3.095416 179 171 168
0.695331 -0.005774 3.098915 179 171 168
0.693415 0.010310 3.090376 179 171 168
0.489264 0.008895 2.180528 179 171 168
0.600529 0.014893 2.676404 179 171 168
0.610720 0.019189 2.721824 179 171 168
0.616168 0.021400 2.746107 179 171 168
