ply
format ascii 1.0
element vertex 1286
property float x
property float y
property float z
property uchar red
property uchar green
property uchar blue
end_header
1.296010 -1.009036 6.274483 197 189 186
0.497603 -0.383840 2.409087 197 189 186
0.497937 -0.382307 2.410703 197 189 186
0.498164 -0.380690 2.411803 197 189 186
0.498169 -0.378903 2.411830 197 189 187
0.499340 -0.376202 2.417497 197 189 185
0.499885 -0.374815 2.420136 197 189 183
0.499564 -0.372778 2.418583 197 190 182
0.499263 -0.370758 2.417125 197 190 181
0.498953 -0.368734 2.415624 197 190 180
0.498576 -0.366662 2.413800 197 190 180
0.498302 -0.364669 2.412472 197 190 182
0.498108 -0.362735 2.411531 197 190 182
0.497598 -0.360575 2.409065 197 190 182
0.422509 -0.304644 2.045530 197 189 183
0.421022 -0.302057 2.038329 197 189 185
0.632134 -0.444425 3.060406 197 189 186
0.631229 -0.441518 3.056022 197 189 187
0.500952 -0.344990 2.425300 197 189 183
0.632709 -0.433453 3.063190 197 190 182
0.500172 -0.340856 2.421526 197 190 180
0.629822 -0.417886 3.049213 197 190 182
0.629769 -0.415586 3.048955 197 189 184
0.630011 -0.413480 3.050127 197 189 185
0.500064 -0.326397 2.421004 197 189 186
0.499912 -0.324500 2.420267 197 189 186
0.499109 -0.322184 2.416378 197 189 186
0.499725 -0.320784 2.419362 197 189 186
0.499926 -0.319116 2.420335 197 189 186
0.500344 -0.317583 2.422360 197 189 186
0.500876 -0.316120 2.424936 197 189 186
0.558323 -0.344346 2.703058 197 189 186
0.557359 -0.341746 2.698389 197 189 186
0.557704 -0.325914 2.700059 197 190 182
0.560162 -0.325336 2.711962 197 190 182
0.418146 -0.230825 2.024405 199 192 184
0.496862 -0.263558 2.405501 197 189 186
0.499291 -0.263051 2.417259 197 189 186
0.503370 -0.263390 2.437008 197 189 186
0.508343 -0.264164 2.461083 197 189 186
0.508990 -0.262670 2.464216 197 189 186
0.501743 -0.257126 2.429133 197 189 186
0.499401 -0.254129 2.417793 197 189 186
0.498922 -0.252092 2.415475 197 189 186
0.492787 -0.213550 2.385772 197 189 186
0.497146 -0.213652 2.406877 197 189 186
0.499725 -0.205775 2.419362 199 191 188
0.498825 -0.201817 2.415007 199 191 189
0.498534 -0.183771 2.413597 199 192 184
0.498611 -0.182006 2.413967 199 192 184
0.497904 -0.178168 2.410546 197 190 182
0.491811 -0.161839 2.381049 196 189 181
0.493870 -0.160740 2.391013 196 189 181
0.414531 -0.127464 2.006903 196 189 181
0.504272 -0.136925 2.441374 196 188 184
0.504316 -0.135124 2.441589 196 188 185
0.503924 -0.133206 2.439690 196 188 186
0.503658 -0.131325 2.438402 196 188 185
0.503503 -0.129474 2.437653 196 188 185
0.502537 -0.127418 2.432978 196 188 185
0.501611 -0.125380 2.428493 196 188 185
0.497804 -0.092206 2.410063 196 188 185
0.567755 -0.086788 2.748721 196 188 185
0.568256 -0.084821 2.751145 196 188 185
0.568449 -0.082806 2.752081 196 188 185
0.565143 -0.080292 2.736075 196 188 185
0.564801 -0.078212 2.734420 196 188 185
0.564393 -0.076126 2.732445 196 188 185
0.421617 -0.050804 2.041208 197 187 185
0.565505 -0.041705 2.737828 196 188 185
0.567011 -0.039777 2.745118 195 187 184
0.566727 -0.035681 2.743744 195 187 184
0.630208 -0.032879 3.051078 195 187 184
0.628707 -0.030540 3.043812 195 187 184
0.628268 -0.028260 3.041688 195 187 184
0.569848 0.044041 2.758855 208 205 204
0.407089 0.034390 1.970877 63 65 69
0.567239 0.056078 2.746224 11 25 33
0.568808 0.058278 2.753819 12 26 34
0.444411 0.080692 2.151567 0 8 13
0.441432 0.081738 2.137145 1 9 12
0.438051 0.082687 2.120774 0 8 11
0.437024 0.084065 2.115800 1 8 11
0.435330 0.086870 2.107599 0 4 8
0.438051 0.090564 2.120774 0 3 7
0.436040 0.091716 2.111039 0 3 6
0.435492 0.093167 2.108383 0 3 6
0.434717 0.094564 2.104632 0 3 6
0.435937 0.096397 2.110541 0 2 5
0.439046 0.098663 2.125592 0 0 3
0.440527 0.100580 2.132760 0 0 2
0.442158 0.102543 2.140657 0 0 2
0.443256 0.104391 2.145974 0 0 2
0.442482 0.105800 2.142226 0 0 3
0.441278 0.107099 2.136399 0 0 4
0.446364 0.109939 2.161021 0 0 4
0.445763 0.111394 2.158110 0 0 4
0.445883 0.113027 2.158690 0 0 5
0.437024 0.113924 2.115800 1 1 7
0.435218 0.115019 2.107057 1 1 8
0.435538 0.118236 2.108607 0 1 9
0.431958 0.118817 2.091277 0 1 9
0.434603 0.121108 2.104080 0 1 9
0.431209 0.121712 2.087647 0 1 8
0.429717 0.122837 2.080426 0 1 6
0.427223 0.123660 2.068352 1 2 6
0.427123 0.125167 2.067867 1 2 5
0.428642 0.127154 2.075222 1 2 4
0.426284 0.140251 2.063806 0 1 5
0.426956 0.142007 2.067058 0 1 5
0.392019 0.138845 1.897918 0 0 0
0.390923 0.139863 1.892610 0 1 0
0.392923 0.143404 1.902291 1 3 0
0.395155 0.147061 1.913096 0 1 0
0.390771 0.148240 1.891873 0 1 0
0.390128 0.149398 1.888758 0 1 0
0.391279 0.151246 1.894331 0 1 0
0.390760 0.152451 1.891820 0 0 0
0.391375 0.154098 1.894797 0 0 0
0.390541 0.155174 1.890758 1 0 0
0.390353 0.156503 1.889848 0 1 0
0.390000 0.157764 1.888139 0 2 0
0.390066 0.159194 1.888459 0 3 0
0.390173 0.160640 1.888976 0 3 0
0.390458 0.162162 1.890359 0 3 0
0.390182 0.163450 1.889019 0 4 0
0.390125 0.164829 1.888747 0 4 0
0.388551 0.165562 1.881127 0 4 0
0.388399 0.166894 1.880392 1 6 1
0.389030 0.168564 1.883443 3 8 3
0.389358 0.170106 1.885035 6 10 6
0.389650 0.171635 1.886445 11 14 10
0.389622 0.173023 1.886310 16 19 16
0.391627 0.175322 1.896017 23 26 22
0.390368 0.176162 1.889922 31 33 30
0.390792 0.181975 1.891974 59 65 50
0.390504 0.183245 1.890583 70 76 59
0.390390 0.184595 1.890027 82 88 70
0.389811 0.185723 1.887226 92 98 80
0.389587 0.187018 1.886142 102 108 90
0.389941 0.188590 1.887853 115 120 103
0.389404 0.189730 1.885254 128 132 116
0.389570 0.191212 1.886061 142 146 131
0.389622 0.192639 1.886310 155 158 144
0.390253 0.194354 1.889365 161 164 150
0.390468 0.195865 1.890407 168 171 156
0.390980 0.197528 1.892883 173 177 160
0.390904 0.198895 1.892517 175 179 162
0.390738 0.200216 1.891716 174 179 159
0.391357 0.201940 1.894709 173 178 156
0.392653 0.204021 1.900984 170 175 153
0.392462 0.205334 1.900062 171 181 157
0.391950 0.206475 1.897583 170 182 159
0.391860 0.207837 1.897148 170 182 160
0.391442 0.209023 1.895122 172 184 161
0.391095 0.210244 1.893442 171 183 160
0.390894 0.211541 1.892469 170 182 160
0.390729 0.212857 1.891668 166 179 158
0.390541 0.214159 1.890758 164 177 156
0.390583 0.215587 1.890962 161 174 153
0.390521 0.216957 1.890664 160 173 153
0.390247 0.218208 1.889337 159 172 153
0.410472 -0.450806 1.980131 199 191 188
0.714088 -0.779140 3.444786 199 191 188
0.715214 -0.777806 3.450221 199 191 188
0.718367 -0.778661 3.465429 199 191 188
0.724762 -0.782996 3.496280 199 191 188
0.331486 -0.349806 1.599102 199 191 188
0.329978 -0.347032 1.591826 199 191 188
0.832432 -0.872472 4.015683 199 191 188
0.831361 -0.868371 4.010519 199 191 188
0.730984 -0.760907 3.526296 199 191 188
0.450650 -0.465868 2.173955 199 191 188
0.627276 -0.646210 3.026004 199 191 188
0.626093 -0.642748 3.020296 199 191 188
0.627104 -0.641539 3.025173 199 191 188
0.621531 -0.631384 2.998290 199 191 188
0.620135 -0.627743 2.991555 199 191 188
0.561905 -0.556719 2.710653 199 191 188
0.558132 -0.550981 2.692451 199 191 189
0.557435 -0.548295 2.689086 199 191 189
0.556127 -0.545016 2.682780 199 191 189
0.555783 -0.542688 2.681120 199 191 189
0.557054 -0.539936 2.687248 199 191 189
0.557597 -0.538465 2.689870 199 191 189
0.565515 -0.544085 2.728065 199 191 189
0.564055 -0.540659 2.721024 199 191 189
0.563545 -0.538151 2.718564 199 191 189
0.419085 -0.392693 2.021683 199 190 190
0.418593 -0.390731 2.019308 199 190 191
0.415003 -0.379946 2.001992 199 190 193
0.415454 -0.377381 2.004168 199 190 193
0.416327 -0.352814 2.008378 199 191 188
0.621813 -0.513583 2.999649 199 191 188
0.626214 -0.514975 3.020879 199 191 188
0.457171 -0.372684 2.205413 199 191 188
0.452863 -0.361059 2.184631 199 191 188
1.295953 -1.010020 6.251728 198 190 187
1.297736 -1.006759 6.260327 197 189 186
1.308431 -1.010368 6.311922 197 189 186
0.625821 -0.476530 3.018984 197 189 186
0.627310 -0.475416 3.026166 197 189 187
0.420335 -0.317051 2.027713 197 189 186
0.500716 -0.374093 2.415475 197 189 184
0.500134 -0.371866 2.412664 197 190 182
0.499252 -0.369421 2.408410 197 190 181
0.498799 -0.367299 2.406225 197 190 180
0.498152 -0.365038 2.403104 197 190 180
0.498457 -0.363475 2.404576 197 190 182
0.498414 -0.361658 2.404370 197 190 182
0.630293 -0.439284 3.040556 197 189 187
0.629221 -0.436282 3.035388 197 189 186
0.628277 -0.433377 3.030833 197 189 185
0.628099 -0.431003 3.029974 197 189 183
0.626528 -0.427680 3.022397 197 190 182
0.630231 -0.427950 3.040261 197 190 180
0.629986 -0.425526 3.039079 197 190 180
0.629264 -0.422784 3.035594 197 190 181
0.628547 -0.420050 3.032136 197 190 182
0.628387 -0.417691 3.031365 197 190 182
0.628825 -0.415729 3.033478 197 190 182
0.629226 -0.413740 3.035411 197 189 183
0.629009 -0.411343 3.034362 197 189 185
0.628535 -0.408781 3.032077 197 189 186
0.500451 -0.323686 2.414196 197 189 186
0.499799 -0.317891 2.411048 197 189 186
0.728288 -0.452781 3.513289 197 189 186
0.729277 -0.450783 3.518059 197 189 186
0.415247 -0.226916 2.003166 199 192 184
0.493895 -0.261046 2.382571 197 189 186
0.495646 -0.260195 2.391013 197 189 186
0.511921 -0.265070 2.469528 197 189 186
0.513186 -0.263886 2.475627 197 189 186
0.514854 -0.262899 2.483678 197 189 186
0.489780 -0.227281 2.362716 197 189 186
0.493940 -0.211513 2.382787 197 189 186
0.617473 -0.242287 2.978715 199 191 186
0.492421 -0.161459 2.375458 196 189 181
0.493485 -0.160039 2.380589 196 189 181
0.505411 -0.129499 2.438124 196 188 185
0.559893 -0.131421 2.700943 196 188 185
0.470278 -0.098591 2.268637 197 189 186
0.703015 -0.132269 3.391369 197 189 186
0.563507 -0.093906 2.718378 196 188 185
0.620145 -0.098901 2.991604 196 188 185
0.563589 -0.085842 2.718778 196 188 185
0.564066 -0.083894 2.721075 196 188 185
0.564397 -0.081921 2.722673 196 188 185
0.563048 -0.079707 2.716165 196 188 185
0.562021 -0.077548 2.711211 196 188 185
0.561563 -0.075473 2.709000 196 188 185
0.562449 -0.073577 2.713274 196 188 185
1.861693 -0.210183 8.980878 197 187 185
0.459594 -0.038713 2.217101 196 188 185
0.563567 -0.043433 2.718668 196 188 185
0.565633 -0.041565 2.728634 196 188 185
0.564358 -0.039449 2.722485 195 187 184
0.568152 -0.037679 2.740787 195 187 184
0.564896 -0.035439 2.725079 195 187 184
0.621249 -0.027844 2.996931 195 187 184
0.618448 -0.025502 2.983417 194 186 183
0.618601 0.040988 2.984157 187 181 175
0.568924 0.043812 2.744512 208 203 202
0.571266 0.046039 2.755809 189 186 188
0.408134 0.034354 1.968855 131 130 134
0.410453 0.037491 1.980043 7 11 18
0.410371 0.038954 1.979645 0 5 13
0.565608 0.057743 2.728513 8 20 30
18.141888 2.762176 87.517166 1 10 15
0.443000 0.080147 2.137051 0 7 10
0.438943 0.080986 2.117480 0 7 10
0.437589 0.082304 2.110948 0 7 10
0.437083 0.083775 2.108506 1 7 10
0.437477 0.085418 2.110409 0 3 7
0.436985 0.086888 2.108031 0 2 6
0.437740 0.088606 2.111673 0 2 5
0.440792 0.090804 2.126397 0 2 5
0.437931 0.091784 2.112598 0 2 5
0.436985 0.093151 2.108031 0 2 5
0.437510 0.094831 2.110567 0 2 5
0.436821 0.096246 2.107240 0 1 5
0.441182 0.098788 2.128278 0 0 3
0.441964 0.100547 2.132051 0 0 2
0.441855 0.102105 2.131528 0 0 2
0.443067 0.103973 2.137373 0 0 2
0.445493 0.106139 2.149075 0 0 3
0.446899 0.108075 2.155859 0 0 4
0.446235 0.109513 2.152654 0 0 4
0.445619 0.110959 2.149681 0 0 5
0.444205 0.112198 2.142861 0 0 5
0.446715 0.114433 2.154968 0 1 6
0.435708 0.114736 2.101874 1 1 9
0.437313 0.119859 2.109616 0 2 9
0.434095 0.120533 2.094090 0 2 10
0.433679 0.121971 2.092085 0 2 8
0.430300 0.122563 2.075785 1 2 7
0.428972 0.123721 2.069378 1 2 6
0.428240 0.125045 2.065845 1 2 5
0.431377 0.127506 2.080980 1 2 5
0.430836 0.128890 2.078372 1 2 3
0.428636 0.138983 2.067758 0 1 5
0.427748 0.140228 2.063474 0 1 5
0.428299 0.141943 2.066132 0 1 5
0.427253 0.144658 2.061083 0 0 2
0.393057 0.140122 1.896122 0 0 0
0.428299 0.157290 2.066132 0 1 1
0.392160 0.148233 1.891795 0 0 0
0.391832 0.149513 1.890212 0 0 0
0.391999 0.155196 1.891020 0 0 0
0.391585 0.156435 1.889022 0 0 0
0.391711 0.157889 1.889628 0 1 0
0.391567 0.159234 1.888936 0 2 0
0.391451 0.160589 1.888375 0 2 0
0.391945 0.162196 1.890758 0 3 0
0.390892 0.163161 1.885676 0 3 0
0.390545 0.164416 1.884006 0 4 0
0.389374 0.165318 1.878357 0 4 0
0.389518 0.166775 1.879049 0 4 0
0.390283 0.168500 1.882738 0 4 0
0.391053 0.170234 1.886453 0 3 0
0.391226 0.171711 1.887288 0 2 0
0.391196 0.173100 1.887142 0 2 0
0.392809 0.175221 1.894928 0 2 0
0.391976 0.176254 1.890909 0 2 0
0.391945 0.180453 1.890758 1 4 0
0.391827 0.181803 1.890189 3 6 0
0.391861 0.183223 1.890352 6 10 1
0.391412 0.184415 1.888185 12 15 5
0.389537 0.184928 1.879139 19 22 11
0.390709 0.186884 1.884795 28 30 18
0.390658 0.188260 1.884549 36 38 26
0.389638 0.189164 1.879631 42 44 32
0.389795 0.190637 1.880387 51 53 42
0.389614 0.191945 1.879513 65 67 58
0.389985 0.193525 1.881301 72 74 64
0.389827 0.194843 1.880539 81 82 70
0.389852 0.196252 1.880660 92 92 81
0.390411 0.197933 1.883357 104 104 92
0.390746 0.199503 1.884973 115 116 101
0.391562 0.201322 1.888909 122 124 107
0.391593 0.202742 1.889061 126 129 112
0.391857 0.204282 1.890333 138 145 126
0.392286 0.205911 1.892401 140 149 130
0.392881 0.207631 1.895272 145 155 135
0.392901 0.209050 1.895371 152 162 144
0.392897 0.210456 1.895352 160 170 152
0.392491 0.211645 1.893392 168 178 160
0.392525 0.213069 1.893553 172 183 165
0.392606 0.214520 1.893947 174 186 168
0.392660 0.215957 1.894209 174 186 168
0.393001 0.217552 1.895850 175 187 170
0.392809 0.218854 1.894928 177 189 173
0.411942 -0.450806 1.980131 199 191 188
0.716646 -0.779140 3.444786 199 191 188
0.717777 -0.777806 3.450221 199 191 188
0.720941 -0.778661 3.465429 199 191 188
0.727359 -0.782996 3.496280 199 191 188
0.355970 -0.376844 1.711080 199 191 188
0.332967 -0.350114 1.600511 199 191 188
0.330928 -0.346789 1.590712 199 191 188
0.836940 -0.871077 4.023014 199 191 188
0.733106 -0.760391 3.523906 199 191 188
0.625818 -0.642407 3.008193 199 191 188
0.625818 -0.640172 3.008193 199 191 188
0.626883 -0.639023 3.013312 199 191 188
0.621138 -0.628732 2.985695 199 191 188
0.560463 -0.553307 2.694041 199 191 188
0.558525 -0.549400 2.684724 199 191 189
0.558182 -0.547070 2.683078 199 190 190
0.557724 -0.544630 2.680878 199 190 190
0.557676 -0.542592 2.680648 199 190 190
0.557458 -0.538399 2.679598 199 190 190
0.557365 -0.536319 2.679149 199 190 190
0.560050 -0.536904 2.692059 199 190 190
0.559154 -0.534048 2.687749 199 191 189
0.558471 -0.531402 2.684468 199 191 189
0.557932 -0.528896 2.681874 199 191 189
0.418229 -0.388998 2.010351 199 190 191
0.415474 -0.379018 1.997107 199 190 193
0.415903 -0.374955 1.999171 199 190 194
0.417145 -0.365649 2.005137 199 191 188
0.613498 -0.504906 2.948969 199 191 188
1.301067 -1.010385 6.253987 198 190 187
1.298150 -1.003485 6.239969 197 189 186
1.304345 -1.003616 6.269743 197 189 186
0.618746 -0.469461 2.974196 197 189 186
0.421041 -0.316450 2.023868 197 189 186
0.630040 -0.471282 3.028485 197 189 184
0.503200 -0.374607 2.418789 197 189 183
0.502256 -0.372110 2.414250 197 190 182
0.501066 -0.369440 2.408533 197 190 180
0.500359 -0.367132 2.405133 197 190 180
0.500339 -0.365331 2.405036 197 190 180
0.500880 -0.363938 2.407638 197 190 182
0.617600 -0.420081 2.968691 197 190 182
0.631168 -0.427056 3.033906 197 190 180
0.630735 -0.424511 3.031824 197 190 180
0.629858 -0.421672 3.027614 197 190 181
0.629123 -0.418933 3.024077 197 190 182
0.629552 -0.416972 3.026141 197 190 182
0.630715 -0.415490 3.031733 197 190 182
0.630541 -0.413124 3.030895 197 189 184
0.630040 -0.410546 3.028485 197 189 185
0.727181 -0.450479 3.495426 197 189 186
0.727762 -0.448240 3.498216 197 189 186
0.546501 -0.326843 2.626931 197 189 185
0.493395 -0.259850 2.371660 197 189 186
0.495153 -0.259008 2.380107 197 189 186
0.514905 -0.265663 2.475054 197 189 186
0.514707 -0.263723 2.474100 197 189 186
0.515502 -0.262290 2.477922 197 189 186
0.490014 -0.226578 2.355406 197 189 186
0.489949 -0.224799 2.355094 197 189 186
0.614973 -0.238249 2.956064 199 192 185
0.492723 -0.160981 2.368427 196 189 181
0.469644 -0.098106 2.257492 197 189 186
0.696694 -0.130612 3.348881 197 189 186
0.562362 -0.093381 2.703169 196 188 185
0.563266 -0.083476 2.707515 196 188 185
0.564254 -0.081608 2.712265 196 188 185
0.561749 -0.079240 2.700222 196 188 185
0.561209 -0.077160 2.697626 196 188 185
0.558525 -0.074796 2.684724 196 188 185
0.560152 -0.073014 2.692546 196 188 185
0.558219 -0.042867 2.683258 196 188 185
0.562403 -0.041180 2.703367 196 188 185
0.557643 -0.038841 2.680488 195 187 184
0.616839 -0.027547 2.965032 195 187 184
0.615972 -0.025309 2.960861 194 186 183
0.558233 0.004966 2.683325 195 187 184
0.412489 0.039015 1.982761 9 13 20
0.411095 0.041819 1.976056 2 10 19
0.412116 0.044865 1.980965 1 14 20
0.412204 0.046347 1.981389 1 13 19
0.412502 0.047853 1.982821 2 13 19
0.440477 0.079406 2.117290 0 5 9
0.438972 0.080702 2.110059 0 5 8
0.436922 0.081885 2.100202 0 5 8
0.436314 0.083329 2.097282 1 5 8
0.437994 0.085214 2.105355 0 2 5
0.438880 0.086953 2.109616 0 2 3
0.439598 0.088665 2.113066 0 1 2
0.440038 0.090325 2.115180 0 0 2
0.439016 0.091682 2.110269 0 0 2
0.439574 0.093368 2.112950 0 1 3
0.438818 0.094774 2.109315 0 1 3
0.441286 0.096883 2.121182 0 1 3
0.441447 0.098495 2.121955 0 0 3
0.442585 0.100329 2.127423 0 0 2
0.444138 0.102266 2.134889 0 0 2
0.444101 0.103844 2.134713 0 0 2
0.447353 0.106201 2.150346 0 0 3
0.447622 0.107863 2.151636 0 0 4
0.446469 0.109179 2.146096 0 0 5
0.442801 0.109863 2.128462 0 0 5
0.444730 0.111930 2.137734 0 0 6
0.446874 0.114065 2.148041 0 1 7
0.433933 0.113860 2.085837 1 1 9
0.437106 0.117814 2.101087 0 2 9
0.438234 0.119683 2.106512 0 2 10
0.437346 0.121002 2.102242 0 2 10
0.434672 0.121814 2.089388 0 2 9
0.432060 0.122625 2.076834 1 2 8
0.430378 0.123684 2.068747 0 2 6
0.430573 0.125277 2.069687 0 2 5
0.431056 0.126957 2.072005 0 2 3
0.430606 0.136048 2.069842 0 0 2
0.430133 0.140506 2.067572 0 1 5
0.430537 0.142176 2.069514 0 1 5
0.428910 0.143169 2.061689 0 1 5
0.428887 0.144693 2.061579 0 0 2
0.425449 0.152647 2.045056 1 1 1
0.427630 0.154957 2.055540 1 1 1
0.429252 0.157077 2.063334 1 1 2
0.434383 0.169811 2.087998 0 0 2
0.393690 0.156714 1.892397 0 0 0
0.393505 0.158046 1.891508 0 1 0
0.393449 0.159428 1.891237 0 2 0
0.393143 0.160708 1.889767 0 1 0
0.393371 0.162205 1.890863 0 2 0
0.391970 0.163027 1.884129 0 2 1
0.391634 0.164286 1.882514 0 3 3
0.390913 0.165379 1.879049 0 3 3
0.391435 0.166997 1.881556 0 3 1
0.392667 0.168925 1.887478 0 3 1
0.393085 0.170508 1.889485 0 3 0
0.393257 0.171986 1.890312 0 2 0
0.392904 0.173235 1.888616 0 2 0
0.394494 0.175345 1.896260 0 2 0
0.394108 0.176580 1.894406 1 2 0
0.394367 0.180920 1.895649 0 2 0
0.393846 0.182088 1.893147 0 2 0
0.393110 0.183151 1.889608 0 2 0
0.392048 0.184056 1.884504 1 3 0
0.392000 0.185433 1.884273 2 4 0
0.392471 0.187057 1.886534 4 5 0
0.392592 0.188516 1.887117 5 7 0
0.391949 0.189607 1.884027 7 8 1
0.391848 0.190957 1.883541 5 6 1
0.391826 0.192345 1.883434 0 1 0
0.392178 0.193918 1.885128 1 2 0
0.391906 0.195183 1.883821 3 3 0
0.391928 0.196593 1.883924 5 5 0
0.392645 0.198355 1.887373 12 12 4
0.392751 0.199810 1.887882 18 18 9
0.393240 0.201463 1.890233 25 26 13
0.392899 0.202691 1.888591 30 32 18
0.392312 0.203789 1.885769 29 34 26
0.393164 0.205636 1.889866 34 41 31
0.393642 0.207291 1.892166 41 48 38
0.393750 0.208754 1.892683 50 58 46
0.393904 0.210242 1.893425 62 70 56
0.393537 0.211451 1.891659 76 84 69
0.393305 0.212731 1.890545 89 98 83
0.393282 0.214122 1.890435 99 110 95
0.393482 0.215636 1.891395 115 126 111
0.394088 0.217375 1.894309 131 141 128
0.394054 0.218763 1.894145 144 155 142
0.413413 -0.450806 1.980131 199 191 188
0.719205 -0.779140 3.444786 199 191 188
0.720340 -0.777806 3.450221 199 191 188
0.723515 -0.778661 3.465429 199 191 188
0.729956 -0.782996 3.496280 199 191 188
0.824246 -0.878272 3.947902 199 191 188
0.357047 -0.377910 1.710153 199 191 188
0.357672 -0.377299 1.713148 199 191 188
0.333965 -0.349914 1.599596 199 191 188
0.332410 -0.347102 1.592147 199 191 188
0.840419 -0.871587 4.025369 199 191 188
0.627471 -0.641812 3.005406 199 191 188
0.627346 -0.639453 3.004810 199 191 188
0.628011 -0.637896 3.007993 199 191 188
0.623888 -0.629268 2.988243 199 191 188
0.558347 -0.547271 2.674321 199 191 189
0.558169 -0.545111 2.673472 199 190 190
0.558311 -0.543263 2.674148 199 190 191
0.558722 -0.541675 2.676119 199 190 191
0.558128 -0.537129 2.673275 199 190 191
0.556709 -0.533782 2.666478 199 190 191
0.553745 -0.528970 2.652279 199 190 190
0.553860 -0.525140 2.652833 199 191 189
0.419090 -0.389903 2.007321 199 190 191
0.419314 -0.388619 2.008394 199 190 191
0.418175 -0.365248 2.002938 199 191 188
0.348909 -0.299784 1.671176 199 191 188
0.348273 -0.297998 1.668126 199 191 188
0.348228 -0.296720 1.667911 199 191 188
0.348474 -0.295690 1.669089 199 191 188
0.348622 -0.294576 1.669801 199 191 188
0.348585 -0.293304 1.669622 199 191 188
0.348021 -0.291592 1.666920 199 191 188
0.348959 -0.291136 1.671415 199 191 188
0.350729 -0.290117 1.679890 199 191 188
0.414448 -0.329554 1.985086 199 191 188
1.301432 -1.002442 6.233485 197 189 186
1.312468 -1.006274 6.286345 197 189 186
0.422063 -0.316089 2.021561 197 189 186
0.503393 -0.373417 2.411107 197 189 184
0.500903 -0.366224 2.399182 196 190 180
0.501212 -0.364667 2.400664 196 190 181
0.632389 -0.424110 3.028962 197 190 180
0.631562 -0.421309 3.025003 197 190 181
0.509334 -0.336148 2.439566 197 190 183
0.730714 -0.432860 3.499913 197 189 184
0.733333 -0.431802 3.512455 197 190 182
0.723635 -0.400347 3.466007 199 192 184
0.409084 -0.219047 1.959396 198 191 186
0.496403 -0.258738 2.377626 197 189 186
0.497636 -0.257610 2.383533 197 189 186
0.348161 -0.162891 1.667592 197 189 186
0.610474 -0.235664 2.923995 198 191 183
0.614152 -0.234899 2.941613 198 191 183
0.718674 -0.259536 3.442242 198 191 183
0.348276 -0.110905 1.668142 196 189 181
1.828191 -0.445583 8.756514 196 188 185
1.792860 -0.385945 8.587288 196 188 185
0.468132 -0.097443 2.242217 197 189 186
0.468813 -0.095917 2.245481 197 189 186
0.468485 -0.094183 2.243911 197 189 186
0.561175 -0.040944 2.687866 196 188 185
0.551689 -0.034364 2.642432 195 187 183
0.612250 -0.029423 2.932504 195 187 183
0.611049 -0.027192 2.926749 195 187 183
0.608932 -0.024931 2.916610 194 186 183
0.557851 0.006930 2.671945 195 187 184
0.557918 0.008915 2.672269 195 187 184
0.411490 0.037318 1.970919 100 100 108
0.412897 0.038915 1.977657 44 47 55
0.413390 0.044844 1.980019 1 13 19
0.413291 0.046304 1.979546 0 13 19
13.647447 2.111647 65.367371 0 7 12
0.437802 0.083316 2.096948 1 5 8
0.438559 0.085020 2.100573 0 2 3
0.439618 0.086789 2.105644 0 1 2
0.439868 0.088404 2.106844 0 0 2
0.440061 0.090008 2.107767 0 0 2
0.439893 0.091539 2.106961 0 0 2
0.440068 0.093141 2.107801 0 1 3
0.440658 0.094833 2.110625 1 1 3
0.440151 0.096290 2.108199 1 1 3
0.440393 0.097910 2.109357 0 1 3
0.442387 0.099927 2.118906 0 1 3
0.442405 0.101505 2.118995 0 1 3
0.444727 0.103620 2.130117 0 1 3
0.446059 0.105517 2.136496 0 1 4
0.445724 0.107024 2.134889 0 1 5
0.444509 0.108313 2.129071 0 1 5
0.443904 0.109745 2.126172 0 1 6
0.443986 0.111345 2.126568 0 1 7
0.438142 0.119232 2.098574 0 2 11
0.439224 0.121089 2.103755 0 2 11
0.437775 0.122247 2.096818 0 2 10
0.435045 0.123032 2.083742 0 3 9
0.432240 0.123777 2.070307 0 3 7
0.431243 0.125026 2.065530 0 3 5
0.433790 0.127307 2.077731 0 3 3
0.431369 0.135805 2.066132 0 0 2
0.431531 0.137391 2.066911 0 0 4
0.431333 0.140397 2.065963 0 1 5
0.432072 0.142175 2.069500 0 1 5
0.428060 0.145423 2.050284 1 0 1
0.427063 0.149643 2.045510 2 0 1
0.425041 0.151958 2.035826 1 0 1
0.425981 0.153810 2.040326 0 0 2
0.429633 0.156657 2.057821 0 0 3
0.394169 0.159151 1.887955 0 1 1
0.393904 0.160446 1.886686 0 1 1
0.393656 0.161745 1.885499 0 1 2
0.392503 0.162668 1.879976 0 2 3
0.392254 0.163960 1.878785 0 3 4
0.391866 0.165192 1.876928 0 3 3
0.393664 0.168751 1.885536 0 3 2
0.394355 0.170450 1.888849 0 3 1
0.394754 0.181858 1.890758 2 4 2
0.393469 0.184066 1.884605 1 2 1
0.394382 0.187299 1.888976 1 2 1
0.394611 0.188811 1.890072 1 1 1
0.391496 0.188714 1.875153 0 1 0
0.392429 0.190560 1.879621 1 2 1
0.391831 0.191663 1.876759 3 3 2
0.393410 0.193835 1.884323 3 3 1
0.392972 0.195017 1.882223 3 2 0
0.393009 0.196434 1.882403 3 2 0
0.393748 0.198204 1.885940 3 2 0
0.393791 0.199627 1.886146 3 3 0
0.394134 0.201203 1.887790 3 4 0
0.394382 0.202732 1.888976 3 5 0
0.394182 0.204032 1.888018 1 5 0
0.393896 0.205286 1.886652 0 5 0
0.394454 0.206979 1.889321 0 5 0
0.394807 0.208569 1.891012 0 6 0
0.394754 0.209946 1.890758 1 8 0
0.394599 0.211267 1.890015 5 11 2
0.394094 0.212399 1.887599 9 16 5
0.393766 0.213623 1.886027 12 20 9
0.394652 0.215508 1.890271 22 31 20
0.395545 0.217403 1.894548 33 42 32
0.395256 0.218650 1.893161 41 50 41
0.414884 -0.450806 1.980131 199 191 188
0.721764 -0.779140 3.444786 199 191 188
0.835404 -0.895891 3.987160 199 191 188
0.831271 -0.885564 3.967434 199 191 188
0.826597 -0.877655 3.945127 199 191 188
0.358412 -0.378010 1.710606 199 191 188
0.358791 -0.377138 1.712414 199 191 188
0.358534 -0.375597 1.711190 199 191 188
0.335030 -0.349786 1.599007 199 191 188
0.333522 -0.347029 1.591810 199 191 188
0.844227 -0.875425 4.029272 199 191 188
0.840934 -0.869028 4.013553 199 191 188
0.628913 -0.641006 3.001635 199 191 188
0.628613 -0.638472 3.000203 199 191 188
0.629124 -0.636761 3.002644 199 191 188
0.626250 -0.629411 2.988924 199 191 188
0.558760 -0.545734 2.666811 199 191 189
0.558781 -0.543774 2.666915 199 190 190
0.559153 -0.542154 2.668689 199 190 191
0.559653 -0.540655 2.671077 199 190 191
0.559256 -0.536305 2.669178 199 190 192
0.553773 -0.529084 2.643010 199 190 191
1.746558 -1.656310 8.335859 199 191 189
1.742589 -1.646368 8.316914 199 191 189
0.419920 -0.387802 2.004168 199 190 191
0.347570 -0.297574 1.658859 199 191 188
0.346583 -0.295501 1.654149 199 191 188
0.346488 -0.294191 1.653694 199 191 188
0.347024 -0.293416 1.656251 199 191 188
0.347375 -0.292482 1.657930 199 191 188
0.347372 -0.291248 1.657916 199 191 188
0.346643 -0.289407 1.654433 199 191 188
0.347713 -0.289068 1.659543 199 191 188
0.348500 -0.274897 1.663298 199 191 188
0.349094 -0.274128 1.666134 199 191 188
1.309979 -1.005450 6.252183 197 189 186
1.349128 -1.021150 6.439031 197 189 186
0.506234 -0.343685 2.416122 197 190 184
0.505896 -0.339868 2.414505 197 190 182
0.506113 -0.338220 2.415544 197 189 183
0.507205 -0.333555 2.420753 197 189 184
0.505461 -0.328825 2.412430 197 189 185
0.505194 -0.326860 2.411155 197 189 186
0.732374 -0.432305 3.495426 197 189 185
0.736289 -0.432006 3.514114 197 189 184
0.738146 -0.430479 3.522977 197 189 184
0.492803 -0.257698 2.352020 197 189 186
0.493448 -0.256286 2.355094 197 189 186
0.493997 -0.254820 2.357714 197 189 186
0.495367 -0.253771 2.364256 197 189 186
0.496185 -0.252430 2.368158 197 189 186
0.496289 -0.250724 2.368658 197 189 186
0.494384 -0.246257 2.359564 197 189 186
0.493997 -0.244312 2.357714 197 189 186
0.493997 -0.242561 2.357714 197 189 186
0.492680 -0.233182 2.351429 197 189 186
0.492993 -0.231582 2.352925 197 189 186
0.493127 -0.210667 2.353563 197 190 182
0.493875 -0.160214 2.357137 196 189 181
0.493997 -0.158502 2.357714 196 189 181
0.347747 -0.110344 1.659706 196 189 181
1.834695 -0.458591 8.756514 196 188 185
1.828795 -0.444150 8.728354 196 188 185
1.815948 -0.428154 8.667036 196 188 185
1.814741 -0.389270 8.661276 196 188 185
0.468383 -0.097149 2.235466 196 188 185
0.468637 -0.095541 2.236682 196 188 185
0.596807 -0.094166 2.848402 196 188 185
0.470530 -0.032541 2.245714 195 187 184
0.469322 -0.030793 2.239947 195 187 182
0.603118 -0.026744 2.878522 195 187 181
0.601759 -0.024550 2.872034 194 187 183
8.208206 -0.102086 39.175591 193 185 182
8.013532 -0.071257 38.246460 194 186 183
0.412752 0.038763 1.969954 91 91 99
0.414533 0.044809 1.978456 0 12 19
0.413256 0.046136 1.972359 0 12 19
0.415079 0.047811 1.981063 0 11 17
0.437324 0.081379 2.087229 0 4 5
0.437277 0.082921 2.087008 0 4 5
0.438378 0.084684 2.092263 0 1 3
0.438101 0.086183 2.090939 0 0 2
0.439325 0.087982 2.096782 0 0 0
0.443765 0.090444 2.117973 0 0 0
0.441765 0.093168 2.108427 1 1 2
0.441494 0.094676 2.107134 2 1 2
0.438839 0.095663 2.094463 2 2 3
0.443310 0.098209 2.115800 1 2 3
0.445221 0.100211 2.124923 0 2 3
0.443630 0.101425 2.117328 0 2 3
0.446913 0.105344 2.132996 1 2 5
0.445137 0.106504 2.124519 0 1 5
0.445189 0.108095 2.124770 0 1 5
0.438680 0.118955 2.093704 0 2 11
0.439143 0.120638 2.095915 0 2 11
0.438890 0.122124 2.094705 0 2 10
0.438221 0.123491 2.091511 0 3 9
0.434891 0.124094 2.075617 0 3 6
0.435307 0.127300 2.077603 0 3 3
0.434046 0.140779 2.071588 0 1 5
0.432856 0.141928 2.065906 0 1 5
0.427180 0.150667 2.038816 1 0 1
0.438553 0.160897 2.093096 0 0 5
0.438095 0.163836 2.090914 0 1 5
0.437086 0.165008 2.086096 0 1 5
0.441820 0.168361 2.108691 0 1 5
2.111506 0.834557 10.077655 0 0 3
2.115462 0.843620 10.096539 0 1 2
2.118129 0.852193 10.109266 0 1 2
2.107942 0.855567 10.060650 0 1 3
0.393634 0.162558 1.878713 0 2 5
0.393507 0.163901 1.878106 0 2 5
0.393187 0.165161 1.876577 0 3 5
0.463985 0.203125 2.214477 0 3 0
0.394190 0.189339 1.881364 5 5 6
0.394364 0.190820 1.882193 4 4 5
0.394101 0.192090 1.880937 0 0 2
0.394156 0.193515 1.881204 0 0 0
0.394349 0.195007 1.882125 0 0 0
0.395053 0.198156 1.885483 1 0 0
0.394717 0.199387 1.883880 1 0 0
0.395915 0.202799 1.889595 0 1 0
0.395115 0.203790 1.885778 0 3 0
0.394299 0.204767 1.881883 0 4 0
0.394881 0.206469 1.884663 0 4 0
0.395342 0.208112 1.886865 0 4 0
0.395613 0.209657 1.888155 0 4 0
0.395253 0.210867 1.886437 0 5 0
0.395294 0.212291 1.886635 1 7 0
0.395642 0.213880 1.888295 2 8 1
0.395905 0.215425 1.889548 1 6 0
0.396271 0.217030 1.891298 0 5 0
0.396025 0.218299 1.890121 0 6 0
0.416355 -0.450806 1.980131 199 191 188
0.838961 -0.905418 3.989994 199 191 188
0.724322 -0.779140 3.444786 199 191 188
0.839757 -0.900344 3.993779 199 191 188
0.838207 -0.895721 3.986407 199 191 188
0.828431 -0.882349 3.939915 199 191 188
0.831314 -0.882482 3.953626 199 191 188
0.828389 -0.876450 3.939712 199 191 188
0.360142 -0.378492 1.712789 199 191 188
0.360562 -0.377660 1.714786 199 191 188
0.360307 -0.376121 1.713577 199 191 188
0.336267 -0.349837 1.599244 199 191 188
0.845140 -0.873275 4.019380 199 191 188
0.843712 -0.868819 4.012588 199 191 188
0.630243 -0.640092 2.997356 199 191 188
0.629956 -0.637576 2.995992 199 191 188
0.630496 -0.635895 2.998562 199 191 188
0.560628 -0.545624 2.666274 199 191 189
0.560419 -0.543442 2.665285 199 190 190
0.560752 -0.541784 2.666868 199 190 191
0.561007 -0.540048 2.668080 199 190 191
0.559728 -0.534862 2.661994 199 190 191
0.333547 -0.317551 1.586307 199 190 191
0.334239 -0.317029 1.589599 199 190 190
1.832508 -1.705786 8.715179 199 190 189
0.345876 -0.291413 1.644945 199 191 188
0.346541 -0.290749 1.648105 199 191 188
0.347215 -0.290088 1.651310 199 191 188
0.346238 -0.288049 1.646666 199 191 188
0.347551 -0.287913 1.652909 199 191 188
0.348142 -0.287173 1.655719 199 191 188
0.348231 -0.273714 1.656142 199 191 186
1.313948 -1.004933 6.248973 198 190 187
1.318668 -1.003885 6.271420 198 190 187
0.507590 -0.343388 2.414036 197 190 184
0.507180 -0.341319 2.412084 197 190 184
0.507590 -0.339802 2.414036 197 189 184
0.507907 -0.338220 2.415544 197 189 185
0.509735 -0.337637 2.424237 197 189 186
0.510378 -0.336260 2.427295 197 189 186
0.509735 -0.334035 2.424237 197 189 186
0.506984 -0.326860 2.411155 197 189 187
0.508454 -0.326012 2.418146 197 189 187
0.508454 -0.324215 2.418146 197 189 187
0.738061 -0.434123 3.510126 197 189 186
0.739356 -0.432272 3.516283 197 189 186
0.740438 -0.430290 3.521430 197 189 186
0.487960 -0.255988 2.320675 197 189 186
0.489452 -0.251584 2.327772 197 189 186
0.490893 -0.250590 2.334626 197 189 186
0.491772 -0.249302 2.338804 197 189 186
0.491951 -0.247655 2.339657 197 189 186
0.490992 -0.245438 2.335099 197 189 186
0.490445 -0.243432 2.332495 197 189 186
0.489985 -0.241472 2.330309 197 189 186
0.490525 -0.240005 2.332874 197 189 186
0.489361 -0.232521 2.327340 197 189 186
0.489985 -0.231087 2.330309 197 189 186
0.490370 -0.229537 2.332140 197 189 186
0.492107 -0.226873 2.340401 197 189 186
0.488707 -0.211494 2.324230 197 190 180
0.489804 -0.210239 2.329445 197 190 180
0.490854 -0.208955 2.334438 197 190 182
0.346362 -0.109516 1.647255 196 189 181
1.832785 -0.456495 8.716496 196 188 185
1.834090 -0.450341 8.722703 196 188 185
1.830298 -0.442945 8.704668 196 188 185
1.816443 -0.426758 8.638775 196 188 185
1.791407 -0.395564 8.519709 196 188 185
1.806026 -0.392412 8.589235 196 188 185
1.822969 -0.389654 8.669813 196 188 185
0.469643 -0.097067 2.233563 196 188 185
0.469923 -0.095465 2.234897 196 188 185
0.469921 -0.093804 2.234885 196 188 185
0.593276 -0.095374 2.821548 196 188 185
0.593868 -0.093372 2.824360 196 188 185
0.593014 -0.091143 2.820299 196 188 185
0.470059 -0.032393 2.235539 195 188 183
0.468997 -0.030663 2.230492 195 188 181
0.467947 0.004119 2.225497 195 187 184
0.469489 0.005791 2.232831 195 187 184
0.649322 0.019478 3.088093 194 186 183
0.452947 0.016787 2.154161 194 186 183
0.461330 0.039913 2.194029 214 207 210
0.415768 0.040377 1.977341 89 87 93
0.416870 0.041957 1.982583 30 30 36
0.417199 0.043464 1.984145 2 5 14
0.415866 0.044794 1.977805 0 9 18
0.415439 0.046215 1.975775 0 11 20
0.415704 0.047713 1.977037 0 9 17
0.432690 0.075647 2.057821 0 3 5
0.434786 0.077550 2.067790 0 3 6
0.438610 0.081331 2.085977 0 4 6
0.441395 0.086525 2.099220 0 0 4
0.444516 0.088707 2.114064 0 0 2
0.447096 0.090801 2.126331 0 0 2
0.445792 0.092111 2.120133 1 1 2
0.446213 0.093774 2.122134 2 2 3
0.444206 0.094922 2.112590 3 3 4
0.444232 0.096496 2.112713 3 3 4
0.444802 0.098191 2.115423 1 2 4
0.444661 0.099731 2.114751 0 2 3
0.444165 0.107465 2.112394 0 1 6
0.436391 0.117916 2.075420 0 2 11
0.440511 0.120586 2.095018 0 2 12
0.442159 0.122599 2.102854 0 2 10
0.442888 0.124366 2.106321 0 2 9
0.440289 0.125191 2.093960 0 2 6
0.437674 0.125994 2.081522 0 3 5
0.438249 0.127707 2.084256 0 3 3
0.436688 0.139593 2.076834 0 1 5
0.435061 0.140610 2.069094 0 1 5
0.430739 0.142256 2.048539 0 1 3
0.433651 0.144750 2.062390 0 0 1
0.439323 0.160610 2.089365 0 0 5
0.439057 0.163615 2.088101 0 1 5
0.444128 0.173349 2.112216 0 1 4
2.113559 0.839884 10.051822 0 0 2
2.114823 0.847857 10.057834 0 0 2
0.437306 0.178411 2.079772 0 1 5
0.462913 0.200305 2.201558 0 3 1
0.424424 0.189647 2.018505 1 3 1
0.397536 0.188867 1.890632 3 4 7
0.395929 0.190901 1.882988 3 4 8
0.395811 0.192242 1.882427 0 0 4
0.396718 0.194084 1.886739 1 0 4
0.396310 0.195284 1.884800 1 1 5
0.396627 0.196842 1.886310 3 3 5
0.397621 0.198740 1.891036 5 5 6
0.397923 0.200297 1.892474 6 6 6
0.398816 0.202155 1.896720 7 7 5
0.399901 0.204117 1.901879 7 7 6
0.397661 0.205784 1.891227 2 5 2
0.397765 0.207242 1.891718 2 5 1
0.397894 0.208715 1.892332 2 5 1
0.398297 0.210334 1.894253 1 4 1
0.398416 0.211804 1.894819 1 4 0
0.399803 0.213953 1.901412 0 4 0
0.399738 0.215330 1.901102 0 4 0
0.398965 0.216324 1.897428 0 4 0
0.399161 0.217840 1.898358 0 5 0
0.400017 0.219720 1.902432 0 7 1
0.417825 -0.450806 1.980131 199 191 188
0.842967 -0.906539 3.994933 199 191 188
0.726881 -0.779140 3.444786 199 191 188
0.842215 -0.899801 3.991370 199 191 188
0.840630 -0.895149 3.983859 198 191 188
0.830771 -0.881726 3.937134 197 191 188
0.833043 -0.881205 3.947902 197 191 188
0.829160 -0.874179 3.929501 197 191 188
0.833629 -0.875956 3.950680 197 191 188
0.360299 -0.377325 1.707507 197 191 188
0.360511 -0.376278 1.708511 197 191 188
0.360345 -0.374836 1.707724 198 191 188
0.847779 -0.872918 4.017736 199 191 188
0.846507 -0.868629 4.011709 199 191 188
0.631700 -0.639314 2.993709 199 191 188
0.631394 -0.636782 2.992259 198 190 187
0.632481 -0.635651 2.997411 198 191 188
0.333094 -0.333591 1.578578 197 191 188
6.535874 -6.522625 30.974380 197 192 188
0.562663 -0.545678 2.666537 199 190 189
0.562262 -0.543309 2.664634 199 190 190
0.562102 -0.541176 2.663876 199 190 190
0.562646 -0.539719 2.666453 199 190 190
0.334746 -0.318749 1.586406 199 190 191
0.334446 -0.317286 1.584983 199 190 191
0.334526 -0.316185 1.585366 199 190 191
0.335034 -0.315486 1.587772 199 190 192
0.865209 -0.705084 4.100343 199 191 188
0.404950 -0.312900 1.919113 199 192 186
1.322644 -0.998712 6.268188 199 191 188
0.587286 -0.439318 2.783228 199 190 188
0.508802 -0.368070 2.411278 194 193 187
0.509312 -0.366647 2.413698 195 193 187
0.511569 -0.344862 2.424395 197 189 184
0.510850 -0.342578 2.420985 197 189 184
0.511742 -0.341376 2.425215 197 189 185
0.512808 -0.340281 2.430266 197 189 186
0.514837 -0.339816 2.439883 197 189 186
0.515344 -0.338336 2.442285 197 189 187
0.515139 -0.336388 2.441313 197 189 187
0.514648 -0.334256 2.438984 197 189 187
0.511112 -0.328361 2.422227 197 189 187
0.514268 -0.328579 2.437187 197 189 187
0.514648 -0.327009 2.438984 197 189 187
0.343839 -0.214846 1.629500 197 189 187
0.343839 -0.210004 1.629500 197 189 186
0.343794 -0.208767 1.629286 197 189 186
0.343543 -0.207405 1.628096 197 189 186
0.343628 -0.206246 1.628497 197 189 186
0.740585 -0.434074 3.509732 197 189 186
0.741632 -0.432077 3.514695 197 189 186
0.741636 -0.429469 3.514714 197 189 186
0.743349 -0.427844 3.522831 197 189 186
0.431801 -0.233329 2.046360 197 189 186
0.485190 -0.258763 2.299381 197 189 186
0.485369 -0.253732 2.300230 197 189 186
0.484003 -0.249611 2.293756 197 189 186
0.484952 -0.248393 2.298252 197 189 186
0.486941 -0.247698 2.307676 197 189 186
0.488152 -0.246595 2.313416 197 189 186
0.488311 -0.244957 2.314169 197 189 186
0.486698 -0.240721 2.306525 197 189 186
0.486066 -0.238698 2.303534 197 189 186
0.486532 -0.226938 2.305741 197 189 186
0.485867 -0.221497 2.302588 197 189 186
0.483928 -0.218910 2.293398 197 189 187
0.484429 -0.217431 2.295775 197 189 186
0.484969 -0.215966 2.298332 197 189 185
0.486501 -0.209798 2.305594 197 190 180
0.487549 -0.208534 2.310561 197 190 180
0.484141 -0.190034 2.294408 199 191 188
0.486156 -0.187403 2.303960 198 190 187
0.484080 -0.159338 2.294119 197 190 182
0.484520 -0.157778 2.296205 196 189 181
0.485756 -0.154760 2.302064 196 189 181
0.344757 -0.108625 1.633850 196 189 181
0.485218 -0.147757 2.299513 196 189 181
1.839836 -0.469591 8.719230 196 188 185
1.831793 -0.454642 8.681110 196 188 185
1.835791 -0.449172 8.700062 196 188 185
1.834325 -0.442357 8.693113 196 188 185
1.820594 -0.426228 8.628040 196 188 185
1.786234 -0.399321 8.465201 196 188 185
1.812406 -0.392412 8.589235 196 188 185
1.840396 -0.391994 8.721882 196 188 185
1.863738 -0.390405 8.832502 196 188 185
0.471316 -0.095410 2.233631 196 188 185
0.471210 -0.093730 2.233128 196 188 185
0.471578 -0.092143 2.234870 196 188 185
0.652653 -0.111443 3.093008 196 188 185
0.589039 -0.088139 2.791533 196 188 185
0.589224 -0.086093 2.792409 196 188 185
0.469146 -0.032217 2.223346 195 188 182
0.470339 -0.030643 2.228997 195 188 180
0.468968 0.005764 2.222503 195 187 184
0.650836 0.017163 3.084397 195 187 184
0.649200 0.019406 3.076646 195 187 184
0.648693 0.021674 3.074245 195 187 184
0.416226 0.041745 1.972549 77 72 76
0.416501 0.043238 1.973856 18 19 26
0.418204 0.044887 1.981925 1 8 18
0.415684 0.046080 1.969984 1 11 22
0.416019 0.047582 1.971571 0 9 18
0.427557 0.059436 2.026250 0 3 8
0.432260 0.075306 2.048539 0 2 4
0.434034 0.077143 2.056946 0 1 5
0.436826 0.079177 2.070179 0 1 6
0.439839 0.081271 2.084455 0 0 7
0.441432 0.083120 2.092004 0 0 7
0.443180 0.085009 2.100291 0 0 8
0.445148 0.086953 2.109616 0 0 8
0.444867 0.088464 2.108284 0 0 6
0.446568 0.090374 2.116345 0 0 6
0.445855 0.091800 2.112968 0 1 5
0.445077 0.093206 2.109279 1 1 5
0.444493 0.094649 2.106512 1 2 5
0.443458 0.095989 2.101609 1 1 5
0.443724 0.097609 2.102869 0 2 5
0.444280 0.100859 2.105501 0 2 4
0.444070 0.110190 2.104505 0 1 7
0.441961 0.111223 2.094514 0 2 8
0.442221 0.112844 2.095743 0 2 9
0.441806 0.114294 2.093780 0 2 8
0.444249 0.116490 2.105355 0 1 8
0.441774 0.118951 2.093625 0 2 11
0.440638 0.120196 2.088240 0 2 11
0.441662 0.122030 2.093096 0 2 10
0.441524 0.123546 2.092441 0 3 7
0.440908 0.124926 2.089523 0 2 6
0.439597 0.126102 2.083309 0 3 5
0.439296 0.127562 2.081882 0 3 4
0.435576 0.132615 2.064255 1 2 3
0.435225 0.134040 2.062589 1 2 3
0.435497 0.135656 2.063876 0 1 3
0.438079 0.139545 2.076117 0 1 3
0.436817 0.140680 2.070132 0 1 3
0.438117 0.142642 2.076296 0 1 3
0.427838 0.148331 2.027582 1 0 0
0.426737 0.149451 2.022363 1 0 1
0.426601 0.150905 2.021719 0 0 1
0.437918 0.157992 2.075351 0 0 4
0.440083 0.160322 2.085611 0 0 5
0.440275 0.161942 2.086524 0 1 6
0.439199 0.163092 2.081422 0 1 6
0.439810 0.164867 2.084319 0 1 6
0.440271 0.166590 2.086504 0 1 6
0.440054 0.168057 2.085476 0 1 5
0.439555 0.177150 2.083112 0 0 4
0.436140 0.177309 2.066927 0 1 5
0.437242 0.179295 2.072146 0 1 6
0.459797 0.198256 2.179042 0 4 3
0.423354 0.185523 2.006330 0 5 1
0.423533 0.187092 2.007177 0 5 1
0.397966 0.191208 1.886014 1 2 7
0.396629 0.191961 1.879678 0 1 6
0.396026 0.193063 1.876818 0 0 5
0.396777 0.194827 1.880381 0 0 5
0.393925 0.194813 1.866863 1 1 4
0.396124 0.204267 1.877286 3 5 3
0.398028 0.206650 1.886310 2 4 2
0.398075 0.208075 1.886528 3 5 2
0.398475 0.209687 1.888429 2 4 2
0.399138 0.211441 1.891568 2 4 1
0.400302 0.213466 1.897085 1 3 1
0.400045 0.214738 1.895866 1 3 0
0.401246 0.216795 1.901559 2 4 1
0.401733 0.218472 1.903865 1 5 1
0.401346 0.219674 1.902033 0 5 1
0.419296 -0.450806 1.980131 198 190 187
0.843013 -0.903408 3.981136 198 190 187
0.729440 -0.779140 3.444786 198 190 187
0.835701 -0.889710 3.946606 197 190 187
0.831182 -0.881983 3.925265 196 190 187
0.824589 -0.872095 3.894129 196 191 187
0.822180 -0.866663 3.882755 195 191 187
0.828072 -0.869969 3.910576 195 191 186
0.359697 -0.375373 1.698675 195 191 186
0.360055 -0.374484 1.700364 195 191 186
0.359829 -0.372986 1.699294 196 190 186
0.632437 -0.637815 2.986690 197 189 187
0.632718 -0.635879 2.988017 197 189 187
0.633400 -0.634343 2.991241 197 191 188
0.334267 -0.333591 1.578578 197 191 188
0.564484 -0.545523 2.665782 199 190 189
0.563869 -0.540973 2.662876 200 190 189
0.334267 -0.317176 1.578578 199 190 190
0.334267 -0.316004 1.578578 199 190 190
0.334267 -0.314831 1.578578 199 190 192
0.334267 -0.313659 1.578578 199 190 193
0.334267 -0.312486 1.578578 199 190 193
1.747282 -1.615043 8.251554 199 191 188
1.697429 -1.557055 8.016127 199 191 188
0.865646 -0.706002 4.088022 199 191 188
0.867309 -0.704316 4.095877 199 191 188
0.869425 -0.702984 4.105867 199 191 188
0.404931 -0.311787 1.912289 199 192 186
0.404826 -0.310286 1.911793 199 192 186
1.317330 -0.995831 6.221105 199 191 188
0.583435 -0.434905 2.755275 200 190 188
0.583649 -0.433018 2.756286 200 190 188
1.329068 -0.981394 6.276536 199 190 188
0.511236 -0.368534 2.414316 194 193 188
0.511533 -0.366954 2.415718 195 193 188
0.344949 -0.246243 1.629027 196 193 188
0.512939 -0.346372 2.422360 198 191 186
0.512820 -0.344492 2.421797 197 189 186
0.512398 -0.342411 2.419804 197 189 186
0.513065 -0.341057 2.422953 197 189 186
0.513984 -0.339865 2.427295 197 189 186
0.515721 -0.339205 2.435498 197 189 186
0.516298 -0.337774 2.438223 197 189 187
0.516336 -0.335987 2.438402 197 189 187
0.516067 -0.334002 2.437131 197 189 187
0.513337 -0.328633 2.424237 197 189 187
0.515466 -0.328189 2.434295 197 189 187
0.515386 -0.326330 2.433915 197 189 187
0.512599 -0.322767 2.420753 197 189 187
0.342579 -0.209703 1.617835 197 189 186
0.342936 -0.206313 1.619521 197 189 186
0.342728 -0.204985 1.618537 197 189 186
0.740251 -0.432357 3.495844 197 189 186
0.740903 -0.430138 3.498921 197 189 186
0.741701 -0.428000 3.502693 197 189 186
0.742891 -0.426081 3.508310 197 189 186
0.581913 -0.329670 2.748089 197 189 186
0.432934 -0.231602 2.044534 197 189 186
0.482236 -0.256285 2.277366 197 189 186
0.482236 -0.251210 2.277366 197 189 186
0.481568 -0.247484 2.274209 197 189 186
0.481863 -0.245945 2.275604 197 189 186
0.481527 -0.244085 2.274018 197 189 186
0.483640 -0.243459 2.283997 197 189 186
0.484253 -0.242069 2.286892 197 189 186
0.482968 -0.238038 2.280821 197 189 186
0.482628 -0.236178 2.279216 197 189 186
0.482750 -0.224384 2.279794 197 189 186
0.483191 -0.219504 2.281874 197 189 186
0.482702 -0.217589 2.279565 197 189 187
0.482447 -0.215782 2.278362 197 189 186
0.482833 -0.214261 2.280182 197 189 184
0.482553 -0.212444 2.278860 197 189 183
0.481272 -0.210192 2.272810 197 190 182
0.481761 -0.190126 2.275119 199 191 189
0.482413 -0.188692 2.278201 199 191 188
0.482562 -0.187057 2.278902 199 191 187
0.482641 -0.185395 2.279276 198 191 185
0.482183 -0.181836 2.277112 197 190 181
0.482008 -0.180080 2.276289 197 190 180
0.482669 -0.178634 2.279410 197 190 180
0.482041 -0.176710 2.276443 197 190 182
0.482411 -0.170077 2.278192 197 190 182
0.482236 -0.168324 2.277366 197 190 182
0.481811 -0.166485 2.275356 197 190 182
0.482092 -0.164892 2.276686 197 190 182
0.482236 -0.163249 2.277366 197 190 182
0.482236 -0.161558 2.277366 197 190 182
0.482376 -0.159912 2.278024 197 190 182
0.482520 -0.158268 2.278705 197 190 182
0.482669 -0.156624 2.279410 196 189 181
0.482685 -0.154936 2.279485 196 189 181
0.482964 -0.153331 2.280803 196 189 181
0.343068 -0.107714 1.620143 196 189 181
0.482075 -0.147976 2.276606 196 189 181
0.482846 -0.146519 2.280244 196 189 181
0.478104 -0.133340 2.257851 196 189 179
0.477893 -0.131605 2.256856 196 189 179
0.478355 -0.130055 2.259036 196 189 181
0.516609 -0.135019 2.439690 196 188 185
1.822653 -0.450787 8.607498 196 188 185
1.838588 -0.448279 8.682750 196 188 185
1.837753 -0.441629 8.678807 196 188 185
1.821658 -0.424981 8.602797 196 188 185
1.794288 -0.406008 8.473542 196 188 185
1.814579 -0.397869 8.569368 196 188 185
1.825218 -0.393800 8.619611 196 188 185
1.848043 -0.392242 8.727405 196 188 185
1.880794 -0.392596 8.882069 196 188 185
0.472442 -0.093646 2.231112 196 188 185
0.472560 -0.092011 2.231668 196 188 185
0.650221 -0.110638 3.070674 196 188 185
0.650090 -0.108335 3.070057 196 188 185
0.581703 -0.080615 2.747098 196 188 185
0.468427 -0.030411 2.212150 195 188 181
0.584180 -0.025631 2.758795 195 188 180
0.472717 0.000815 2.232411 195 187 184
0.466344 0.004076 2.202314 195 187 184
0.467056 0.005720 2.205679 195 187 184
0.651338 0.019401 3.075950 195 187 184
0.650600 0.021661 3.072465 195 187 184
0.579494 0.043686 2.736668 191 183 181
0.581408 0.045870 2.745705 192 184 182
0.465235 0.039969 2.197077 187 178 179
0.417373 0.041713 1.971050 139 133 136
0.417340 0.043173 1.970892 65 65 72
0.418312 0.044741 1.975485 12 18 29
0.417845 0.046157 1.973277 2 11 22
0.417259 0.047556 1.970508 2 11 20
0.437507 0.066745 2.066132 0 4 3
0.433044 0.075178 2.045056 0 2 3
0.436383 0.078819 2.060822 0 0 7
0.440300 0.081071 2.079319 0 0 9
0.442176 0.082968 2.088182 0 0 9
0.444377 0.084939 2.098574 0 0 11
0.444842 0.086589 2.100773 0 0 11
0.447068 0.088590 2.111282 0 0 10
0.445453 0.089833 2.103656 0 0 9
0.443743 0.091044 2.095583 0 0 8
0.444522 0.092763 2.099261 0 1 7
0.444103 0.094234 2.097282 0 1 6
0.441989 0.095336 2.087297 0 0 5
0.440058 0.096463 2.078180 0 2 5
0.442155 0.098473 2.088082 0 3 6
0.442374 0.100074 2.089118 0 3 6
0.441680 0.101466 2.085837 0 4 7
0.441942 0.104627 2.087076 0 3 6
0.440827 0.105909 2.081811 0 2 6
0.440718 0.107429 2.081295 0 2 7
0.440801 0.108995 2.081686 0 3 8
0.441236 0.110651 2.083742 0 4 9
0.440686 0.112059 2.081146 0 4 9
0.440572 0.113575 2.080606 0 4 10
0.441541 0.115373 2.085180 0 4 10
0.441008 0.116781 2.082665 0 4 10
0.442263 0.118665 2.088593 0 4 10
0.442575 0.120301 2.090066 0 5 10
0.441231 0.121483 2.083717 0 4 10
0.441136 0.123005 2.083271 0 3 7
0.439546 0.124103 2.075759 0 3 6
0.440161 0.125821 2.078667 0 3 6
0.441297 0.127693 2.084031 0 3 6
0.441008 0.129157 2.082665 0 4 6
0.438391 0.129928 2.070307 0 3 6
0.436689 0.130955 2.062268 1 2 6
0.436237 0.132350 2.060132 0 1 3
0.437400 0.138840 2.065625 0 0 1
0.437081 0.140272 2.064120 0 0 1
0.438395 0.142231 2.070323 0 0 1
0.437562 0.143496 2.066392 0 0 1
0.433044 0.145052 2.045056 1 0 0
0.423882 0.146444 2.001785 1 1 0
0.437115 0.155616 2.064282 0 0 1
0.437846 0.157412 2.067730 0 0 2
0.439063 0.159389 2.073478 0 1 4
0.438132 0.160588 2.069081 1 2 5
0.436543 0.161537 2.061579 0 2 5
0.436757 0.163148 2.062589 0 2 5
0.438171 0.175973 2.069268 0 0 4
0.436397 0.176791 2.060890 0 1 5
0.436828 0.178497 2.062923 0 1 6
0.423987 0.185148 2.002282 0 5 2
0.424386 0.192766 2.004168 1 4 10
0.397146 0.188751 1.875526 0 2 8
0.398895 0.192381 1.883788 0 3 10
