ply
format ascii 1.0
element vertex 677
property float x
property float y
property float z
property uchar red
property uchar green
property uchar blue
end_header
0.125139996409416199 0.168056994676589966 2.27413702011108398 0 0 0
0.112314000725746155 0.161445006728172302 2.04105210304260254 0 0 0
0.112534001469612122 0.189104005694389343 2.04505610466003418 0 0 0
0.112612999975681305 0.190754994750022888 2.0464789867401123 0 0 0
0.116760000586509705 0.218268007040023804 2.12184309959411621 0 0 0
0.112990997731685638 0.224950999021530151 2.05336189270019531 0 0 0
0.1133899986743927 0.227274999022483826 2.06061100959777832 0 0 0
0.139381006360054016 -0.344363987445831299 2.49919700622558594 155 151 161
0.138795003294944763 -0.339219003915786743 2.48868799209594727 140 138 149
0.138368993997573853 -0.336335986852645874 2.48105788230895996 130 130 142
0.137912005186080933 -0.333388000726699829 2.47286200523376465 110 113 125
0.137663006782531738 -0.330951988697052002 2.46838808059692383 73 79 93
0.133204996585845947 -0.314913004636764526 2.38846111297607422 43 55 75
0.133248001337051392 -0.313239991664886475 2.38923001289367676 45 57 82
0.133402004837989807 -0.310048013925552368 2.39198994636535645 39 55 78
0.133974999189376831 -0.309596002101898193 2.40226507186889648 35 52 74
0.133634999394416809 -0.307031005620956421 2.39617609977722168 35 54 75
0.134108006954193115 -0.306331992149353027 2.40465903282165527 34 55 77
0.133576005697250366 -0.303337991237640381 2.39511990547180176 32 54 77
0.133163005113601685 -0.300626009702682495 2.38770890235900879 29 51 76
0.133226007223129272 -0.298994988203048706 2.38884496688842773 23 44 71
0.133605003356933594 -0.298065990209579468 2.39563989639282227 20 40 68
0.133147001266479492 -0.295269995927810669 2.38742399215698242 18 38 66
0.132909998297691345 -0.292975008487701416 2.38317608833312988 17 37 64
0.132853999733924866 -0.291081011295318604 2.38216805458068848 19 39 64
0.132746994495391846 -0.289077997207641602 2.38024497032165527 18 39 62
0.132823005318641663 -0.287474006414413452 2.38160395622253418 17 38 59
0.132791996002197266 -0.285638988018035889 2.38104891777038574 15 36 55
0.132390007376670837 -0.28301200270652771 2.37384796142578125 12 30 47
0.131672993302345276 -0.279725998640060425 2.36099600791931152 11 29 46
0.131605997681617737 -0.277828991413116455 2.35978102684020996 8 26 44
0.131243005394935608 -0.275315999984741211 2.3532860279083252 5 23 40
0.130977004766464233 -0.273012995719909668 2.34850788116455078 2 18 33
0.130771994590759277 -0.270844012498855591 2.34483003616333008 1 15 31
0.130934000015258789 -0.269434988498687744 2.3477320671081543 0 13 29
0.131277993321418762 -0.268395990133285522 2.35391497611999512 1 13 30
0.131372004747390747 -0.266838997602462769 2.35560202598571777 1 12 30
0.1316709965467453 -0.265691995620727539 2.36095404624938965 0 10 28
0.131858006119728088 -0.264311999082565308 2.36430001258850098 1 10 27
0.131615996360778809 -0.26207500696182251 2.35996508598327637 3 12 27
0.131439998745918274 -0.259974002838134766 2.35681390762329102 5 15 28
0.131421998143196106 -0.258188009262084961 2.35648608207702637 5 17 27
0.131427004933357239 -0.256446987390518188 2.35657310485839844 2 16 25
0.131451994180679321 -0.254745990037918091 2.35702800750732422 0 13 22
0.131384998559951782 -0.252864986658096313 2.3558189868927002 1 13 22
0.131411001086235046 -0.251165002584457397 2.35629010200500488 2 14 23
0.131273001432418823 -0.249153003096580505 2.35381007194519043 1 13 22
0.131050005555152893 -0.246985003352165222 2.34981894493103027 0 12 21
0.130841001868247986 -0.244847998023033142 2.3460690975189209 0 11 20
0.1310109943151474 -0.243422001600265503 2.34911894798278809 0 10 20
0.13098299503326416 -0.241624996066093445 2.34861993789672852 0 9 19
0.130752995610237122 -0.239458993077278137 2.34449100494384766 0 8 18
0.130814000964164734 -0.237829998135566711 2.34559392929077148 0 9 18
0.129961997270584106 -0.234549000859260559 2.33030891418457031 0 8 17
0.129711002111434937 -0.232368007302284241 2.32580304145812988 0 7 17
0.13015100359916687 -0.23142300546169281 2.33369994163513184 0 6 16
0.130230993032455444 -0.229831993579864502 2.33513903617858887 0 6 16
0.130162999033927917 -0.227976992726325989 2.33390688896179199 0 6 16
0.130058005452156067 -0.226061999797821045 2.33203411102294922 0 5 15
0.129926994442939758 -0.224103003740310669 2.32967591285705566 0 4 13
0.130083993077278137 -0.222642004489898682 2.3325040340423584 0 3 11
0.130098000168800354 -0.2209320068359375 2.33274197578430176 0 3 10
0.130118995904922485 -0.219235002994537354 2.33312296867370605 0 3 10
0.130187004804611206 -0.217617005109786987 2.33434796333312988 0 2 9
0.130110993981361389 -0.215755999088287354 2.33298301696777344 0 2 9
0.130092993378639221 -0.213993996381759644 2.33265900611877441 0 3 10
0.130057007074356079 -0.212202996015548706 2.33201289176940918 0 3 10
0.130125999450683594 -0.210583001375198364 2.33325695991516113 0 2 9
0.130421996116638184 -0.209324002265930176 2.33856105804443359 0 2 9
0.131032004952430725 -0.208557993173599243 2.34949493408203125 0 2 9
0.131227001547813416 -0.207120001316070557 2.35298991203308105 0 2 9
0.131286993622779846 -0.205467000603675842 2.35407209396362305 0 2 9
0.131316006183624268 -0.203764006495475769 2.3545989990234375 0 2 9
0.131560996174812317 -0.202390998601913452 2.35897493362426758 0 2 9
0.134314000606536865 -0.199470996856689453 2.40834689140319824 1 1 6
0.134305998682975769 -0.197670996189117432 2.40820598602294922 1 1 7
0.134240001440048218 -0.195785999298095703 2.40702390670776367 1 2 7
0.134226992726325989 -0.193978995084762573 2.40678501129150391 1 2 7
0.13407599925994873 -0.191974997520446777 2.40407609939575195 1 2 7
0.131597995758056641 -0.186673998832702637 2.35964107513427734 0 2 7
0.130702003836631775 -0.18366299569606781 2.34358906745910645 0 2 7
0.131384000182151794 -0.182870998978614807 2.35581302642822266 1 3 9
0.130555003881454468 -0.17997799813747406 2.34094500541687012 13 16 23
0.1305370032787323 -0.17821599543094635 2.34062910079956055 38 42 48
0.130994006991386414 -0.177093997597694397 2.34881401062011719 55 60 66
0.131065994501113892 -0.175445005297660828 2.35010004043579102 67 72 78
0.130722001194953918 -0.173243999481201172 2.34393095970153809 82 87 93
0.130052998661994934 -0.170625001192092896 2.33193492889404297 97 102 108
0.129544004797935486 -0.168231993913650513 2.32280898094177246 114 121 127
0.129210993647575378 -0.166078999638557434 2.31684398651123047 128 134 144
0.12974800169467926 -0.165041998028755188 2.32647490501403809 129 133 145
0.129135996103286743 -0.162543997168540955 2.3155059814453125 124 128 140
0.12916100025177002 -0.160853996872901917 2.31594204902648926 124 128 138
0.129411995410919189 -0.159443005919456482 2.32044291496276855 128 133 140
0.129609003663063049 -0.157959997653961182 2.32398509979248047 129 134 139
0.129708006978034973 -0.156352996826171875 2.32575702667236328 125 130 134
0.129677996039390564 -0.154589995741844177 2.32521891593933105 123 127 130
0.129638999700546265 -0.152816995978355408 2.32451891899108887 125 127 133
0.129510000348091125 -0.150940001010894775 2.32221102714538574 132 131 139
0.129556998610496521 -0.149269998073577881 2.32305598258972168 128 127 136
0.129418998956680298 -0.147386997938156128 2.32057809829711914 99 97 108
0.129517003893852234 -0.145772993564605713 2.32233405113220215 55 52 62
0.129629999399185181 -0.144173994660377502 2.32436490058898926 56 53 62
0.129510000348091125 -0.142315998673439026 2.32221102714538574 86 85 92
0.129391998052597046 -0.1404619961977005 2.32008504867553711 112 111 117
0.129534006118774414 -0.13889099657535553 2.32263302803039551 136 136 141
0.129329994320869446 -0.136950001120567322 2.31897497177124023 136 137 139
0.129308998584747314 -0.13520599901676178 2.31861090660095215 131 132 132
0.128578007221221924 -0.132728993892669678 2.3054959774017334 130 129 130
0.128953993320465088 -0.131400004029273987 2.31223702430725098 131 129 130
0.129048004746437073 -0.129776999354362488 2.31392598152160645 132 127 129
0.129229992628097534 -0.12823900580406189 2.31718707084655762 134 126 129
0.129387006163597107 -0.126671001315116882 2.31999802589416504 141 130 134
0.128930002450942993 -0.124507002532482147 2.31181001663208008 139 127 132
0.129376992583274841 -0.123214997351169586 2.31982302665710449 106 93 100
0.12949700653553009 -0.121605001389980316 2.32197403907775879 49 38 44
0.129429996013641357 -0.119819000363349915 2.32077693939208984 8 0 2
0.129608005285263062 -0.118257001042366028 2.32396888732910156 9 3 3
0.129074007272720337 -0.116049997508525848 2.31438398361206055 14 12 9
0.129519000649452209 -0.114725999534130096 2.32236909866333008 9 11 5
0.129379004240036011 -0.112879000604152679 2.31985998153686523 10 14 7
0.129576995968818665 -0.111326001584529877 2.32340693473815918 25 31 24
0.129691004753112793 -0.109696000814437866 2.3254539966583252 40 47 42
0.129725992679595947 -0.107997998595237732 2.32607603073120117 37 44 42
0.129722997546195984 -0.106268003582954407 2.32603096961975098 29 38 39
0.129335001111030579 -0.104227997362613678 2.3190770149230957 19 29 30
0.12980400025844574 -0.102876998484134674 2.32747793197631836 10 22 22
0.129444003105163574 -0.100867003202438354 2.32102394104003906 6 19 21
0.129343003034591675 -0.0990659967064857483 2.31921911239624023 7 22 26
0.129411995410919189 -0.0973960012197494507 2.32045388221740723 8 24 33
0.129630997776985168 -0.095834001898765564 2.32437801361083984 7 23 37
0.12934499979019165 -0.0939000025391578674 2.31924891471862793 8 24 40
0.129004001617431641 -0.0919340029358863831 2.31314301490783691 8 24 39
0.129133999347686768 -0.0903069972991943359 2.31547093391418457 7 23 37
0.128578007221221924 -0.0882060006260871887 2.30550098419189453 5 22 31
0.129334002733230591 -0.0870010033249855042 2.31904697418212891 3 19 28
0.128391996026039124 -0.0846579968929290771 2.30215191841125488 3 16 25
0.128105998039245605 -0.0827630013227462769 2.2970280647277832 2 13 22
0.128207996487617493 -0.0811220034956932068 2.29886007308959961 0 6 17
0.127268999814987183 -0.0788320004940032959 2.28201889991760254 1 6 17
0.127406999468803406 -0.0772209987044334412 2.28450298309326172 0 6 16
0.126569002866744995 -0.0750269964337348938 2.26946592330932617 0 3 13
0.126578003168106079 -0.0733470022678375244 2.26963210105895996 0 3 14
0.126936003565788269 -0.071864001452922821 2.2760469913482666 0 5 17
0.126389995217323303 -0.0698719993233680725 2.26626992225646973 0 5 17
0.12600100040435791 -0.06797800213098526 2.25928401947021484 0 4 16
0.126756995916366577 -0.0666979998350143433 2.27284789085388184 0 3 15
0.128280997276306152 -0.065791003406047821 2.30016493797302246 0 1 13
0.12856699526309967 -0.064226001501083374 2.30529904365539551 0 1 13
0.12865699827671051 -0.0625569969415664673 2.30691194534301758 1 2 13
0.128305003046989441 -0.0606769993901252747 2.30059599876403809 1 1 10
0.1281919926404953 -0.0589170008897781372 2.29858088493347168 0 0 7
0.129929006099700928 -0.0562539994716644287 2.32972002029418945 1 0 7
0.128714993596076965 -0.0505850017070770264 2.307952880859375 0 1 5
0.129317998886108398 -0.049100000411272049 2.31875801086425781 0 1 4
0.128714993596076965 -0.0454429984092712402 2.307952880859375 0 2 1
0.128714993596076965 -0.0437280014157295227 2.307952880859375 0 2 1
0.128627002239227295 -0.041985001415014267 2.30637288093566895 0 1 0
0.130178004503250122 -0.0407579988241195679 2.33418488502502441 0 0 0
0.127634003758430481 -0.0382610000669956207 2.28857207298278809 0 0 0
0.129471004009246826 -0.0370879992842674255 2.32151007652282715 0 0 0
0.128511995077133179 -0.0351010002195835114 2.30431199073791504 0 0 0
0.128645002841949463 -0.0265709999948740005 2.30668902397155762 0 0 0
0.128700003027915955 -0.0248680002987384796 2.30767607688903809 0 0 0
0.128469005227088928 -0.0231129992753267288 2.30353403091430664 0 0 0
0.128120005130767822 -0.0213440004736185074 2.29728198051452637 0 0 0
0.127959996461868286 -0.0196129996329545975 2.29440808296203613 0 0 0
0.127153992652893066 -0.0177960004657506943 2.27995610237121582 0 0 0
0.124372996389865875 -0.00746800005435943604 2.23009896278381348 0 0 0
0.124944999814033508 -0.00583800021559000015 2.24034905433654785 0 0 0
0.125230997800827026 -0.00418400019407272339 2.24548101425170898 0 0 0
0.126677006483078003 -0.00254500005394220352 2.27141189575195312 0 0 0
0.127001002430915833 -0.000859999970998615026 2.27721405029296875 0 0 0
0.126947000622749329 0.000830999983008950949 2.27624201774597168 0 2 0
0.127125993371009827 0.00252599990926682949 2.27945399284362793 0 2 0
0.127198994159698486 0.00422099977731704712 2.28077507019042969 0 2 1
0.119967997074127197 0.0199590008705854416 2.15111398696899414 0 1 6
0.12773500382900238 0.0263550002127885818 2.2903749942779541 0 1 5
0.119951002299785614 0.0311389993876218796 2.15080690383911133 0 1 5
0.120385996997356415 0.0328550003468990326 2.15861392021179199 0 1 5
0.120324000716209412 0.0344410017132759094 2.15748906135559082 0 1 5
0.120302997529506683 0.036037001758813858 2.15711498260498047 0 1 5
0.12044999748468399 0.037684999406337738 2.15974807739257812 0 1 5
0.12062700092792511 0.0393470004200935364 2.16292190551757812 0 1 6
0.120053999125957489 0.0407590009272098541 2.15265393257141113 0 1 6
0.120095998048782349 0.0423730015754699707 2.15340399742126465 0 1 6
0.119577996432781219 0.0437830016016960144 2.14412188529968262 0 1 6
0.118485003709793091 0.0449610017240047455 2.12451910972595215 0 1 6
0.117787003517150879 0.0462640002369880676 2.11199593544006348 0 1 6
0.128469005227088928 0.0538819991052150726 2.30353403091430664 0 1 6
0.12887999415397644 0.0557710006833076477 2.31090903282165527 0 1 6
0.128397002816200256 0.0572719983756542206 2.30225300788879395 0 1 6
0.127843007445335388 0.058727998286485672 2.29231500625610352 0 1 6
0.122505001723766327 0.0611700005829334259 2.19659900665283203 0 1 6
0.116227000951766968 0.0750629976391792297 2.08403110504150391 0 2 9
0.115726001560688019 0.0762799978256225586 2.0750429630279541 0 3 9
0.116677999496459961 0.0784619972109794617 2.09211206436157227 0 2 7
0.117859996855258942 0.0808269977569580078 2.11332201957702637 0 3 7
0.117761000990867615 0.0838949978351593018 2.11153101921081543 0 3 8
0.118395000696182251 0.0875009968876838684 2.12291288375854492 0 2 11
0.118859000504016876 0.0910099968314170837 2.13122200965881348 0 0 13
0.117412999272346497 0.0961579978466033936 2.10530805587768555 0 0 6
0.118905000388622284 0.1052979975938797 2.13205099105834961 0 1 5
0.125355005264282227 0.129373997449874878 2.24770307540893555 0 1 5
0.125354006886482239 0.131043002009391785 2.24769306182861328 0 1 4
0.125140994787216187 0.159153997898101807 2.24387407302856445 0 0 0
0.125246003270149231 0.160955995321273804 2.24575495719909668 0 0 0
0.125319004058837891 0.162717998027801514 2.24705410003662109 0 0 0
0.125425994396209717 0.164527997374534607 2.24898004531860352 0 0 0
0.112902000546455383 0.160127997398376465 2.02440500259399414 0 0 0
0.113310001790523529 0.186361998319625854 2.03173303604125977 0 0 0
0.11373099684715271 0.188568994402885437 2.03927803039550781 0 0 0
0.113969996571540833 0.190484002232551575 2.04356694221496582 0 0 0
0.118106000125408173 0.217843994498252869 2.11771893501281738 0 0 0
0.11799900233745575 0.219218000769615173 2.11579990386962891 0 0 0
0.114947997033596039 0.218143999576568604 2.06110095977783203 0 0 0
0.113954000174999237 0.223846003413200378 2.04327702522277832 0 0 0
0.114125996828079224 0.225703999400138855 2.04636001586914062 0 0 0
0.118796996772289276 0.242852002382278442 2.13011693954467773 0 0 0
0.119007997214794159 0.244870007038116455 2.13390803337097168 0 0 0
0.14107300341129303 -0.34396401047706604 2.49629092216491699 158 154 165
0.13997100293636322 -0.339437991380691528 2.47679710388183594 150 148 160
0.140884995460510254 -0.339801996946334839 2.4929649829864502 139 137 150
0.138325005769729614 -0.33180999755859375 2.44766902923583984 120 120 134
0.138235002756118774 -0.327959001064300537 2.44606900215148926 63 69 86
0.137118995189666748 -0.323511004447937012 2.42633295059204102 42 52 69
0.136106997728347778 -0.3193340003490448 2.40842294692993164 36 49 66
0.134398996829986572 -0.313560992479324341 2.37820291519165039 37 49 70
0.134954005479812622 -0.31308099627494812 2.3880159854888916 38 49 75
0.135536998510360718 -0.312651991844177246 2.3983299732208252 40 53 78
0.135434001684188843 -0.310635000467300415 2.396514892578125 40 55 78
0.13594500720500946 -0.310019999742507935 2.40555810928344727 37 54 76
0.136051997542381287 -0.308474987745285034 2.40744304656982422 33 52 74
0.135206997394561768 -0.304782986640930176 2.39249897003173828 32 54 75
0.13522300124168396 -0.303041994571685791 2.39278411865234375 35 57 80
0.134884998202323914 -0.300511002540588379 2.38679695129394531 36 58 83
0.135119006037712097 -0.299257010221481323 2.3909449577331543 30 51 79
0.134808003902435303 -0.29679599404335022 2.38543391227722168 28 49 78
0.135003000497817993 -0.295450985431671143 2.3888859748840332 26 45 75
0.134949997067451477 -0.293559998273849487 2.3879389762878418 23 42 70
0.134492993354797363 -0.290798991918563843 2.37985706329345703 19 39 65
0.134453997015953064 -0.288946986198425293 2.3791649341583252 16 37 60
0.134264007210731506 -0.286774009466171265 2.37580204010009766 14 35 57
0.134422004222869873 -0.285346001386642456 2.37861204147338867 14 34 54
0.134443998336791992 -0.283623993396759033 2.37898492813110352 12 29 48
0.133371993899345398 -0.279610991477966309 2.36002707481384277 12 28 46
0.132962003350257874 -0.277004003524780273 2.35277295112609863 9 26 44
0.133188992738723755 -0.275725990533828735 2.35679006576538086 7 24 42
0.132525995373725891 -0.272610992193222046 2.34505105018615723 5 22 38
0.132798001170158386 -0.271425992250442505 2.34987211227416992 3 20 36
0.132745996117591858 -0.269576013088226318 2.34895491600036621 3 18 34
0.132613003253936768 -0.267560988664627075 2.34658598899841309 3 16 33
0.133250996470451355 -0.267098009586334229 2.35788488388061523 4 15 33
0.13355100154876709 -0.265944004058837891 2.36319899559020996 1 12 30
0.133616000413894653 -0.26431700587272644 2.36434507369995117 1 10 27
0.133503004908561707 -0.262338995933532715 2.36234498023986816 1 10 26
0.133203998208045959 -0.260001003742218018 2.35705399513244629 3 13 25
0.133049994707107544 -0.25795099139213562 2.3543241024017334 3 13 23
0.133218005299568176 -0.256525009870529175 2.35729408264160156 0 12 21
0.133157998323440552 -0.25466001033782959 2.35623502731323242 0 11 19
0.133064001798629761 -0.252732008695602417 2.35457897186279297 1 11 20
0.132916003465652466 -0.250703990459442139 2.35196208953857422 1 11 20
0.132945001125335693 -0.249010995030403137 2.35246706008911133 0 10 19
0.132634997367858887 -0.246686995029449463 2.34698104858398438 0 10 19
0.132180005311965942 -0.244102001190185547 2.33892488479614258 0 9 18
0.132525995373725891 -0.243000000715255737 2.34505105018615723 0 8 17
0.132336005568504333 -0.240912005305290222 2.34168696403503418 0 8 17
0.132394999265670776 -0.239280000329017639 2.34274101257324219 0 7 17
0.132163003087043762 -0.237122997641563416 2.33862590789794922 1 8 18
0.131877005100250244 -0.234877005219459534 2.33356404304504395 0 7 17
0.132090002298355103 -0.233520001173019409 2.33733510971069336 0 3 13
0.131594002246856689 -0.230913996696472168 2.32856297492980957 0 2 13
0.13210199773311615 -0.230068996548652649 2.337554931640625 1 4 15
0.132128998637199402 -0.228379994630813599 2.33802890777587891 2 6 17
0.131904006004333496 -0.226256996393203735 2.33404707908630371 2 6 17
0.13201199471950531 -0.224708005785942078 2.33596611022949219 0 4 13
0.131999999284744263 -0.222950994968414307 2.3357388973236084 0 2 10
0.132029995322227478 -0.221266999840736389 2.33627510070800781 1 4 11
0.131964996457099915 -0.219423994421958923 2.33513188362121582 1 4 11
0.132496997714042664 -0.218566998839378357 2.34454703330993652 0 2 9
0.132111996412277222 -0.216195002198219299 2.33771991729736328 0 1 8
0.131959006190299988 -0.214211001992225647 2.33502888679504395 0 2 9
0.131965994834899902 -0.212487995624542236 2.33514904975891113 0 3 10
0.131975993514060974 -0.210768997669219971 2.33531904220581055 0 2 9
0.132791996002197266 -0.210326999425888062 2.34975910186767578 1 3 12
0.132806003093719482 -0.208602994680404663 2.35000491142272949 2 5 14
0.133080005645751953 -0.207284003496170044 2.35484910011291504 2 5 14
0.1332550048828125 -0.205805003643035889 2.35794496536254883 0 3 12
0.133457005023956299 -0.204364001750946045 2.36153292655944824 0 2 11
0.133911997079849243 -0.203300997614860535 2.36958408355712891 0 2 11
0.133626997470855713 -0.20111200213432312 2.36454010009765625 0 2 11
0.133765995502471924 -0.199561998248100281 2.36699295043945312 0 3 12
0.132981002330780029 -0.19664299488067627 2.35310196876525879 1 3 9
0.134118005633354187 -0.19479900598526001 2.37321996688842773 1 1 7
0.135793998837471008 -0.195449993014335632 2.40288901329040527 1 2 7
0.136028006672859192 -0.193997994065284729 2.4070289134979248 1 2 7
0.135057002305984497 -0.19083799421787262 2.38983488082885742 0 2 7
0.133555993437767029 -0.186960995197296143 2.36327290534973145 0 2 7
0.133007004857063293 -0.184444993734359741 2.35356307029724121 0 2 7
0.132462993264198303 -0.181949004530906677 2.34393095970153809 4 8 13
0.132089003920555115 -0.179700002074241638 2.33732008934020996 16 21 27
0.132346004247665405 -0.178310006856918335 2.34186506271362305 32 37 43
0.132421001791954041 -0.176669999957084656 2.34319090843200684 51 56 62
0.132648006081581116 -0.1752299964427948 2.34720802307128906 66 71 77
0.132366001605987549 -0.173117995262145996 2.34222006797790527 79 84 90
0.131424993276596069 -0.170159995555877686 2.32557797431945801 93 98 104
0.13125300407409668 -0.168210998177528381 2.32252097129821777 110 117 124
0.131514996290206909 -0.166819006204605103 2.32715892791748047 123 129 139
0.131017997860908508 -0.164467006921768188 2.3183751106262207 125 128 143
0.131136998534202576 -0.162891998887062073 2.32046699523925781 123 127 140
0.130717992782592773 -0.160653993487358093 2.31306695938110352 125 129 139
0.1312980055809021 -0.159640997648239136 2.32332491874694824 128 133 141
0.131319001317024231 -0.157940998673439026 2.323699951171875 131 137 143
0.131433993577957153 -0.156351000070571899 2.32572293281555176 130 135 140
0.131328001618385315 -0.15449899435043335 2.32384991645812988 125 130 134
0.131327003240585327 -0.152771994471549988 2.32383990287780762 126 128 134
0.131216004490852356 -0.150918006896972656 2.32187509536743164 131 131 139
0.131251007318496704 -0.149233996868133545 2.3224940299987793 125 123 132
0.131071001291275024 -0.147305995225906372 2.31930899620056152 102 100 111
0.131127998232841492 -0.145647004246711731 2.32031393051147461 71 69 79
0.131172001361846924 -0.143970996141433716 2.32109308242797852 64 63 71
0.131172001361846924 -0.142247006297111511 2.32109308242797852 84 83 91
0.131288006901741028 -0.140648007392883301 2.32314491271972656 114 114 119
0.131173998117446899 -0.13880099356174469 2.32112407684326172 137 137 141
0.13098500669002533 -0.136879995465278625 2.31778907775878906 138 138 139
0.131292000412940979 -0.135474994778633118 2.32322406768798828 132 132 132
0.130932003259658813 -0.133383005857467651 2.31684398651123047 133 132 132
0.130786001682281494 -0.131515994668006897 2.31427192687988281 135 133 132
0.130885004997253418 -0.12989400327205658 2.31600809097290039 134 130 130
0.131084993481636047 -0.128370001912117004 2.31956291198730469 138 131 133
0.1309099942445755 -0.126478001475334167 2.31646108627319336 144 135 138
0.131459996104240417 -0.125282004475593567 2.32619404792785645 136 125 130
0.131066992878913879 -0.123185001313686371 2.3192439079284668 94 82 88
0.131145000457763672 -0.121533997356891632 2.32061505317687988 38 27 32
0.131263002753257751 -0.119918003678321838 2.32270097732543945 7 0 1
0.130642995238304138 -0.117633998394012451 2.31172800064086914 8 3 2
0.130897000432014465 -0.116143003106117249 2.31622099876403809 13 10 7
0.131268993020057678 -0.114748001098632812 2.32280898094177246 10 12 6
0.130997002124786377 -0.112787999212741852 2.31799197196960449 17 20 13
0.131561994552612305 -0.111544996500015259 2.32799291610717773 32 38 31
0.131490007042884827 -0.109756000339984894 2.3267209529876709 48 53 48
0.131332993507385254 -0.107899002730846405 2.323944091796875 44 50 47
0.131271004676818848 -0.106122002005577087 2.32284092903137207 38 46 45
0.131450995802879333 -0.10453999787569046 2.32602190971374512 31 39 40
0.131438001990318298 -0.102802999317646027 2.32580304145812988 22 33 33
0.131035998463630676 -0.100766003131866455 2.31869196891784668 14 27 27
0.131227001547813416 -0.099187999963760376 2.32206201553344727 9 22 25
0.130845993757247925 -0.097180001437664032 2.31532406806945801 8 22 30
0.131288006901741028 -0.0957830026745796204 2.32314109802246094 7 23 37
0.130932003259658813 -0.0938019976019859314 2.31684398651123047 8 24 40
0.130843997001647949 -0.0920199975371360779 2.3152930736541748 7 23 39
0.130377992987632751 -0.0899780020117759705 2.30704188346862793 6 23 36
0.130462005734443665 -0.0883219987154006958 2.30853390693664551 4 21 31
0.130215004086494446 -0.086442999541759491 2.30416393280029297 3 19 27
0.129701003432273865 -0.0843970030546188354 2.29505705833435059 3 17 26
0.129728004336357117 -0.0827099978923797607 2.29555106163024902 2 14 23
0.129728004336357117 -0.081004999577999115 2.29554605484008789 1 8 19
0.129078000783920288 -0.0789019986987113953 2.28404903411865234 1 8 18
0.128912001848220825 -0.0771059989929199219 2.28110909461975098 0 6 17
0.129571005702018738 -0.0757969990372657776 2.29275608062744141 0 4 14
0.128609001636505127 -0.0735450014472007751 2.27574992179870605 0 3 13
0.128503993153572083 -0.0717950016260147095 2.27388906478881836 0 4 15
0.127902001142501831 -0.0697780027985572815 2.26322603225708008 0 4 15
0.129666998982429504 -0.0656279996037483215 2.29447102546691895 0 1 13
0.13032899796962738 -0.0642499998211860657 2.3061830997467041 0 2 13
0.130383998155593872 -0.0625640004873275757 2.30714797973632812 1 3 11
0.129284992814064026 -0.0603369995951652527 2.28770804405212402 1 1 9
0.131874993443489075 -0.0580790005624294281 2.33353805541992188 1 0 6
0.131365999579429626 -0.0561279989778995514 2.32451891899108887 1 1 7
0.13049200177192688 -0.0540399998426437378 2.30906105041503906 0 0 7
0.131596997380256653 -0.0527679994702339172 2.32861709594726562 0 0 5
0.130879998207092285 -0.0490400008857250214 2.31592106819152832 0 1 2
0.130272999405860901 -0.0436760000884532928 2.30518889427185059 0 2 1
0.130715996026992798 -0.0421059988439083099 2.31302499771118164 0 1 0
0.132321998476982117 -0.0408850014209747314 2.34144306182861328 0 0 0
0.130932003259658813 -0.0370130017399787903 2.31684398651123047 0 0 0
0.129969999194145203 -0.0350329987704753876 2.29983401298522949 0 0 0
0.131047993898391724 -0.0267120003700256348 2.31890511512756348 0 0 0
0.130383998155593872 -0.0248629990965127945 2.30714797973632812 0 0 0
0.129600003361701965 -0.0230100005865097046 2.29328608512878418 0 0 0
0.130228996276855469 -0.0214099995791912079 2.30441594123840332 0 0 0
0.128701001405715942 -0.0194669999182224274 2.27736592292785645 0 0 0
0.129251003265380859 -0.017851000651717186 2.2871088981628418 0 0 0
0.126847997307777405 -0.00918299984186887741 2.24458408355712891 0 0 0
0.126488000154495239 -0.00749500002712011337 2.23821091651916504 0 0 0
0.126544997096061707 -0.00583499995991587639 2.23921108245849609 0 0 0
0.126544997096061707 -0.00417200010269880295 2.23921108245849609 0 0 0
0.127838999032974243 -0.00253399997018277645 2.26210904121398926 0 0 0
0.127974003553390503 -0.00085499999113380909 2.26450395584106445 0 0 0
0.128189995884895325 0.000828000018373131752 2.26832008361816406 0 2 0
0.128469005227088928 0.00251900008879601955 2.27327203750610352 0 2 0
0.128276005387306213 0.00420100009068846703 2.26984596252441406 0 2 1
0.129054993391036987 0.0262770000845193863 2.28364205360412598 0 1 6
0.129673004150390625 0.0281070005148649216 2.29456901550292969 0 1 6
0.121391996741294861 0.0326940007507801056 2.1480410099029541 0 1 6
0.121826000511646271 0.0376150012016296387 2.15570807456970215 0 1 6
0.121662996709346771 0.0391639992594718933 2.15282607078552246 0 1 6
0.121056996285915375 0.0405599996447563171 2.14210104942321777 0 1 6
0.121261999011039734 0.0422220006585121155 2.14574193954467773 0 1 6
0.119290001690387726 0.0446709990501403809 2.11085009574890137 0 1 6
0.118340000510215759 0.045871000736951828 2.09403896331787109 0 1 6
0.12879200279712677 0.0516149997711181641 2.27898406982421875 0 1 6
0.1290149986743927 0.0533999986946582794 2.28292298316955566 0 1 6
0.129168003797531128 0.0551609992980957031 2.28562688827514648 0 1 6
0.128869995474815369 0.0567280016839504242 2.28035497665405273 0 1 6
0.128457993268966675 0.058233998715877533 2.27306294441223145 0 1 6
0.125860005617141724 0.0603649988770484924 2.22709298133850098 0 1 6
0.122630998492240906 0.0620400011539459229 2.16996288299560547 0 1 6
0.122827000916004181 0.0637539997696876526 2.1734321117401123 0 0 6
0.119244001805782318 0.080701000988483429 2.11002588272094727 0 3 7
0.119948998093605042 0.0827549993991851807 2.12250089645385742 0 3 7
0.119441002607345581 0.085543997585773468 2.11352300643920898 0 3 10
0.119079999625682831 0.0868510007858276367 2.10712695121765137 0 2 11
0.120145000517368317 0.104997001588344574 2.12596297264099121 0 1 4
0.116751000285148621 0.105099998414516449 2.06590604782104492 0 1 4
0.12560899555683136 0.127932995557785034 2.22266101837158203 0 1 4
0.125628992915153503 0.129604995250701904 2.22301793098449707 0 1 4
0.125415995717048645 0.147516995668411255 2.21924400329589844 0 0 0
0.125388994812965393 0.149132996797561646 2.2187659740447998 0 0 0
0.125467002391815186 0.150874003767967224 2.22013592720031738 0 0 0
0.125256001949310303 0.155560001730918884 2.21640992164611816 0 0 0
0.125220999121665955 0.157162994146347046 2.21580004692077637 0 0 0
0.1255979984998703 0.159287005662918091 2.22247004508972168 0 0 0
0.125502005219459534 0.160814002156257629 2.22076702117919922 0 0 0
0.125701993703842163 0.162723004817962646 2.2243049144744873 0 0 0
0.113450996577739716 0.158792003989219666 2.00751304626464844 0 0 0
0.114487998187541962 0.187328994274139404 2.02586698532104492 0 0 0
0.120158001780509949 0.240826994180679321 2.12620306015014648 0 0 0
0.119815997779369354 0.241715997457504272 2.12015104293823242 0 0 0
0.120274998247623444 0.244223996996879578 2.12827801704406738 0 0 0
0.142153993248939514 -0.338416010141372681 2.48279500007629395 138 136 151
0.139504000544548035 -0.328487992286682129 2.43651390075683594 80 84 103
0.138244003057479858 -0.323727011680603027 2.4145050048828125 56 63 83
0.138017997145652771 -0.321406006813049316 2.41054606437683105 44 55 73
0.138007000088691711 -0.319590985774993896 2.41035795211791992 42 55 72
0.136904999613761902 -0.315261989831924438 2.39110708236694336 39 50 71
0.136678993701934814 -0.312970012426376343 2.38717198371887207 34 45 70
0.137033000588417053 -0.312002986669540405 2.39335489273071289 37 49 74
0.13744199275970459 -0.311150014400482178 2.40048789978027344 37 51 75
0.137204006314277649 -0.308833003044128418 2.39634299278259277 35 52 74
0.137327998876571655 -0.307330012321472168 2.39850592613220215 33 52 74
0.137097001075744629 -0.305034011602401733 2.39446806907653809 32 53 75
0.136896997690200806 -0.302812010049819946 2.39096999168395996 35 57 80
0.136733993887901306 -0.300678014755249023 2.38811993598937988 36 58 82
0.136444002389907837 -0.298271000385284424 2.38306593894958496 33 54 82
0.136575996875762939 -0.296786010265350342 2.38535809516906738 34 54 84
0.136701002717018127 -0.29528498649597168 2.38754701614379883 32 52 82
0.136702999472618103 -0.293516993522644043 2.38758492469787598 26 46 76
0.136634007096290588 -0.291595011949539185 2.38637208938598633 20 41 67
0.136302992701530457 -0.289121001958847046 2.38059592247009277 15 37 61
0.136132001876831055 -0.28699299693107605 2.37761592864990234 14 36 58
0.136067003011703491 -0.285091012716293335 2.37647891044616699 15 36 56
0.135720998048782349 -0.282604992389678955 2.37044095993041992 13 29 49
0.135471001267433167 -0.280326008796691895 2.36606192588806152 13 27 47
0.135230004787445068 -0.278073012828826904 2.36185598373413086 10 26 45
0.135135993361473083 -0.276127010583877563 2.36021709442138672 8 24 43
0.13494400680065155 -0.273984998464584351 2.35686588287353516 6 23 39
0.134878993034362793 -0.272103011608123779 2.35573506355285645 4 20 36
0.135124996304512024 -0.270846009254455566 2.36002707481384277 5 18 35
0.135249003767967224 -0.269340008497238159 2.36219501495361328 4 17 34
0.135419994592666626 -0.26792299747467041 2.36517190933227539 4 15 33
0.135943993926048279 -0.267197996377944946 2.37433505058288574 1 11 30
0.136129006743431091 -0.26579400897026062 2.37755799293518066 1 9 27
0.135640993714332581 -0.263083010911941528 2.36904501914978027 1 10 25
0.135471001267433167 -0.260993987321853638 2.36606192588806152 2 12 24
0.135258004069328308 -0.258828997611999512 2.36234498023986816 3 12 22
0.135176002979278564 -0.256920009851455688 2.36091804504394531 0 11 20
0.135258004069328308 -0.25532001256942749 2.36234498023986816 0 10 18
0.135222002863883972 -0.253499001264572144 2.36172604560852051 0 10 18
0.134845003485679626 -0.251042991876602173 2.35513806343078613 0 10 18
0.1344279944896698 -0.248521998524665833 2.34785294532775879 0 9 18
0.134669005870819092 -0.2472199946641922 2.35205602645874023 0 9 17
0.133928999304771423 -0.244123995304107666 2.3391270637512207 0 8 17
0.133660003542900085 -0.241899996995925903 2.33443808555603027 0 7 16
0.13356800377368927 -0.240000993013381958 2.33283209800720215 0 6 16
0.13370099663734436 -0.238505005836486816 2.33514499664306641 0 6 16
0.133980005979537964 -0.237265005707740784 2.34002304077148438 0 7 17
0.133485004305839539 -0.234657004475593567 2.33138394355773926 0 5 16
0.133322998881340027 -0.232642993330955505 2.32855796813964844 0 3 13
0.133394002914428711 -0.231034994125366211 2.3297879695892334 0 2 13
0.133626997470855713 -0.22970600426197052 2.33386111259460449 0 4 15
0.133608996868133545 -0.227942004799842834 2.33354806900024414 2 6 17
0.133747994899749756 -0.226444005966186523 2.33597493171691895 1 5 16
0.133573994040489197 -0.224416002631187439 2.33293700218200684 0 3 13
0.13358500599861145 -0.222701996564865112 2.33312702178955078 0 2 10
0.133605003356933594 -0.221000999212265015 2.33347010612487793 0 3 10
0.133854001760482788 -0.219677001237869263 2.33782505989074707 0 3 10
0.133977994322776794 -0.218142002820968628 2.33998799324035645 0 2 9
0.133839994668960571 -0.21618199348449707 2.33757996559143066 0 1 8
0.133761003613471985 -0.214319005608558655 2.33620095252990723 0 2 10
0.133863002061843872 -0.212745994329452515 2.33798909187316895 0 3 10
0.133806005120277405 -0.210918992757797241 2.33698511123657227 0 2 9
0.134130001068115234 -0.209689006209373474 2.34263992309570312 0 3 11
0.134189993143081665 -0.208042994141578674 2.34369897842407227 0 3 12
0.134246006608009338 -0.206387996673583984 2.34467196464538574 0 2 11
0.134554997086524963 -0.205118000507354736 2.35007691383361816 0 1 9
0.134584993124008179 -0.203418001532554626 2.35059404373168945 0 2 10
0.134763002395629883 -0.201939001679420471 2.35370802879333496 0 3 11
0.13459700345993042 -0.199943006038665771 2.35080289840698242 0 3 12
0.134760007262229919 -0.198437005281448364 2.35364389419555664 0 4 13
0.134544000029563904 -0.196373000741004944 2.34987211227416992 1 5 13
0.134018003940582275 -0.193867996335029602 2.34069490432739258 1 3 9
0.134834006428718567 -0.193298995494842529 2.35494494438171387 1 2 7
0.137088999152183533 -0.192974001169204712 2.39432001113891602 0 2 7
0.135447993874549866 -0.188906997442245483 2.36566305160522461 0 2 7
0.135379001498222351 -0.187056005001068115 2.36446809768676758 0 2 7
0.134321004152297974 -0.183851003646850586 2.34598898887634277 0 3 8
0.133929997682571411 -0.181576997041702271 2.33914494514465332 6 10 15
0.133619993925094604 -0.17942500114440918 2.33374500274658203 18 23 29
0.133920997381210327 -0.178092002868652344 2.33899998664855957 31 36 42
0.133682996034622192 -0.176039993762969971 2.33483195304870605 48 53 59
0.133570000529289246 -0.174160003662109375 2.33287405967712402 64 69 75
0.133212000131607056 -0.17196500301361084 2.32662105560302734 76 81 87
0.132798999547958374 -0.169707998633384705 2.31939697265625 92 98 104
0.133273005485534668 -0.168585002422332764 2.32767796516418457 112 119 125
0.132872000336647034 -0.166354000568389893 2.32067489624023438 127 133 143
0.132894992828369141 -0.164658993482589722 2.32107901573181152 133 136 151
0.132594004273414612 -0.162564992904663086 2.31581401824951172 131 134 148
0.132652997970581055 -0.160916998982429504 2.31684398651123047 131 135 145
0.132512003183364868 -0.159026995301246643 2.31439208984375 133 138 146
0.132652997970581055 -0.157474994659423828 2.31684398651123047 134 141 146
0.132642000913619995 -0.15574200451374054 2.31666398048400879 134 141 145
0.132577002048492432 -0.153944998979568481 2.31551504135131836 132 136 141
0.132565006613731384 -0.152211993932723999 2.31532096862792969 126 130 135
0.132669001817703247 -0.150609999895095825 2.31712603569030762 123 124 132
0.132856994867324829 -0.149100005626678467 2.3204200267791748 122 121 130
0.132687002420425415 -0.147187992930412292 2.31744599342346191 112 110 121
0.132561996579170227 -0.145328998565673828 2.31525397300720215 98 96 106
0.132572993636131287 -0.143620997667312622 2.31544995307922363 90 89 97
0.132740005850791931 -0.142081007361412048 2.3183751106262207 98 98 105
0.132613003253936768 -0.140223994851112366 2.31614899635314941 117 118 123
0.132529005408287048 -0.138416007161140442 2.31469106674194336 132 133 136
0.1324940025806427 -0.136660993099212646 2.31407690048217773 134 133 135
0.132793992757797241 -0.135247007012367249 2.31931209564208984 130 129 129
0.13268299400806427 -0.133413001894950867 2.31737899780273438 133 131 130
0.132547006011009216 -0.131557002663612366 2.31499910354614258 134 132 130
0.132652997970581055 -0.129941001534461975 2.31684398651123047 135 131 130
0.132754996418952942 -0.128318995237350464 2.31862998008728027 141 135 135
0.133074000477790833 -0.126901000738143921 2.3242030143737793 143 134 137
0.132934004068374634 -0.125043004751205444 2.32176303863525391 124 114 118
0.133046001195907593 -0.123421996831893921 2.32371306419372559 73 62 67
0.132798001170158386 -0.121468998491764069 2.31937909126281738 25 14 19
0.132163003087043762 -0.119174003601074219 2.30829691886901855 10 1 4
0.132390007376670837 -0.117660999298095703 2.31225490570068359 14 9 8
0.132423996925354004 -0.115973003208637238 2.31284999847412109 20 18 15
0.132892996072769165 -0.114660002291202545 2.32103490829467773 19 21 15
0.132936999201774597 -0.112974002957344055 2.32181310653686523 28 32 25
0.133186995983123779 -0.111458003520965576 2.32617497444152832 40 45 38
0.133239999413490295 -0.109774000942707062 2.32710599899291992 50 55 50
0.132872000336647034 -0.107747003436088562 2.32067489624023438 46 52 48
0.133136004209518433 -0.106233999133110046 2.32528901100158691 43 50 49
0.133028998970985413 -0.104423001408576965 2.3234250545501709 41 50 49
0.132917001843452454 -0.102609999477863312 2.32145500183105469 35 45 45
0.132429003715515137 -0.100515998899936676 2.31294608116149902 21 33 33
0.132929995656013489 -0.0991720035672187805 2.32168197631835938 6 18 22
0.132464006543159485 -0.0971060022711753845 2.3135530948638916 2 14 23
0.13261200487613678 -0.095494002103805542 2.31613898277282715 7 22 36
0.132780998945236206 -0.093892998993396759 2.3190770149230957 7 23 39
0.132176995277404785 -0.09175100177526474 2.30852794647216797 7 23 38
0.132722005248069763 -0.0904079973697662354 2.31806206703186035 5 21 34
0.13187900185585022 -0.0881220027804374695 2.30332398414611816 2 19 28
0.13165399432182312 -0.0862649977207183838 2.29940509796142578 1 18 26
0.131314992904663086 -0.0843390002846717834 2.29348397254943848 2 18 26
0.130953997373580933 -0.0824080035090446472 2.28717494010925293 4 17 26
0.13068699836730957 -0.0805450007319450378 2.2825160026550293 4 12 24
0.130292996764183044 -0.0786119997501373291 2.27562999725341797 2 9 21
0.130881994962692261 -0.0772690027952194214 2.28591609001159668 0 5 17
0.131174996495246887 -0.0757400020956993103 2.29102897644042969 0 3 15
0.130522996187210083 -0.073670998215675354 2.27965092658996582 0 3 14
0.129788994789123535 -0.0698890015482902527 2.26683211326599121 0 2 13
0.131395995616912842 -0.0656400024890899658 2.29489493370056152 0 1 13
0.131686002016067505 -0.0640769973397254944 2.29996800422668457 1 1 13
0.131845995783805847 -0.0624440014362335205 2.30275511741638184 1 1 12
0.130530998110771179 -0.0601279996335506439 2.27979397773742676 0 0 9
0.133561000227928162 -0.0597909986972808838 2.33270096778869629 0 0 7
0.132455006241798401 -0.0575780011713504791 2.31339406967163086 1 0 6
0.132249996066093445 -0.0557730011641979218 2.30981898307800293 0 0 6
0.131933003664016724 -0.0539279989898204803 2.30426907539367676 0 0 7
0.13311399519443512 -0.0509570017457008362 2.32490396499633789 0 1 5
0.132180005311965942 -0.048884999006986618 2.30859708786010742 0 1 4
0.131789997220039368 -0.0419009998440742493 2.30176997184753418 0 1 0
0.133902996778488159 -0.0408359989523887634 2.33867311477661133 0 0 0
0.131980001926422119 -0.0368250012397766113 2.30509090423583984 0 0 0
0.131029993295669556 -0.0348609983921051025 2.28850698471069336 0 0 0
0.13239799439907074 -0.026636999100446701 2.31239008903503418 0 0 0
0.131822004914283752 -0.0248109996318817139 2.30233097076416016 0 0 0
0.131920993328094482 -0.0231180004775524139 2.30406308174133301 0 0 0
0.127384006977081299 -0.00910300016403198242 2.22482490539550781 0 0 0
0.127238005399703979 -0.00744199985638260841 2.22227001190185547 0 0 0
0.128112003207206726 -0.00583099992945790291 2.23754501342773438 0 0 0
0.127823993563652039 -0.00415899977087974548 2.23251199722290039 0 0 0
0.130006000399589539 -0.00085700000636279583 2.27061104774475098 0 0 0
0.128885000944137573 0.000821999972686171532 2.25104308128356934 0 2 0
0.130087003111839294 0.00251700007356703281 2.27202606201171875 0 2 0
0.130609005689620972 0.00422200001776218414 2.28114509582519531 0 2 1
0.130427002906799316 0.0262119993567466736 2.27796292304992676 0 1 6
0.130462005734443665 0.0279120001941919327 2.2785789966583252 0 1 6
0.130540996789932251 0.0296219997107982635 2.27995610237121582 0 1 6
0.123948000371456146 0.0377740003168582916 2.16481304168701172 0 1 6
0.123516999185085297 0.0392449982464313507 2.1572868824005127 0 1 6
0.122022002935409546 0.0403530001640319824 2.1311790943145752 0 1 6
0.121886998414993286 0.0418890006840229034 2.12881588935852051 0 1 6
0.129656001925468445 0.0512869991362094879 2.26450395584106445 0 1 6
0.129499003291130066 0.0529050007462501526 2.26176691055297852 0 1 6
0.129656001925468445 0.0546509996056556702 2.26450395584106445 0 1 6
0.129253000020980835 0.0561579987406730652 2.25746989250183105 0 1 6
0.129170000553131104 0.0577979981899261475 2.25601005554199219 0 1 6
0.123383998870849609 0.0616119988262653351 2.1549680233001709 0 1 6
0.123429000377655029 0.0632349997758865356 2.15574002265930176 0 1 6
0.118427000939846039 0.0729629993438720703 2.06839299201965332 0 1 7
0.120591998100280762 0.0789899975061416626 2.10620594024658203 0 2 7
0.120869003236293793 0.0807399973273277283 2.1110389232635498 0 2 7
0.121146000921726227 0.0824960023164749146 2.11587691307067871 0 2 7
0.12129800021648407 0.0841739997267723083 2.11853289604187012 0 3 8
0.120392002165317535 0.0851060003042221069 2.10270094871520996 0 2 10
0.121367998421192169 0.101540997624397278 2.11975407600402832 0 1 3
0.12127300351858139 0.103035002946853638 2.11808490753173828 0 1 3
0.125668004155158997 0.124701999127864838 2.19485092163085938 0 1 3
0.125686004757881165 0.126350000500679016 2.19516110420227051 0 1 3
0.125857993960380554 0.128156006336212158 2.19817399978637695 0 1 3
0.126007005572319031 0.146289005875587463 2.2007749080657959 0 0 0
0.125972002744674683 0.147881999611854553 2.20015597343444824 0 0 0
0.125884994864463806 0.149413004517555237 2.19863796234130859 0 0 0
0.12594999372959137 0.151124000549316406 2.19976997375488281 0 0 0
0.125587001442909241 0.153947994112968445 2.19343709945678711 0 0 0
0.125764995813369751 0.155797004699707031 2.19654393196105957 0 0 0
0.125975996255874634 0.157692998647689819 2.20022988319396973 0 0 0
0.125952005386352539 0.159297004342079163 2.1998140811920166 0 0 0
0.125835999846458435 0.160782992839813232 2.19778704643249512 0 0 0
0.120811000466346741 0.240562006831169128 2.11002588272094727 0 0 0
0.136518001556396484 -0.324330985546112061 2.35381007194519043 159 156 167
0.14432099461555481 -0.339174002408981323 2.4883570671081543 131 130 146
0.140319004654884338 -0.326175004243850708 2.41936206817626953 68 73 94
0.139650002121925354 -0.322829991579055786 2.40781402587890625 54 62 84
0.139724001288414001 -0.31942400336265564 2.40910100936889648 55 69 86
0.13831000030040741 -0.314419001340866089 2.38471293449401855 43 56 77
0.138111993670463562 -0.312200009822845459 2.38129711151123047 31 42 68
0.138463005423545837 -0.311219990253448486 2.38735008239746094 34 46 71
0.138689994812011719 -0.309955000877380371 2.39126896858215332 35 49 73
0.139140993356704712 -0.309181004762649536 2.39904499053955078 34 51 74
0.138557001948356628 -0.306107997894287109 2.38896989822387695 34 53 75
0.138794004917144775 -0.304854005575180054 2.39305710792541504 33 55 76
0.139357000589370728 -0.304306000471115112 2.40276598930358887 35 57 80
0.138339996337890625 -0.300314992666244507 2.3852379322052002 36 57 82
0.138695999979972839 -0.299311012029647827 2.39137697219848633 36 57 84
0.138274997472763062 -0.296631008386611938 2.3841099739074707 38 59 88
0.138225004076957703 -0.294755011796951294 2.38325691223144531 37 58 89
0.138466998934745789 -0.293496996164321899 2.38742399215698242 30 51 81
0.138466998934745789 -0.291723012924194336 2.38741707801818848 21 42 69
0.138341993093490601 -0.289689004421234131 2.38527107238769531 14 37 61
0.138154998421669006 -0.287526994943618774 2.38204193115234375 14 36 59
0.138097003102302551 -0.285638988018035889 2.38104891777038574 16 37 59
0.137021005153656006 -0.281657010316848755 2.36248302459716797 13 29 50
0.137356996536254883 -0.280589014291763306 2.36827898025512695 15 27 49
0.137553006410598755 -0.279228001832962036 2.37165999412536621 11 26 45
0.136963993310928345 -0.276277989149093628 2.36150097846984863 10 25 44
0.136589005589485168 -0.273773014545440674 2.3550419807434082 8 24 40
0.136743992567062378 -0.27233201265335083 2.35771393775939941 6 22 38
0.136911004781723022 -0.270909994840621948 2.36058592796325684 6 19 36
0.137114003300666809 -0.26955801248550415 2.36410188674926758 6 19 36
0.137165993452072144 -0.267903000116348267 2.36499905586242676 4 15 33
0.137572005391120911 -0.26693299412727356 2.37198591232299805 3 11 30
0.137655004858970642 -0.265331000089645386 2.37341499328613281 2 9 26
0.137594997882843018 -0.263453006744384766 2.37238001823425293 2 9 24
0.137165993452072144 -0.260877013206481934 2.36499905586242676 2 10 23
0.137622997164726257 -0.259981989860534668 2.37286806106567383 2 11 21
0.137439996004104614 -0.257876992225646973 2.36971306800842285 0 10 18
0.13701300323009491 -0.25532001256942749 2.36234498023986816 0 9 15
0.137033998966217041 -0.253605008125305176 2.3627159595489502 0 8 15
0.136612996459007263 -0.251076996326446533 2.35545897483825684 0 8 15
0.13632500171661377 -0.248800992965698242 2.35049009323120117 0 8 15
0.136114001274108887 -0.246674001216888428 2.34685802459716797 0 7 14
0.135783001780509949 -0.244334995746612549 2.34114789962768555 0 6 13
0.135214999318122864 -0.241579994559288025 2.33135104179382324 0 5 13
0.134822994470596313 -0.239153996109962463 2.32459807395935059 0 4 13
0.135041996836662292 -0.237812995910644531 2.32837605476379395 0 4 13
0.135408997535705566 -0.236725002527236938 2.33470511436462402 0 4 15
