ply
format ascii 1.0
element vertex 670
property float x
property float y
property float z
property uchar red
property uchar green
property uchar blue
end_header
0.32020801305770874 -0.0920540019869804382 2.23270606994628906 1 10 17
0.320531994104385376 -0.0888269990682601929 2.23496198654174805 0 11 17
0.319777011871337891 -0.0869619995355606079 2.22970199584960938 0 11 17
0.3192099928855896 -0.0851539969444274902 2.22574591636657715 0 10 17
0.320327997207641602 -0.0837939977645874023 2.23354101181030273 0 9 17
0.317173004150390625 -0.0813260003924369812 2.21154594421386719 0 6 17
0.317166000604629517 -0.079681001603603363 2.21149802207946777 0 5 17
0.317364990711212158 -0.0780880004167556763 2.21288299560546875 0 5 17
0.316852986812591553 -0.0763209983706474304 2.20931506156921387 0 5 17
0.316693007946014404 -0.0746420025825500488 2.20819401741027832 0 6 16
0.316294014453887939 -0.0729100033640861511 2.2054131031036377 0 6 16
0.315925002098083496 -0.0711880028247833252 2.20284008979797363 0 6 14
0.315811008214950562 -0.0695270001888275146 2.20204496383666992 0 6 14
0.317375004291534424 -0.0682279989123344421 2.21294999122619629 0 6 14
0.317093014717102051 -0.066524997353553772 2.21098804473876953 0 6 14
0.316002011299133301 -0.0646589994430541992 2.20338201522827148 0 6 12
0.312983989715576172 -0.0608000010251998901 2.18233609199523926 0 6 12
0.315367013216018677 -0.0563630014657974243 2.19894790649414062 0 6 14
0.313951998949050903 -0.054483998566865921 2.18908810615539551 0 6 15
0.316076010465621948 -0.0515789985656738281 2.20389294624328613 0 6 16
0.293476998805999756 -0.0342109985649585724 2.04632091522216797 0 6 16
0.341991007328033447 -0.00798499956727027893 2.38458895683288574 0 3 10
0.286841005086898804 0.0215290002524852753 2.00005102157592773 0 2 9
0.293094009160995483 0.0842339992523193359 2.04364705085754395 0 1 3
0.293112993240356445 0.0857580006122589111 2.04378509521484375 0 1 2
0.361519992351531982 0.253686994314193726 2.52076196670532227 133 150 128
0.321316003799438477 -0.11176300048828125 2.22888898849487305 17 29 34
0.32292899489402771 -0.108997002243995667 2.24007391929626465 8 20 30
0.323334991931915283 -0.107468001544475555 2.24289488792419434 5 18 28
0.319646000862121582 -0.093065999448299408 2.21730303764343262 2 13 19
0.321276992559432983 -0.0918859988451004028 2.22861909866333008 1 12 18
0.321626991033554077 -0.090328998863697052 2.2310481071472168 1 11 17
0.32109600305557251 -0.0885249972343444824 2.22736501693725586 0 11 17
0.320122987031936646 -0.0866070017218589783 2.22060894966125488 0 10 17
0.319485008716583252 -0.0847890004515647888 2.21618509292602539 0 9 17
0.320333987474441528 -0.0833629965782165527 2.22207498550415039 0 8 17
0.319671005010604858 -0.0815439969301223755 2.21747708320617676 0 6 18
0.317988008260726929 -0.0794759988784790039 2.20579910278320312 0 6 18
0.318812012672424316 -0.0780389979481697083 2.21151590347290039 0 7 18
0.318049013614654541 -0.0762140005826950073 2.2062230110168457 0 7 18
0.318262010812759399 -0.0746250003576278687 2.2077031135559082 0 8 17
0.318145006895065308 -0.0729589983820915222 2.20689296722412109 0 8 17
0.317335993051528931 -0.0711380019783973694 2.20127701759338379 0 8 15
0.316143006086349487 -0.0692420005798339844 2.19300603866577148 0 8 15
0.315874010324478149 -0.0675550028681755066 2.19113898277282715 0 7 15
0.319438010454177856 -0.0666719973087310791 2.21586298942565918 0 7 14
0.316962987184524536 -0.0645219981670379639 2.19869089126586914 0 7 13
0.316653013229370117 -0.0546699985861778259 2.19654393196105957 0 8 16
0.316816002130508423 -0.0514330007135868073 2.19767093658447266 0 8 17
0.302917987108230591 -0.0195220001041889191 2.10126709938049316 0 6 14
0.341224998235702515 -0.00792600028216838837 2.36699295043945312 0 3 9
0.295765012502670288 -0.00229800003580749035 2.05164504051208496 0 2 6
0.296961009502410889 -0.00077799998689442873 2.05994009971618652 0 1 5
0.30982699990272522 0.0375009998679161072 2.14919304847717285 0 4 10
0.309846013784408569 0.0390999987721443176 2.14932107925415039 0 4 10
0.310391008853912354 0.0407680012285709381 2.15310192108154297 0 4 10
0.294815003871917725 0.0858109965920448303 2.04505610466003418 0 1 2
0.321929007768630981 -0.113053001463413239 2.2216949462890625 11 20 25
0.322616994380950928 -0.10998699814081192 2.2264409065246582 14 27 34
0.322717010974884033 -0.108367003500461578 2.22712898254394531 8 20 31
0.323612987995147705 -0.107009001076221466 2.23331499099731445 6 18 29
0.320280998945236206 -0.0927729979157447815 2.21032094955444336 1 14 20
0.322176992893218994 -0.0916709974408149719 2.22340798377990723 1 13 19
0.321651995182037354 -0.0898720026016235352 2.21977901458740234 1 12 18
0.321644991636276245 -0.0882219970226287842 2.21973109245300293 0 11 17
0.320293992757797241 -0.0845680013298988342 2.21040797233581543 0 9 16
0.319810986518859863 -0.0828009992837905884 2.20707607269287109 0 8 16
0.321108996868133545 -0.0814910009503364563 2.21603202819824219 0 6 17
0.319025009870529175 -0.0793270021677017212 2.20165395736694336 0 6 18
0.31919899582862854 -0.0777340009808540344 2.20285606384277344 0 7 18
0.318926006555557251 -0.0760319977998733521 2.20097088813781738 0 7 18
0.318659991025924683 -0.0743359997868537903 2.19913506507873535 0 8 17
0.318989992141723633 -0.0727770030498504639 2.20141100883483887 0 8 16
0.319279998540878296 -0.071207001805305481 2.20341396331787109 0 8 15
0.318392008543014526 -0.0693769976496696472 2.19728493690490723 0 8 15
0.318363010883331299 -0.0677390024065971375 2.19708395004272461 0 7 14
0.31891399621963501 -0.0662209987640380859 2.20088410377502441 0 7 13
0.31875300407409668 -0.0645539984107017517 2.19977807998657227 0 6 12
0.318639010190963745 -0.054730001837015152 2.19898796081542969 0 8 16
0.319025009870529175 -0.0531620010733604431 2.20165395736694336 0 8 17
0.318841993808746338 -0.0498620010912418365 2.20038700103759766 0 8 17
0.322627007961273193 -0.0487999990582466125 2.22651195526123047 0 8 17
0.302648991346359253 -0.0194049999117851257 2.08863592147827148 0 8 15
0.302504986524581909 -0.00543999997898936272 2.0876469612121582 0 3 8
0.29877200722694397 -0.00230999989435076714 2.06188201904296875 0 1 7
0.298810005187988281 -0.0007789999945089221 2.06214690208435059 0 1 6
0.297298997640609741 0.00379700004123151302 2.05171489715576172 0 0 7
0.296128004789352417 0.00529999984428286552 2.04363489151000977 0 0 7
0.305804014205932617 0.0383919999003410339 2.11040902137756348 0 3 10
0.302056014537811279 0.0890169963240623474 2.08454608917236328 0 2 1
0.315939009189605713 0.125497996807098389 2.18035793304443359 1 1 9
0.317160993814468384 0.127608999609947205 2.18878889083862305 0 1 9
0.353745996952056885 0.247500002384185791 2.44126796722412109 135 149 127
0.354853987693786621 0.250095009803771973 2.44891500473022461 135 150 127
0.321514010429382324 -0.115610003471374512 2.20750999450683594 70 70 77
0.320196986198425293 -0.113504000008106232 2.19847202301025391 12 14 21
0.321345001459121704 -0.112272001802921295 2.20635294914245605 6 12 16
0.322019994258880615 -0.0928009971976280212 2.21098804473876953 2 15 21
0.323487013578414917 -0.0915739983320236206 2.22106003761291504 1 14 20
0.32315400242805481 -0.0865359976887702942 2.21877694129943848 0 10 16
0.319005012512207031 -0.0837979987263679504 2.19028401374816895 0 9 16
0.321067988872528076 -0.0827020034193992615 2.20445108413696289 0 8 17
0.32179298996925354 -0.0812480002641677856 2.20942807197570801 0 7 18
0.322075009346008301 -0.0796770006418228149 2.21136808395385742 0 7 18
0.322053998708724976 -0.0780289992690086365 2.21122097969055176 0 7 18
0.320188999176025391 -0.0759439989924430847 2.19841289520263672 0 7 18
0.319222986698150635 -0.0740870013833045959 2.19178009033203125 0 8 17
0.319819986820220947 -0.0725950002670288086 2.19588088989257812 0 8 17
0.31998598575592041 -0.0710000023245811462 2.1970210075378418 0 8 15
0.319685995578765869 -0.0693029984831809998 2.19496297836303711 0 8 15
0.318383008241653442 -0.067396998405456543 2.18601894378662109 0 7 14
0.318376004695892334 -0.0657719969749450684 2.18597102165222168 0 6 13
0.318810999393463135 -0.0642360001802444458 2.18895506858825684 0 6 12
0.317800998687744141 -0.0624120011925697327 2.18201899528503418 0 6 12
0.319781005382537842 -0.0513850003480911255 2.19561409950256348 0 8 17
0.318309009075164795 -0.0495250001549720764 2.18550801277160645 0 8 17
0.320686012506484985 -0.048259001225233078 2.20182991027832031 0 8 17
0.297652006149291992 -0.0387209989130496979 2.04367399215698242 0 8 17
0.297562986612319946 -0.0371919982135295868 2.04306602478027344 0 8 17
0.297583013772964478 -0.035677000880241394 2.04320311546325684 0 8 17
0.297385990619659424 -0.0341369993984699249 2.04185199737548828 0 8 17
0.297883003950119019 -0.0281169991940259933 2.04525995254516602 0 8 17
0.298114985227584839 -0.0022929999977350235 2.04685592651367188 0 1 8
0.298359990119934082 -0.000773000007029622793 2.0485389232635498 0 1 8
0.295774996280670166 0.00375799997709691525 2.03078889846801758 0 0 8
0.295242995023727417 0.00525700021535158157 2.02713489532470703 0 0 8
0.294789999723434448 0.00675299996510148048 2.02402710914611816 0 0 8
0.363546013832092285 0.251206010580062866 2.49610304832458496 132 149 127
0.357894003391265869 0.250950992107391357 2.45729804039001465 135 150 127
0.42992699146270752 0.308037012815475464 2.95187902450561523 137 151 126
0.321873009204864502 -0.11515200138092041 2.19876194000244141 122 119 124
0.320174992084503174 -0.111295998096466064 2.18716692924499512 1 6 10
0.323531985282897949 -0.0960469990968704224 2.21009492874145508 3 16 24
0.322106987237930298 -0.092354997992515564 2.20036506652832031 3 16 22
0.32313200831413269 -0.0910089984536170959 2.20736598968505859 3 15 21
0.32082599401473999 -0.0887319967150688171 2.19161391258239746 1 13 19
0.320798009634017944 -0.0854690000414848328 2.19142389297485352 0 10 16
0.320340007543563843 -0.0837209969758987427 2.18829107284545898 0 8 15
0.320428013801574707 -0.0821190029382705688 2.18889689445495605 0 8 16
0.322367995977401733 -0.0809800028800964355 2.2021479606628418 0 8 18
0.322344988584518433 -0.0793389976024627686 2.20198702812194824 0 8 18
0.323116004467010498 -0.0778890028595924377 2.20725297927856445 0 8 18
0.320194005966186523 -0.0755600035190582275 2.18729591369628906 0 8 18
0.320351004600524902 -0.0739720016717910767 2.18837094306945801 0 9 17
0.319720000028610229 -0.072204001247882843 2.18405890464782715 0 9 16
0.319790005683898926 -0.0705970004200935364 2.18453788757324219 0 9 16
0.319391012191772461 -0.0688880011439323425 2.1818079948425293 0 9 15
0.319595009088516235 -0.0673109963536262512 2.18320298194885254 0 8 14
0.320964992046356201 -0.0659710019826889038 2.19256496429443359 0 7 14
0.320089012384414673 -0.0641660019755363464 2.18657708168029785 0 6 12
0.319400012493133545 -0.0624080002307891846 2.1818699836730957 0 7 12
0.31983301043510437 -0.0608690008521080017 2.18482804298400879 0 6 12
0.318681985139846802 -0.054182000458240509 2.17696499824523926 0 9 17
0.319137006998062134 -0.0526399984955787659 2.18007588386535645 0 9 17
0.319660991430282593 -0.0511050000786781311 2.18365693092346191 0 9 17
0.326416999101638794 -0.0455599986016750336 2.22980308532714844 0 9 17
0.296501010656356812 -0.03837599977850914 2.02544307708740234 0 9 18
0.297071009874343872 -0.0369420014321804047 2.02933907508850098 0 9 18
0.296914011240005493 -0.0354159995913505554 2.02826595306396484 0 9 18
0.30471000075340271 -0.020885000005364418 2.08152198791503906 0 9 16
0.304971992969512939 -0.0193559993058443069 2.08330893516540527 0 9 16
0.30315399169921875 -0.00693499995395541191 2.0708930492401123 0 3 8
0.303564995527267456 -0.00386300007812678814 2.07370090484619141 0 2 9
0.302341997623443604 -0.00231399992480874062 2.06534409523010254 0 1 10
0.296063005924224854 0.00374300009571015835 2.02244997024536133 0 1 13
0.294829010963439941 0.00522299995645880699 2.0140230655670166 0 2 11
0.295204997062683105 0.00672800000756978989 2.01659202575683594 0 1 10
0.293294996023178101 0.0141249997541308403 2.00354194641113281 0 0 8
0.297150999307632446 0.0233570002019405365 2.02988696098327637 0 4 9
0.296229004859924316 0.02478799968957901 2.02358794212341309 0 3 8
0.312781989574432373 0.0325209982693195343 2.13666605949401855 0 3 9
0.313858002424240112 0.0342260003089904785 2.14401388168334961 0 3 10
0.313412994146347046 0.0373580008745193481 2.14097309112548828 0 3 10
0.313470989465713501 0.0389549992978572845 2.14136695861816406 0 2 10
0.297421008348464966 0.0852520018815994263 2.03173303604125977 0 1 3
0.381085008382797241 0.260055005550384521 2.60324788093566895 135 153 131
0.365666002035140991 0.251388013362884521 2.49792098999023438 133 149 128
0.357764005661010742 0.247770994901657104 2.4439389705657959 135 150 127
0.358467012643814087 0.250077009201049805 2.4487459659576416 136 150 127
0.31710401177406311 -0.108070999383926392 2.15525102615356445 4 2 11
0.324685007333755493 -0.100819997489452362 2.20677900314331055 5 18 26
0.325240999460220337 -0.0993499979376792908 2.21055293083190918 6 19 28
0.326521992683410645 -0.0980930030345916748 2.21925997734069824 3 14 23
0.327298998832702637 -0.0966750010848045349 2.22454309463500977 4 12 22
0.326691985130310059 -0.0948460027575492859 2.22041511535644531 6 16 26
0.324250996112823486 -0.0925000011920928955 2.203826904296875 3 12 22
0.32225799560546875 -0.0886780023574829102 2.19028401374816895 3 12 20
0.322364985942840576 -0.0838249996304512024 2.1910090446472168 0 8 15
0.322672992944717407 -0.0822760015726089478 2.19310188293457031 1 11 17
0.323673009872436523 -0.0808970034122467041 2.19989705085754395 0 10 17
0.323617994785308838 -0.0792500004172325134 2.19952607154846191 0 10 17
0.324337989091873169 -0.0777890011668205261 2.20442008972167969 0 10 18
0.324092000722885132 -0.0760940015316009521 2.20274591445922852 0 10 18
0.320057004690170288 -0.0735310018062591553 2.17531991004943848 0 10 17
0.320589989423751831 -0.0720349997282028198 2.17894792556762695 0 11 16
0.318511009216308594 -0.0699589997529983521 2.16481304168701172 0 11 16
0.318650007247924805 -0.0683809965848922729 2.16576194763183594 0 11 16
0.320333003997802734 -0.0671250000596046448 2.1772010326385498 0 10 16
0.323747992515563965 -0.0662069991230964661 2.20040607452392578 0 9 16
0.322874009609222412 -0.0643979981541633606 2.19446992874145508 0 9 15
0.31974300742149353 -0.0621590018272399902 2.17318892478942871 0 9 14
0.317449986934661865 -0.0537000000476837158 2.15760397911071777 0 9 16
0.317261010408401489 -0.0520670004189014435 2.15631604194641113 0 9 16
0.324290990829467773 -0.0450350008904933929 2.20409989356994629 0 9 16
0.29844200611114502 -0.0369249992072582245 2.02841305732727051 0 9 18
0.297311991453170776 -0.0292809996753931046 2.02073192596435547 0 9 18
0.30291101336479187 -0.00536500010639429092 2.05878806114196777 0 3 8
0.303938001394271851 -0.00384899997152388096 2.0657649040222168 0 2 10
0.302919000387191772 -0.00230700010433793068 2.058837890625 0 1 13
0.302089005708694458 -0.000775000022258609533 2.05320096015930176 0 1 13
0.300859987735748291 0.000746999983675777912 2.04484295845031738 0 2 14
0.302062004804611206 0.00227500009350478649 2.05301403999328613 0 2 13
0.298720985651016235 0.00375799997709691525 2.03030705451965332 0 3 13
0.298074990510940552 0.00525399995967745781 2.02591395378112793 0 2 12
0.29779699444770813 0.00675299996510148048 2.02402710914611816 0 2 9
0.297176986932754517 0.008239000104367733 2.01981592178344727 0 2 9
0.31399199366569519 0.0340670011937618256 2.13409709930419922 0 4 10
0.316266000270843506 0.0359110012650489807 2.14955306053161621 0 3 10
0.315551012754440308 0.0374229997396469116 2.1446990966796875 0 3 10
0.316374987363815308 0.0391179993748664856 2.15029597282409668 0 2 10
0.298211008310317993 0.0850469991564750671 2.02684211730957031 0 1 3
0.359833985567092896 0.249762997031211853 2.44567203521728516 137 151 128
0.36318400502204895 0.263090014457702637 2.46844196319580078 139 154 131
0.362430989742279053 0.264373987913131714 2.46332192420959473 139 154 132
0.372534990310668945 0.292432010173797607 2.53199911117553711 134 144 120
0.327607989311218262 -0.0995709970593452454 2.21545600891113281 6 18 26
0.328779995441436768 -0.0982759967446327209 2.22338294982910156 8 18 28
0.329263001680374146 -0.0967660024762153625 2.22665309906005859 7 15 26
0.328193992376327515 -0.0948039963841438293 2.21942305564880371 5 12 23
0.326505988836288452 -0.0926759988069534302 2.2080070972442627 5 11 22
0.327551990747451782 -0.0913280025124549866 2.21508097648620605 8 13 24
0.325863003730773926 -0.089220002293586731 2.2036590576171875 9 17 26
0.324818998575210571 -0.0873019993305206299 2.19659900665283203 7 15 24
0.324571013450622559 -0.0856050029397010803 2.19492506980895996 3 11 19
0.324730008840560913 -0.0840160027146339417 2.19599604606628418 1 10 16
0.324703991413116455 -0.082378000020980835 2.19582009315490723 0 11 17
0.325895011425018311 -0.0810440033674240112 2.20387601852416992 0 12 17
0.325069010257720947 -0.0792049989104270935 2.19828891754150391 0 12 17
0.325758010149002075 -0.0777370035648345947 2.20295095443725586 0 12 17
0.325217992067337036 -0.075974002480506897 2.19929409027099609 0 12 17
0.325598001480102539 -0.0744279995560646057 2.20186591148376465 0 12 16
0.319853007793426514 -0.0699009969830513 2.16301608085632324 0 13 16
0.318589001893997192 -0.0680250003933906555 2.1544649600982666 0 13 17
0.321956008672714233 -0.0671269968152046204 2.17723894119262695 0 12 18
0.326319992542266846 -0.0663969963788986206 2.20674800872802734 0 12 18
0.325664013624191284 -0.0646279975771903992 2.20231389999389648 0 11 18
0.314895987510681152 -0.0577460005879402161 2.12949395179748535 0 9 16
0.314972996711730957 -0.0561779998242855072 2.13001799583435059 0 9 16
0.314747989177703857 -0.0545569993555545807 2.12849307060241699 0 9 16
0.316096991300582886 -0.0532030016183853149 2.13761305809020996 0 10 16
0.316154986619949341 -0.0516249984502792358 2.13800597190856934 0 11 16
0.325554996728897095 -0.0433479994535446167 2.20157408714294434 0 10 16
0.306820005178451538 -0.00694799982011318207 2.07487988471984863 0 4 13
0.302529007196426392 -0.00533099984750151634 2.04585909843444824 0 3 12
0.301842987537384033 0.00226199999451637268 2.04121994972229004 0 2 12
0.300729990005493164 0.00376400002278387547 2.03369498252868652 0 3 10
0.297502994537353516 0.0052180001512169838 2.01186990737915039 0 2 10
0.298759996891021729 0.00674099987372756004 2.02037191390991211 0 2 8
0.296528011560440063 0.00817999988794326782 2.00528097152709961 0 2 8
0.299414008855819702 0.00976299960166215897 2.02479910850524902 0 2 8
0.315034985542297363 0.0340089984238147736 2.1304318904876709 0 5 12
0.317853987216949463 0.0375059992074966431 2.14949607849121094 0 3 11
0.317808985710144043 0.0390969999134540558 2.14919304847717285 0 3 10
0.367296010255813599 0.249972999095916748 2.48385310173034668 135 151 130
0.358998000621795654 0.246127992868423462 2.42773199081420898 137 151 129
0.360103011131286621 0.248695001006126404 2.43520808219909668 137 152 129
0.3613089919090271 0.260417014360427856 2.44336605072021484 139 154 131
0.380616992712020874 0.295363008975982666 2.57393193244934082 133 147 126
0.316823005676269531 -0.103729002177715302 2.13181900978088379 3 5 12
0.330184012651443481 -0.101502999663352966 2.22171902656555176 1 12 19
0.331303000450134277 -0.100190997123718262 2.22925209999084473 3 13 22
0.332262992858886719 -0.0988209992647171021 2.23571109771728516 9 19 28
0.331651985645294189 -0.0969809964299201965 2.23160099983215332 10 18 29
0.331010013818740845 -0.0951389968395233154 2.22727704048156738 9 15 27
0.330157995223999023 -0.0932440012693405151 2.22154498100280762 10 16 28
0.329553991556167603 -0.0914259999990463257 2.21748089790344238 11 17 28
0.326312005519866943 -0.0856340005993843079 2.19566893577575684 8 19 26
0.326135993003845215 -0.0839579999446868896 2.19447898864746094 2 13 19
0.327012985944747925 -0.0825499966740608215 2.20038008689880371 0 10 16
0.32764899730682373 -0.0810730010271072388 2.20466399192810059 0 14 19
0.327275991439819336 -0.0793450027704238892 2.20215201377868652 0 14 18
0.326990008354187012 -0.0776410028338432312 2.20022988319396973 0 14 17
0.327060014009475708 -0.0760229974985122681 2.20070195198059082 0 14 17
0.327152997255325317 -0.07440900057554245 2.20132303237915039 0 13 16
0.327499985694885254 -0.0728520005941390991 2.2036590576171875 0 14 17
0.319355010986328125 -0.0694440007209777832 2.14885401725769043 0 14 17
0.31954801082611084 -0.067888997495174408 2.15015292167663574 0 13 17
0.327939003705978394 -0.0663930028676986694 2.20661497116088867 0 12 19
0.327791005373001099 -0.0647249966859817505 2.20561790466308594 0 11 19
0.314572006464004517 -0.0573979988694190979 2.11667394638061523 0 9 16
0.314399003982543945 -0.0542239993810653687 2.11550807952880859 0 9 15
0.316697001457214355 -0.0514549985527992249 2.13097095489501953 0 11 15
0.317292988300323486 -0.0245929993689060211 2.1349799633026123 0 9 18
0.317131012678146362 -0.0229950007051229477 2.13389110565185547 0 9 18
0.317716985940933228 -0.0214499998837709427 2.13783407211303711 0 9 18
0.315385013818740845 -0.0118349995464086533 2.12214207649230957 0 7 15
0.314244002103805542 -0.0102220000699162483 2.11446499824523926 0 6 14
0.300787985324859619 -0.000763999996706843376 2.02391910552978516 0 3 14
0.298954010009765625 0.00222899997606873512 2.01158499717712402 0 3 10
0.299010008573532104 0.00372399995103478432 2.01195788383483887 0 3 8
0.298913002014160156 0.00521600013598799706 2.0113070011138916 0 3 8
0.298258990049362183 0.00669600022956728935 2.00690293312072754 0 3 7
0.297410011291503906 0.0141089996322989464 2.00119400024414062 0 3 10
0.318174004554748535 0.0373560003936290741 2.14090490341186523 0 4 13
0.3186970055103302 0.0390110015869140625 2.1444239616394043 0 4 10
0.398207992315292358 0.267666012048721313 2.67943310737609863 136 154 132
0.358372986316680908 0.244471997022628784 2.41139388084411621 137 152 129
0.42077299952507019 0.305965989828109741 2.8312690258026123 139 154 133
0.380504995584487915 0.293799996376037598 2.56031298637390137 129 143 122
0.317409992218017578 -0.103404000401496887 2.12514495849609375 20 21 27
0.332589000463485718 -0.103387996554374695 2.2267758846282959 3 11 17
0.332756996154785156 -0.101784996688365936 2.22790098190307617 0 9 16
0.333609014749526978 -0.100386999547481537 2.23360490798950195 2 12 19
0.333718001842498779 -0.0987600013613700867 2.23433303833007812 5 15 23
0.334695994853973389 -0.0973849967122077942 2.24088001251220703 11 19 29
0.332942008972167969 -0.0952190011739730835 2.22913789749145508 18 25 36
0.332134991884231567 -0.0933360010385513306 2.22373604774475098 18 25 35
0.331872999668121338 -0.0916119962930679321 2.22197699546813965 12 19 29
0.325702011585235596 -0.0850490033626556396 2.18066191673278809 8 21 26
0.326620995998382568 -0.0836649984121322632 2.18681597709655762 3 16 22
0.326741993427276611 -0.0820709988474845886 2.18762803077697754 0 13 18
0.32877698540687561 -0.080946996808052063 2.20125293731689453 0 15 20
0.327212989330291748 -0.0789349973201751709 2.19078207015991211 0 15 19
0.32803499698638916 -0.0775019973516464233 2.19628190994262695 1 15 18
0.326532989740371704 -0.0755229964852333069 2.18622803688049316 1 15 18
0.326400995254516602 -0.0738689973950386047 2.18534398078918457 0 14 17
0.328117012977600098 -0.0726260021328926086 2.19682908058166504 0 14 17
0.328146994113922119 -0.0661050006747245789 2.19703388214111328 0 12 20
0.328678011894226074 -0.0645769983530044556 2.20058703422546387 0 11 19
0.326413989067077637 -0.062509000301361084 2.18542695045471191 0 10 19
0.326496988534927368 -0.0609019994735717773 2.18598508834838867 0 9 18
0.319411993026733398 -0.0246339999139308929 2.1385490894317627 0 9 18
0.31481701135635376 -0.0117549998685717583 2.10778689384460449 0 8 17
0.312858998775482178 -0.0101260002702474594 2.09467601776123047 0 8 17
0.312528014183044434 -0.00856100022792816162 2.09246110916137695 0 6 14
0.301777005195617676 -0.000762999989092350006 2.02048206329345703 0 4 16
0.300709992647171021 0.00372599996626377106 2.0133368968963623 0 4 10
0.299665987491607666 0.00520400004461407661 2.0063478946685791 0 3 7
0.302024990320205688 0.0127539997920393944 2.02213597297668457 0 3 9
0.403349012136459351 0.267767012119293213 2.70052695274353027 138 155 136
0.399789988994598389 0.267392992973327637 2.67670202255249023 136 154 132
0.422428011894226074 0.290935993194580078 2.82826709747314453 138 153 128
0.432722002267837524 0.302329987287521362 2.89718794822692871 140 154 129
0.420073986053466797 0.303939014673233032 2.81251192092895508 139 154 133
0.385416001081466675 0.29227900505065918 2.58046293258666992 143 158 143
0.375286012887954712 0.290196001529693604 2.51263809204101562 125 134 110
0.335088998079299927 -0.106965996325016022 2.23241090774536133 12 15 20
0.335152000188827515 -0.103669002652168274 2.23283100128173828 0 5 10
0.335361003875732422 -0.102073997259140015 2.23422098159790039 0 7 13
0.334910005331039429 -0.100279003381729126 2.23121809959411621 0 10 16
0.33536800742149353 -0.0987569987773895264 2.23426508903503418 1 9 17
0.335429012775421143 -0.0971150025725364685 2.23467302322387695 6 14 23
0.335460007190704346 -0.0954639986157417297 2.23488092422485352 16 25 34
0.334419995546340942 -0.093512997031211853 2.22795391082763672 19 27 37
0.334264993667602539 -0.0918160006403923035 2.22692108154296875 14 22 31
0.327672004699707031 -0.0867620036005973816 2.18299603462219238 3 15 21
0.327612996101379395 -0.0851249992847442627 2.18260407447814941 4 19 24
0.327591001987457275 -0.0834980010986328125 2.18246006965637207 3 20 23
0.328346997499465942 -0.0820659995079040527 2.18749499320983887 1 18 22
0.329584002494812012 -0.0807439982891082764 2.19573593139648438 1 17 21
0.329710990190505981 -0.0791440010070800781 2.19657802581787109 1 16 21
0.329214990139007568 -0.077395997941493988 2.19327902793884277 1 16 20
0.328685998916625977 -0.0756449997425079346 2.18975210189819336 1 15 19
0.328294992446899414 -0.073930002748966217 2.18715000152587891 0 14 17
0.329665988683700562 -0.0726080015301704407 2.19628190994262695 0 13 17
0.33020898699760437 -0.0710930004715919495 2.19989705085754395 0 13 18
0.33050200343132019 -0.069521002471446991 2.20184898376464844 0 13 19
0.326932013034820557 -0.0671520009636878967 2.17806410789489746 0 13 20
0.330475986003875732 -0.0662449970841407776 2.20167803764343262 0 12 20
0.329831987619400024 -0.0644830018281936646 2.19738411903381348 0 12 20
0.327870011329650879 -0.0624779984354972839 2.18431806564331055 0 11 20
0.328649997711181641 -0.0610000006854534149 2.18951201438903809 0 10 19
0.327335000038146973 -0.0591359995305538177 2.18075299263000488 0 9 18
0.341594994068145752 -0.0431180000305175781 2.27574992179870605 0 10 17
0.314529985189437866 -0.0272499993443489075 2.09543991088867188 0 9 18
0.347189992666244507 -0.0232079997658729553 2.31302499771118164 0 9 18
0.313529998064041138 -0.0100980000570416451 2.08878397941589355 0 8 17
0.312817007303237915 -0.00852700043469667435 2.08403110504150391 0 6 14
0.310631006956100464 -0.00385600002482533455 2.06946492195129395 0 5 14
0.307909011840820312 -0.000774000014644116163 2.05133295059204102 0 4 16
0.306966990232467651 0.0128990001976490021 2.04505610466003418 0 3 9
0.304392993450164795 0.0158029999583959579 2.02791190147399902 0 3 10
0.331380993127822876 0.112314000725746155 2.2077031135559082 0 2 0
0.328678011894226074 0.116277001798152924 2.18969988822937012 0 2 0
0.327335000038146973 0.117421999573707581 2.18075299263000488 0 2 0
0.330195009708404541 0.138054996728897095 2.19980597496032715 0 5 9
0.381042987108230591 0.238508999347686768 2.53856301307678223 140 152 135
0.401412993669509888 0.265163004398345947 2.6742699146270752 138 155 136
0.399789988994598389 0.266070008277893066 2.66345596313476562 136 154 132
0.426378011703491211 0.294313997030258179 2.84058904647827148 138 154 128
0.422374993562698364 0.304091006517410278 2.81392192840576172 138 154 133
0.423649013042449951 0.309201985597610474 2.82241106033325195 138 155 135
0.335431993007659912 -0.106547996401786804 2.22368788719177246 72 75 79
0.336021989583969116 -0.105080001056194305 2.22760009765625 40 44 48
0.33598598837852478 -0.103414997458457947 2.22736501693725586 18 23 28
0.336062997579574585 -0.101783998310565948 2.22787189483642578 3 10 15
0.336656004190444946 -0.100305996835231781 2.23180699348449707 0 6 12
0.336640000343322754 -0.0986429974436759949 2.23169708251953125 0 6 12
0.336872011423110962 -0.0970520004630088806 2.23323488235473633 1 7 15
0.336490988731384277 -0.0952859967947006226 2.23071098327636719 5 13 21
0.336327999830245972 -0.0935840010643005371 2.22963309288024902 12 21 28
0.336452007293701172 -0.0919609963893890381 2.23045110702514648 16 25 32
0.335732012987136841 -0.0901110023260116577 2.22568011283874512 13 24 30
0.328756004571914673 -0.0850009992718696594 2.17943310737609863 5 21 25
0.328539997339248657 -0.0833280012011528015 2.17800211906433105 4 23 24
0.329052001237869263 -0.081836998462677002 2.1813969612121582 3 22 24
0.330980986356735229 -0.0806870013475418091 2.19418597221374512 2 19 23
0.330861002206802368 -0.0790290012955665588 2.193389892578125 2 18 23
0.330231994390487671 -0.077252998948097229 2.18921995162963867 2 17 22
0.330978989601135254 -0.0757979974150657654 2.19417095184326172 1 16 20
0.331773996353149414 -0.0727119967341423035 2.19943809509277344 0 13 17
0.331970006227493286 -0.0711200013756752014 2.20073699951171875 0 12 18
0.335382014513015747 -0.0685489997267723083 2.22336006164550781 0 14 21
0.335575997829437256 -0.066936001181602478 2.22464609146118164 0 13 21
0.331752002239227295 -0.0645399987697601318 2.19929409027099609 0 12 21
0.329333990812301636 -0.0624479986727237701 2.18326807022094727 0 11 20
0.330191999673843384 -0.060984000563621521 2.18895506858825684 0 10 19
0.346260011196136475 -0.0230320002883672714 2.29547405242919922 0 9 18
0.311987012624740601 -0.00385300000198185444 2.06826400756835938 0 6 16
0.311004996299743652 -0.00230999989435076714 2.06175804138183594 1 5 17
0.304881006479263306 0.00374100008048117161 2.02115797996520996 0 5 11
0.315665990114212036 0.0100899999961256981 2.09265398979187012 0 3 8
0.3057669997215271 0.015796000137925148 2.02702999114990234 0 3 10
0.322416990995407104 0.0388830006122589111 2.13741207122802734 0 7 13
0.323085010051727295 0.040553998202085495 2.14183592796325684 0 7 13
0.324427992105484009 0.0423210002481937408 2.15073895454406738 1 7 13
0.331946998834609985 0.113586001098155975 2.20058703422546387 0 2 0
0.327834010124206543 0.11379300057888031 2.17332291603088379 0 2 0
0.328489989042282104 0.115638002753257751 2.17766690254211426 0 2 0
0.384595990180969238 0.201671004295349121 2.54961490631103516 139 157 135
0.383318006992340088 0.238750994205474854 2.54114508628845215 138 150 137
0.39906001091003418 0.262311011552810669 2.64550089836120605 138 155 135
0.398371011018753052 0.263819992542266846 2.64093804359436035 137 155 132
0.424493014812469482 0.291570007801055908 2.81410408020019531 141 157 131
0.433923989534378052 0.300184011459350586 2.87662601470947266 141 157 133
0.424798011779785156 0.304329991340637207 2.81612610816955566 137 154 135
0.425065994262695312 0.306614995002746582 2.81790304183959961 138 155 135
0.423038989305496216 0.307235985994338989 2.80446505546569824 138 156 136
0.397311985492706299 0.294420987367630005 2.63391494750976562 142 157 139
0.389614999294281006 0.292553991079330444 2.58289098739624023 145 159 141
0.335687011480331421 -0.106105998158454895 2.2144770622253418 158 159 162
0.335824012756347656 -0.104503996670246124 2.21538400650024414 123 126 129
0.336724013090133667 -0.103133998811244965 2.22131490707397461 82 89 91
0.335534989833831787 -0.101126000285148621 2.21347188949584961 49 56 59
0.337321996688842773 -0.100011996924877167 2.22526192665100098 30 37 41
0.337942987680435181 -0.0985400006175041199 2.22936296463012695 18 26 32
0.338021010160446167 -0.0969059988856315613 2.22987198829650879 11 18 25
0.338149994611740112 -0.0952859967947006226 2.23072409629821777 4 11 19
0.33699798583984375 -0.0933109968900680542 2.22312808036804199 4 12 20
0.337529987096786499 -0.0918039977550506592 2.22663402557373047 13 23 29
0.337072014808654785 -0.0900280028581619263 2.2236170768737793 19 32 36
0.336270987987518311 -0.0881659984588623047 2.21833205223083496 15 30 33
0.331021994352340698 -0.0851679965853691101 2.18370199203491211 7 24 26
0.329899013042449951 -0.083263002336025238 2.17629694938659668 5 24 26
0.33067399263381958 -0.0818379968404769897 2.18140506744384766 5 24 26
0.332165002822875977 -0.0805789977312088013 2.19124102592468262 3 20 25
0.331903994083404541 -0.0788900032639503479 2.18952393531799316 4 19 25
0.332246005535125732 -0.0773430019617080688 2.19178009033203125 3 18 23
0.332612991333007812 -0.0757979974150657654 2.19419693946838379 2 16 21
0.333407014608383179 -0.0743459984660148621 2.19943809509277344 1 15 18
0.333211004734039307 -0.0726689994335174561 2.19814300537109375 0 13 18
0.331449985504150391 -0.0706610009074211121 2.18653011322021484 0 12 18
0.333193987607955933 -0.0693999975919723511 2.19802999496459961 0 12 19
0.335532993078231812 -0.0682429969310760498 2.21345901489257812 0 14 21
0.336616992950439453 -0.0668139979243278503 2.22060894966125488 0 13 21
0.333436012268066406 -0.0645489990711212158 2.19962906837463379 0 13 22
0.329389989376068115 -0.0621519982814788818 2.17293500900268555 0 12 21
0.331115007400512695 -0.0608550012111663818 2.18431806564331055 0 11 20
0.310649991035461426 -0.00229600002057850361 2.04931402206420898 0 5 17
0.310180991888046265 -0.000773000007029622793 2.04621601104736328 1 5 16
0.305411994457244873 0.00372899998910725117 2.0147550106048584 0 5 10
0.304821997880935669 0.00521499989554286003 2.01086902618408203 0 4 8
0.318199008703231812 0.00856199953705072403 2.09910988807678223 0 4 7
0.317083001136779785 0.0100859999656677246 2.09174895286560059 0 4 8
0.31595999002456665 0.0115989996120333672 2.08434391021728516 0 3 8
0.304432988166809082 0.0156510006636381149 2.0083010196685791 0 3 10
0.387598991394042969 0.240234002470970154 2.5569310188293457 138 150 138
0.410742014646530151 0.262629002332687378 2.70960593223571777 139 156 138
0.431463003158569336 0.282220989465713501 2.84629988670349121 138 155 134
0.395159006118774414 0.262345999479293823 2.60680198669433594 137 155 131
0.411895990371704102 0.275476008653640747 2.71721291542053223 137 155 129
0.427610993385314941 0.292272001504898071 2.82088398933410645 139 157 131
0.429453998804092407 0.29774099588394165 2.83304691314697266 139 157 134
0.427841991186141968 0.305009007453918457 2.82241106033325195 138 155 136
0.423548996448516846 0.306098997592926025 2.79408907890319824 138 157 137
0.397991001605987549 0.291528999805450439 2.62548995018005371 139 158 138
0.398627012968063354 0.293947994709014893 2.62968206405639648 141 158 138
0.406029999256134033 0.305375009775161743 2.67852091789245605 140 153 131
0.400314003229141235 0.303036987781524658 2.64081001281738281 124 135 113
0.337655991315841675 -0.102914996445178986 2.21660590171813965 168 173 175
0.338425993919372559 -0.101499997079372406 2.22165989875793457 140 148 150
0.338319987058639526 -0.0998179987072944641 2.2209630012512207 114 122 126
0.338822007179260254 -0.0983140021562576294 2.22425699234008789 89 97 103
0.338829010725021362 -0.0966639965772628784 2.2243049144744873 55 62 69
0.338806003332138062 -0.0950059965252876282 2.22415494918823242 21 28 35
0.338829010725021362 -0.0933599993586540222 2.2243049144744873 4 10 17
0.338943004608154297 -0.0917389988899230957 2.22505092620849609 6 14 19
0.338200986385345459 -0.0898889973759651184 2.22018098831176758 15 27 31
0.336093991994857788 -0.0876900032162666321 2.20635294914245605 14 28 31
0.332973003387451172 -0.0852520018815994263 2.18586111068725586 6 22 24
0.333528995513916016 -0.0837680026888847351 2.18951201438903809 6 25 26
0.331833988428115845 -0.0817240029573440552 2.17838406562805176 8 26 29
0.333891987800598145 -0.0806030035018920898 2.19189810752868652 5 21 27
0.333894997835159302 -0.0789759978652000427 2.19191598892211914 6 20 26
0.33403700590133667 -0.0773809999227523804 2.19285011291503906 5 18 24
0.334006994962692261 -0.0757450014352798462 2.19264888763427734 3 17 21
0.334726989269256592 -0.0742760002613067627 2.19737601280212402 2 16 19
0.334511995315551758 -0.0725969970226287842 2.19596600532531738 0 14 18
0.333645999431610107 -0.0707829967141151428 2.19028401374816895 0 12 18
0.334071993827819824 -0.06924399733543396 2.19307899475097656 0 13 19
0.333768010139465332 -0.0675529986619949341 2.19108200073242188 0 15 22
0.335987001657485962 -0.066363997757434845 2.20564603805541992 0 14 22
0.335696011781692505 -0.0646699965000152588 2.20373797416687012 0 13 22
0.331304013729095459 -0.0605930015444755554 2.17490792274475098 0 11 21
0.325390011072158813 -0.0198459997773170471 2.13608098030090332 0 9 18
0.324891000986099243 -0.0087259998545050621 2.13280701637268066 0 8 17
0.311459988355636597 -0.00229099998250603676 2.04463911056518555 0 6 18
0.30946698784828186 -0.000767000019550323486 2.03155398368835449 0 5 17
0.308028995990753174 0.000738999980967491865 2.02211403846740723 0 5 15
0.307191997766494751 0.00223400001414120197 2.01661896705627441 0 6 13
0.306084007024765015 0.00371899991296231747 2.00934100151062012 0 5 11
0.306273996829986572 0.00521499989554286003 2.01059293746948242 0 5 8
0.306470006704330444 0.00671199988573789597 2.01187801361083984 0 4 8
0.318614989519119263 0.0100849997252225876 2.09160709381103516 0 4 8
0.318589001893997192 0.0116379996761679649 2.09143495559692383 0 3 8
0.317447006702423096 0.0131440004333853722 2.0839390754699707 0 3 10
0.305588990449905396 0.0931169986724853516 2.00609588623046875 0 1 5
0.324597001075744629 0.113154001533985138 2.13087797164916992 0 2 0
0.317034989595413208 0.124430000782012939 2.08123397827148438 0 3 8
0.314734011888504028 0.128131002187728882 2.0661320686340332 0 5 9
0.321000009775161743 0.171378001570701599 2.10726308822631836 141 159 139
0.331690013408660889 0.18031899631023407 2.17743802070617676 143 161 140
0.429423004388809204 0.277422010898590088 2.81902289390563965 138 155 136
0.431852996349334717 0.281098008155822754 2.8349759578704834 138 155 135
0.429334014654159546 0.289925992488861084 2.81844305992126465 138 156 130
0.429311007261276245 0.292003989219665527 2.81829404830932617 139 157 133
0.428833991289138794 0.295861005783081055 2.81516098976135254 139 156 136
0.4300059974193573 0.305056989192962646 2.82285308837890625 138 155 136
0.425500988960266113 0.306010007858276367 2.79328203201293945 138 157 137
0.395936012268066406 0.28860899806022644 2.5991981029510498 139 158 138
0.399190008640289307 0.292926996946334839 2.62055397033691406 141 158 138
0.404592007398605347 0.302810013294219971 2.65601611137390137 138 151 129
0.339154988527297974 -0.0946419984102249146 2.21564292907714844 57 63 68
0.339033007621765137 -0.092963002622127533 2.21484208106994629 15 19 25
0.340526014566421509 -0.0917199999094009399 2.22459506988525391 1 7 12
0.336641997098922729 -0.0874070003628730774 2.19922399520874023 8 22 24
0.335157990455627441 -0.0853950008749961853 2.18952798843383789 3 19 20
0.33557400107383728 -0.0838730037212371826 2.19224691390991211 6 23 25
0.335884988307952881 -0.0806910023093223572 2.19427895545959473 7 22 27
0.336124002933502197 -0.0791170001029968262 2.19583892822265625 6 20 26
0.335976988077163696 -0.0774519965052604675 2.19488310813903809 5 18 24
0.336151987314224243 -0.0758609995245933533 2.19602108001708984 4 17 21
0.335272997617721558 -0.0740360021591186523 2.19028401374816895 4 17 20
0.336418986320495605 -0.0726569965481758118 2.19776797294616699 3 16 20
0.336288988590240479 -0.0709969997406005859 2.19691610336303711 1 14 20
0.335002005100250244 -0.0690999999642372131 2.18851304054260254 0 13 20
0.334684014320373535 -0.067409999668598175 2.18643093109130859 0 14 22
0.337233006954193115 -0.0662870034575462341 2.20308589935302734 0 14 22
0.336699008941650391 -0.064548000693321228 2.19959497451782227 0 13 22
0.329706013202667236 -0.0600080005824565887 2.1539158821105957 0 12 21
0.330098986625671387 -0.0584780015051364899 2.15648007392883301 0 11 20
0.332756012678146362 -0.0508750006556510925 2.17384099960327148 0 10 14
0.352091014385223389 -0.0384549982845783234 2.30015301704406738 0 10 19
0.329670995473861694 -0.0120109999552369118 2.15368199348449707 0 10 19
0.320277005434036255 -0.00545200007036328316 2.0923159122467041 0 9 18
0.319705009460449219 -0.00389100005850195885 2.08857989311218262 0 8 18
0.310537993907928467 -0.000766000011935830116 2.02868890762329102 0 6 17
0.307114988565444946 0.000732999993488192558 2.00633001327514648 0 6 15
0.306735992431640625 0.00221999990753829479 2.00385499000549316 0 5 13
0.307565003633499146 0.00371899991296231747 2.00927090644836426 0 5 11
0.306784003973007202 0.00519799999892711639 2.00416803359985352 0 5 9
0.306338995695114136 0.00667699985206127167 2.00126290321350098 0 5 9
0.319465011358261108 0.0100630000233650208 2.08700799942016602 0 4 8
0.319703012704849243 0.011621999554336071 2.08856391906738281 0 4 8
0.319537997245788574 0.013167000375688076 2.08749008178710938 0 4 10
0.319658011198043823 0.0224779993295669556 2.08826899528503418 0 3 11
0.306591987609863281 0.0914810001850128174 2.00291609764099121 0 1 5
0.327753990888595581 0.112108998000621796 2.1411590576171875 0 2 0
0.323689013719558716 0.112288996577262878 2.11460304260253906 0 2 0
0.317541986703872681 0.124023996293544769 2.07444596290588379 0 3 8
0.313870996236801147 0.127159997820854187 2.05046510696411133 0 5 9
0.310001999139785767 0.158685997128486633 2.0251920223236084 139 156 134
0.330132007598876953 0.17860199511051178 2.15669488906860352 143 160 141
0.388877987861633301 0.238688006997108459 2.54047203063964844 138 150 137
0.388386994600296021 0.240271002054214478 2.53726410865783691 137 151 138
0.429192006587982178 0.275927990674972534 2.80383491516113281 138 155 136
0.431023985147476196 0.279197007417678833 2.81580400466918945 138 155 134
0.392529994249343872 0.258071988821029663 2.56433391571044922 137 155 131
0.429239988327026367 0.290538996458053589 2.80415201187133789 139 157 131
0.325704991817474365 0.226780995726585388 2.127777099609375 137 154 136
0.426838010549545288 0.305482000112533569 2.78845906257629395 138 157 137
0.393168985843658447 0.283293008804321289 2.56850409507751465 139 158 138
0.393355011940002441 0.28533598780632019 2.5697178840637207 139 158 138
0.340204000473022461 -0.0944759994745254517 2.2117619514465332 104 108 112
0.341612011194229126 -0.093217998743057251 2.2209169864654541 37 42 46
0.341206014156341553 -0.0914589986205101013 2.21828007698059082 4 9 13
0.336620986461639404 -0.0869790017604827881 2.18846797943115234 7 19 20
0.335842013359069824 -0.0851560011506080627 2.18340706825256348 6 20 21
0.335898995399475098 -0.0835490003228187561 2.1837770938873291 9 24 26
0.336203992366790771 -0.0820010006427764893 2.18575501441955566 9 23 27
0.337577998638153076 -0.0807060003280639648 2.19468808174133301 6 20 25
0.337168008089065552 -0.0789799988269805908 2.19202089309692383 7 20 26
0.338050991296768188 -0.0775540024042129517 2.19776201248168945 7 20 26
0.336643993854522705 -0.0756060034036636353 2.18861508369445801 7 19 24
0.337648987770080566 -0.0742010027170181274 2.19514894485473633 9 20 24
0.337388992309570312 -0.0725139975547790527 2.19345998764038086 8 20 25
0.337361007928848267 -0.0708789974451065063 2.19327902793884277 2 15 21
0.336261004209518433 -0.0674009993672370911 2.18613004684448242 0 14 22
0.337550997734069824 -0.0660289973020553589 2.19451498985290527 0 13 22
0.337063014507293701 -0.0643059983849525452 2.19133996963500977 0 13 22
0.327719986438751221 -0.0577760003507137299 2.13059806823730469 0 11 20
0.353172987699508667 -0.038387000560760498 2.29607796669006348 0 10 20
0.350645989179611206 -0.0279530007392168045 2.27965092658996582 0 9 18
0.327663004398345947 -0.0118800001218914986 2.1302330493927002 0 10 19
0.328839004039764404 -0.0103350002318620682 2.13787293434143066 0 9 18
0.321547001600265503 -0.00544699979946017265 2.0904700756072998 0 9 18
0.3206309974193573 -0.00388400000520050526 2.08451199531555176 0 9 18
0.3092460036277771 0.00372099992819130421 2.01049494743347168 0 5 11
0.32084500789642334 0.0100579997524619102 2.08590388298034668 0 5 9
0.320914000272750854 0.0116100003942847252 2.08635401725769043 0 4 9
0.321182012557983398 0.0131700001657009125 2.08809399604797363 0 4 10
0.321617990732192993 0.0147409997880458832 2.09093093872070312 0 4 10
0.320955008268356323 0.0162610001862049103 2.08662199974060059 0 4 10
0.320852994918823242 0.020904000848531723 2.08595800399780273 0 4 10
0.321312010288238525 0.0224849991500377655 2.08893799781799316 0 3 12
0.321112990379333496 0.0240219999104738235 2.0876469612121582 0 3 12
0.308362990617752075 0.0409369990229606628 2.00475692749023438 0 3 10
0.326828986406326294 0.111253000795841217 2.12480807304382324 0 2 0
0.318037986755371094 0.123617999255657196 2.06765389442443848 0 3 8
0.310687988996505737 0.158269003033638 2.01987290382385254 139 156 134
0.32155001163482666 0.170012995600700378 2.09048700332641602 141 159 139
0.32782098650932312 0.176495000720024109 2.13125991821289062 143 160 141
0.389513999223709106 0.237923994660377502 2.53234100341796875 138 150 137
0.388819009065628052 0.239377006888389587 2.52782511711120605 138 151 138
0.390040993690490723 0.255196988582611084 2.5357670783996582 137 155 131
0.3883189857006073 0.257820993661880493 2.52457189559936523 137 155 129
0.323875993490219116 0.224417999386787415 2.10560798645019531 137 154 136
0.323448985815048218 0.225685000419616699 2.10283398628234863 137 154 136
0.389761000871658325 0.279482007026672363 2.53394603729248047 139 158 138
0.389513999223709106 0.281186014413833618 2.53234100341796875 139 158 138
0.342988014221191406 -0.094792000949382782 2.2191460132598877 149 151 155
0.342727005481719971 -0.0930719971656799316 2.21745610237121582 76 78 83
0.34365999698638916 -0.0916740000247955322 2.22349309921264648 25 28 32
0.343133002519607544 -0.0898849964141845703 2.22008204460144043 8 13 17
0.340761005878448486 -0.0876260027289390564 2.20473599433898926 7 16 18
0.337431997060775757 -0.0851479992270469666 2.18319892883300781 10 21 23
0.338126003742218018 -0.0836979970335960388 2.18768501281738281 15 28 29
0.339673995971679688 -0.0824489966034889221 2.19770503044128418 10 23 25
0.340249985456466675 -0.0809540003538131714 2.20142889022827148 6 18 23
0.340400010347366333 -0.0793529972434043884 2.20239901542663574 11 24 30
0.34023401141166687 -0.0776799991726875305 2.20132708549499512 14 26 32
0.340223014354705811 -0.0760419964790344238 2.20125699043273926 12 22 28
0.340157985687255859 -0.0743929967284202576 2.20083403587341309 8 19 23
0.339711993932723999 -0.0726630017161369324 2.19794702529907227 5 17 22
0.339341014623641968 -0.0709529966115951538 2.19554901123046875 2 15 21
0.339653998613357544 -0.0693859979510307312 2.19757699966430664 2 15 22
0.339560985565185547 -0.0677350014448165894 2.19697308540344238 2 16 24
0.340074986219406128 -0.066202998161315918 2.20029997825622559 1 15 24
0.338209986686706543 -0.0642149969935417175 2.18823409080505371 0 14 23
0.335054010152816772 -0.0539549998939037323 2.16781401634216309 0 8 12
0.336044013500213623 -0.0508840009570121765 2.17421507835388184 0 9 13
0.355589985847473145 -0.0384639985859394073 2.30068302154541016 1 11 20
0.328985989093780518 -0.0102899996563792229 2.12855195999145508 0 10 19
0.321785986423492432 0.0115849999710917473 2.08196902275085449 1 6 10
0.322210013866424561 0.0131489997729659081 2.08470988273620605 1 6 12
0.32332301139831543 0.0147479996085166931 2.09190893173217773 1 6 12
0.323370009660720825 0.0163039993494749069 2.09221601486206055 1 6 12
0.32269701361656189 0.0178210008889436722 2.08786106109619141 1 6 12
0.321467995643615723 0.0239330008625984192 2.07991194725036621 2 5 14
0.309693992137908936 0.040915999561548233 2.00373196601867676 0 3 10
