ply
format ascii 1.0
element vertex 639
property float x
property float y
property float z
property uchar red
property uchar green
property uchar blue
end_header
0.497810006141662598 -0.00749300001189112663 2.87539291381835938 150 140 138
0.500358998775482178 -0.00109100004192441702 2.89011311531066895 149 141 138
0.498418986797332764 0.00105099997017532587 2.8789069652557373 149 141 138
0.497877001762390137 0.003186000045388937 2.8757789134979248 149 141 138
0.482627004384994507 0.0921249985694885254 2.78769397735595703 0 3 18
0.356573998928070068 0.217985004186630249 2.0596010684967041 0 0 2
0.387502014636993408 -0.134928002953529358 2.22867989540100098 179 171 169
0.387450993061065674 -0.133256003260612488 2.22838997840881348 178 170 168
0.380618005990982056 -0.101637996733188629 2.18908810615539551 165 157 154
0.404570996761322021 -0.0924789980053901672 2.32684898376464844 160 152 150
0.401477992534637451 -0.0900570005178451538 2.30906105041503906 160 152 150
0.425361007452011108 -0.0772430002689361572 2.44642496109008789 159 151 149
0.403456985950469971 -0.0629239976406097412 2.32044601440429688 159 151 149
0.396252989768981934 -0.05333700031042099 2.27901411056518555 158 150 147
0.404751986265182495 -0.0510220006108283997 2.32789301872253418 158 150 147
0.518791019916534424 -0.0587490014731884003 2.98377799987792969 157 149 146
0.485563009977340698 -0.0466889999806880951 2.79267191886901855 154 146 143
0.498295009136199951 -0.0138539997860789299 2.86589598655700684 150 140 138
0.496324002742767334 -0.0116790002211928368 2.85456109046936035 150 140 138
0.496183007955551147 -0.00107700005173683167 2.85374808311462402 149 141 138
0.492846012115478516 0.003140999935567379 2.83455610275268555 149 141 138
0.484248995780944824 0.0527350008487701416 2.78511404991149902 148 140 137
0.48392099142074585 0.0547659993171691895 2.78322792053222656 148 140 137
0.351855009794235229 0.223199993371963501 2.02365803718566895 0 0 0
0.355273008346557617 0.229920998215675354 2.0433189868927002 0 0 0
0.388024002313613892 -0.134535998106002808 2.22219204902648926 179 171 169
0.387353003025054932 -0.13265499472618103 2.21834611892700195 178 170 168
0.41688498854637146 -0.103754997253417969 2.38747596740722656 164 156 154
0.405245989561080933 -0.0939629971981048584 2.32081699371337891 162 154 152
0.402859002351760864 -0.0916960015892982483 2.30714797973632812 161 153 151
0.401526004076004028 -0.089685000479221344 2.29951310157775879 161 153 151
0.397899001836776733 -0.0871820002794265747 2.27874302864074707 161 153 151
0.427489012479782104 -0.07366199791431427 2.44820308685302734 160 152 150
0.436150997877120972 -0.0621679984033107758 2.49781203269958496 158 150 147
0.480013996362686157 -0.0459589995443820953 2.74901199340820312 155 147 144
0.486521989107131958 -0.0445129983127117157 2.78628206253051758 154 146 143
0.489385992288589478 -0.00105800002347677946 2.80268311500549316 150 142 139
0.489385992288589478 0.00310499989427626133 2.80268311500549316 150 142 139
0.487266004085540771 0.00516499998047947884 2.79054594039916992 150 142 139
0.486135005950927734 0.0527149997651576996 2.78406810760498047 148 140 137
0.485908001661300659 0.0547569990158081055 2.78276801109313965 148 140 137
0.353255987167358398 0.214119002223014832 2.02307295799255371 0 0 2
0.386240988969802856 -0.133349999785423279 2.20260906219482422 179 171 169
0.386613994836807251 -0.131841003894805908 2.20473599433898926 178 170 168
0.390886008739471436 -0.11177399754524231 2.22909688949584961 170 162 160
0.386898010969161987 -0.107355996966362 2.20635294914245605 169 161 158
0.382685989141464233 -0.101323999464511871 2.18233609199523926 167 159 156
0.417589008808135986 -0.103490002453327179 2.38137507438659668 165 157 155
0.416741997003555298 -0.101515002548694611 2.37654900550842285 165 157 155
0.408556997776031494 -0.0960600003600120544 2.32987189292907715 163 155 153
0.403670996427536011 -0.0932020023465156555 2.30200695991516113 162 154 152
0.365157008171081543 -0.0657489970326423645 2.08237290382385254 161 153 151
0.425718009471893311 -0.0730459988117218018 2.42773199081420898 161 153 151
0.427103996276855469 -0.0714749991893768311 2.43563604354858398 161 153 151
0.433625012636184692 -0.0615460015833377838 2.47282791137695312 159 151 148
0.433670014142990112 -0.0597149990499019623 2.4730830192565918 159 151 148
0.479371994733810425 -0.0477339997887611389 2.73370599746704102 156 148 145
0.478866010904312134 -0.0456550009548664093 2.73082089424133301 156 148 145
0.484692007303237915 -0.0441580004990100861 2.76404094696044922 155 147 144
0.506819009780883789 -0.00538499979302287102 2.89022707939147949 151 142 139
0.489486992359161377 -0.00105399999301880598 2.79138588905334473 150 142 139
0.489012986421585083 0.00101799995172768831 2.78868794441223145 150 142 139
0.488317012786865234 0.00308499997481703758 2.78471493721008301 150 142 139
0.486748009920120239 0.0525580011308193207 2.77576899528503418 149 141 138
0.492697000503540039 0.101199999451637268 2.80969691276550293 5 8 15
0.350751996040344238 0.211701005697250366 2.0002288818359375 0 0 1
0.385069012641906738 -0.132385000586509705 2.18666410446166992 179 171 169
0.384180009365081787 -0.130458995699882507 2.18161606788635254 178 170 168
0.387457996606826782 -0.108691997826099396 2.20022988319396973 170 162 159
0.376583993434906006 -0.100876003503799438 2.13847804069519043 168 160 157
0.38291698694229126 -0.0993430018424987793 2.17444610595703125 166 158 155
0.41655200719833374 -0.102797999978065491 2.36544203758239746 166 158 156
0.416038006544113159 -0.100915998220443726 2.36252307891845703 165 157 155
0.364318013191223145 -0.0668580010533332825 2.06882691383361816 162 154 152
0.366383999586105347 -0.0656910017132759094 2.08055901527404785 161 153 151
0.366750985383987427 -0.0642099976539611816 2.08264303207397461 161 153 151
0.407052993774414062 -0.0661149993538856506 2.31150102615356445 161 153 151
0.393288999795913696 -0.0622210018336772919 2.23334193229675293 161 153 151
0.479310005903244019 -0.0475259982049465179 2.72182393074035645 157 149 146
0.476336002349853516 -0.0452219992876052856 2.70493507385253906 156 148 145
0.484315991401672363 -0.0439370013773441315 2.75025296211242676 156 148 145
0.4819679856300354 -0.0416910015046596527 2.73692011833190918 155 147 144
0.477613002061843872 -0.031241999939084053 2.7121889591217041 153 143 141
0.495595991611480713 -0.0240570008754730225 2.81430697441101074 153 143 141
0.489915013313293457 -0.0217150002717971802 2.78204607963562012 152 142 140
0.504222989082336426 -0.020222000777721405 2.8632969856262207 152 142 140
0.504521012306213379 -0.00533800013363361359 2.86498594284057617 151 142 140
0.480576008558273315 0.00505100004374980927 2.72901105880737305 151 143 140
0.485276013612747192 0.0521779991686344147 2.75570106506347656 149 141 138
0.471125006675720215 0.0725150033831596375 2.67534089088439941 145 136 127
0.35242798924446106 0.0973540022969245911 2.00130891799926758 0 0 3
0.352607995271682739 0.100377999246120453 2.00232911109924316 0 0 0
0.352344989776611328 0.196904003620147705 2.00083398818969727 0 0 8
0.385150998830795288 -0.131856992840766907 2.17794609069824219 179 171 169
0.385172009468078613 -0.105979003012180328 2.17806410789489746 169 161 158
0.373591989278793335 -0.0996550023555755615 2.1125791072845459 168 160 157
0.417623996734619141 -0.106137998402118683 2.3615720272064209 166 158 155
0.412438005208969116 -0.103087000548839569 2.3322451114654541 166 158 155
0.416359007358551025 -0.102319002151489258 2.35441803932189941 166 158 156
0.415912002325057983 -0.100461997091770172 2.35189104080200195 166 158 156
0.365833014249801636 -0.0653169974684715271 2.06870508193969727 161 153 151
0.367271006107330322 -0.0640309974551200867 2.07683396339416504 161 153 151
0.408798009157180786 -0.0695540010929107666 2.3116600513458252 161 153 151
0.408477991819381714 -0.0677839964628219604 2.30985307693481445 161 153 151
0.407842010259628296 -0.0659649968147277832 2.30625605583190918 161 153 151
0.406655997037887573 -0.064065001904964447 2.29954910278320312 161 153 151
0.408327013254165649 -0.0626140013337135315 2.30899596214294434 161 153 151
0.449371010065078735 -0.0651329979300498962 2.54109501838684082 160 152 149
0.407750993967056274 -0.0556749999523162842 2.3057410717010498 160 152 149
0.405862003564834595 -0.0537119992077350616 2.29505705833435059 160 152 149
0.405746996402740479 -0.051993001252412796 2.29440808296203613 160 152 149
0.406892985105514526 -0.0504309982061386108 2.30088996887207031 160 152 149
0.496910989284515381 -0.0553259998559951782 2.80991911888122559 159 151 148
0.497846007347106934 -0.0387019999325275421 2.81520509719848633 154 144 142
0.489923000335693359 -0.0216240007430315018 2.77040696144104004 153 143 141
0.504958987236022949 -0.0201660003513097763 2.85543203353881836 152 142 140
0.505044996738433838 -0.00532099977135658264 2.85591697692871094 151 142 140
0.477910995483398438 0.00500199990347027779 2.70248198509216309 151 143 140
0.354066014289855957 0.10631900280714035 2.0021660327911377 0 0 1
0.36733400821685791 -0.119084998965263367 2.06850099563598633 177 169 167
0.368025004863739014 -0.110073000192642212 2.07239198684692383 174 166 164
0.368234992027282715 -0.0962750017642974854 2.07358002662658691 167 159 156
0.367182999849319458 -0.0944639965891838074 2.06765389442443848 167 159 156
0.413729995489120483 -0.104708001017570496 2.32976698875427246 166 158 155
0.412512004375457764 -0.102674998342990875 2.3229060173034668 166 158 155
0.413571000099182129 -0.101208001375198364 2.32886910438537598 165 157 155
0.412838995456695557 -0.0993020012974739075 2.32474589347839355 165 157 155
0.409442991018295288 -0.096772998571395874 2.30562496185302734 165 157 155
0.413071990013122559 -0.0924480035901069641 2.32606005668640137 163 155 153
0.417057991027832031 -0.0915950015187263489 2.34850788116455078 163 155 153
0.365153014659881592 -0.0649230033159255981 2.05622005462646484 161 153 151
0.366757988929748535 -0.0636740028858184814 2.06525993347167969 161 153 151
0.40862700343132019 -0.0692339986562728882 2.30103206634521484 161 153 151
0.408338010311126709 -0.067477002739906311 2.29940509796142578 161 153 151
0.40850299596786499 -0.0657960027456283569 2.30032992362976074 161 153 151
0.404545992612838745 -0.063465997576713562 2.27804708480834961 161 153 151
0.407144993543624878 -0.0621710009872913361 2.29268598556518555 161 153 151
0.448273986577987671 -0.0647019967436790466 2.52428889274597168 160 152 149
0.449133992195129395 -0.0629469975829124451 2.52913093566894531 160 152 149
0.407568991184234619 -0.0554170012474060059 2.29507088661193848 160 152 149
0.406320005655288696 -0.0535480007529258728 2.28804111480712891 160 152 149
0.406313002109527588 -0.0518469996750354767 2.28799891471862793 160 152 149
0.408116012811660767 -0.0503709986805915833 2.29815411567687988 160 152 149
0.493162006139755249 -0.0546789988875389099 2.77705907821655273 159 151 148
0.494874000549316406 -0.0527990013360977173 2.78670001029968262 159 151 148
0.494028985500335693 -0.0444430001080036163 2.78194093704223633 156 148 145
0.495563000440597534 -0.0404359996318817139 2.79057598114013672 155 147 144
0.494309008121490479 -0.021725999191403389 2.78351593017578125 153 143 141
0.496973991394042969 -0.00105700001586228609 2.79852104187011719 152 144 141
0.356718987226486206 0.106666997075080872 2.00873088836669922 0 0 0
0.355580002069473267 0.107813999056816101 2.00231409072875977 0 0 1
0.369567990303039551 -0.12084999680519104 2.07241392135620117 178 170 168
0.367415010929107666 -0.118615001440048218 2.06034088134765625 178 170 168
0.367906004190444946 -0.117242000997066498 2.0630950927734375 177 169 167
0.3690510094165802 -0.111458003520965576 2.06951403617858887 176 168 166
0.368220001459121704 -0.109673000872135162 2.06485605239868164 175 167 165
0.367624014616012573 -0.106432996690273285 2.06151390075683594 174 166 164
0.368151992559432983 -0.0973860025405883789 2.06447696685791016 168 160 157
0.367870986461639404 -0.0957790017127990723 2.0628969669342041 167 159 156
0.411413013935089111 -0.101975001394748688 2.3070681095123291 165 157 155
0.410346001386642456 -0.100000999867916107 2.30108499526977539 165 157 155
0.410311013460159302 -0.0965740010142326355 2.30088996887207031 165 157 155
0.414052993059158325 -0.090557001531124115 2.32187509536743164 165 157 155
0.365621000528335571 -0.0647350028157234192 2.05028390884399414 161 153 151
0.367760002613067627 -0.063582003116607666 2.06227898597717285 161 153 151
0.41023901104927063 -0.0692180022597312927 2.30048298835754395 161 153 151
0.445641010999679565 -0.0640539973974227905 2.4990088939666748 160 152 149
0.445959985256195068 -0.0622420012950897217 2.50079798698425293 160 152 149
0.368905991315841675 -0.0499509982764720917 2.06870508193969727 160 152 149
0.406379014253616333 -0.051640000194311142 2.27883696556091309 160 152 149
0.406518012285232544 -0.0499639995396137238 2.2796180248260498 160 152 149
0.490020006895065308 -0.0561450012028217316 2.74787092208862305 160 152 149
0.490007996559143066 -0.0541029982268810272 2.74780511856079102 159 151 148
0.368286997079849243 -0.0360610000789165497 2.06522989273071289 158 150 147
0.367029011249542236 -0.0282949991524219513 2.05817794799804688 154 145 143
0.496639013290405273 -0.021736999973654747 2.78498506546020508 153 143 141
0.518671989440917969 -0.0140599999576807022 2.90854191780090332 153 143 141
0.511717021465301514 0.00317899999208748341 2.86954307556152344 152 144 141
0.525134027004241943 0.0251359995454549789 2.9447779655456543 152 144 141
0.35803300142288208 0.105122998356819153 2.00772905349731445 0 1 0
0.358042001724243164 0.106617003679275513 2.00778102874755859 0 1 0
0.357468992471694946 0.107934996485710144 2.00456809997558594 0 1 0
0.358177989721298218 0.109641000628471375 2.00854396820068359 0 1 1
0.370088011026382446 -0.122052997350692749 2.06672406196594238 179 171 169
0.369145005941390991 -0.120210997760295868 2.06145811080932617 178 170 168
0.368274003267288208 -0.118400000035762787 2.05659389495849609 178 170 168
0.368793994188308716 -0.117036998271942139 2.05949902534484863 177 169 167
0.36916700005531311 -0.106436997652053833 2.06157898902893066 174 166 164
0.36992800235748291 -0.0989840030670166016 2.06582808494567871 169 161 158
0.368328988552093506 -0.097028002142906189 2.05690097808837891 168 160 157
0.369210988283157349 -0.0941980034112930298 2.06182503700256348 167 159 156
0.411109000444412231 -0.101476997137069702 2.29580092430114746 166 158 156
0.407808005809783936 -0.0989700034260749817 2.27736592292785645 166 158 156
0.408544003963470459 -0.0957600027322769165 2.28147506713867188 166 158 156
0.410755008459091187 -0.0690170004963874817 2.2938230037689209 161 153 151
0.374336004257202148 -0.0597929991781711578 2.09044599533081055 161 153 151
0.374199986457824707 -0.0582190006971359253 2.08968806266784668 161 153 151
0.412292987108230591 -0.0624350011348724365 2.30241203308105469 161 153 151
0.444133013486862183 -0.0635719969868659973 2.48022103309631348 160 152 149
0.408331990242004395 -0.0516729988157749176 2.28029108047485352 160 152 149
0.410771995782852173 -0.05027800053358078 2.29391598701477051 160 152 149
0.443720996379852295 -0.0322239995002746582 2.47792196273803711 155 145 143
0.517162024974822998 -0.0139610003679990768 2.8880460262298584 154 144 142
0.515523016452789307 -0.0117790000513195992 2.87889409065246582 154 144 142
0.358651995658874512 0.106356002390384674 2.00286197662353516 0 2 1
0.358637005090713501 0.107839003205299377 2.002777099609375 0 2 1
0.359048992395401001 0.110941000282764435 2.00507903099060059 0 1 0
0.404197990894317627 -0.129412993788719177 2.24788498878479004 178 170 168
0.404201000928878784 -0.114385999739170074 2.24790191650390625 173 165 163
0.409240990877151489 -0.10059799998998642 2.27592992782592773 166 158 156
0.402339011430740356 -0.0955779999494552612 2.23754501342773438 166 158 156
0.415398001670837402 -0.0900999978184700012 2.31016898155212402 166 158 156
0.371847003698348999 -0.0760459974408149719 2.06797003746032715 163 155 153
0.371928006410598755 -0.0745259970426559448 2.06841611862182617 163 155 153
0.414065003395080566 -0.0692860037088394165 2.30275511741638184 162 154 152
0.37282899022102356 -0.0593059994280338287 2.07342910766601562 162 154 152
0.374734997749328613 -0.0580609999597072601 2.08403110504150391 162 154 152
0.414254993200302124 -0.0607619993388652802 2.30381488800048828 162 154 152
0.410771995782852173 -0.0534639991819858551 2.28444409370422363 160 152 149
0.411489993333816528 -0.0518569983541965485 2.28843903541564941 160 152 149
0.412160009145736694 -0.0502390004694461823 2.29216098785400391 160 152 149
0.409790009260177612 -0.0482579991221427917 2.27898406982421875 160 152 149
0.44466400146484375 -0.0321590006351470947 2.47292590141296387 156 146 144
0.450996994972229004 -0.0307550001889467239 2.5081479549407959 156 146 144
0.538320004940032959 -0.0211440008133649826 2.99378395080566406 154 144 142
0.515694022178649902 -0.0159939993172883987 2.8679509162902832 154 144 142
0.515636026859283447 -0.0138630000874400139 2.86762690544128418 154 144 142
0.515745997428894043 -0.0117349997162818909 2.86823892593383789 154 144 142
0.51956099271774292 -0.00967600010335445404 2.88945603370666504 154 144 142
0.404839992523193359 -0.132415995001792908 2.24219298362731934 179 171 169
0.405892014503479004 -0.13109000027179718 2.2480161190032959 178 170 168
0.405595988035202026 -0.129326000809669495 2.24638009071350098 178 170 168
0.394071012735366821 -0.122409000992774963 2.18254995346069336 177 169 167
0.393186002969741821 -0.120516002178192139 2.17764401435852051 177 169 167
0.396551012992858887 -0.101971998810768127 2.19628190994262695 168 160 157
0.402056992053985596 -0.0967720001935958862 2.2267758846282959 166 158 156
0.405149996280670166 -0.0958499982953071594 2.2439110279083252 166 158 156
0.416536003351211548 -0.0899749994277954102 2.30696892738342285 166 158 156
0.410311013460159302 -0.0734390020370483398 2.27249002456665039 163 155 153
0.406847000122070312 -0.0711459964513778687 2.25330495834350586 163 155 153
0.416040986776351929 -0.0676190033555030823 2.3042299747467041 163 155 153
0.373681008815765381 -0.0576599985361099243 2.06961894035339355 163 155 153
0.374619007110595703 -0.0562629997730255127 2.07481098175048828 163 155 153
0.416628986597061157 -0.0591449998319149017 2.30748701095581055 161 153 150
0.411141008138656616 -0.0532919988036155701 2.27709102630615234 161 153 150
0.411298990249633789 -0.0516199991106987 2.27796292304992676 161 153 150
0.411403000354766846 -0.0499409995973110199 2.27854299545288086 161 153 150
0.445755988359451294 -0.0321060009300708771 2.46880102157592773 156 146 144
0.448352992534637451 -0.0304489992558956146 2.48318910598754883 156 146 144
0.538384020328521729 -0.0232740007340908051 2.98181796073913574 155 145 143
0.53946298360824585 -0.0211009997874498367 2.98779606819152832 155 145 143
0.516767024993896484 -0.0117100002244114876 2.86209392547607422 155 145 143
0.362226009368896484 0.109512001276016235 2.00617289543151855 0 2 1
0.403930008411407471 -0.131577000021934509 2.22798800468444824 179 171 169
0.404960006475448608 -0.130253002047538757 2.23366689682006836 178 170 168
0.404394000768661499 -0.128414005041122437 2.23054599761962891 178 170 168
0.393929988145828247 -0.121863998472690582 2.17282891273498535 177 169 167
0.422396004199981689 -0.115094996988773346 2.32984209060668945 172 164 161
0.403207987546920776 -0.101607002317905426 2.22400307655334473 168 160 157
0.403028994798660278 -0.0999109968543052673 2.22301793098449707 168 160 157
0.403151005506515503 -0.098288998007774353 2.22368788719177246 167 159 157
0.402157008647918701 -0.0963990017771720886 2.21820592880249023 167 159 157
0.404002994298934937 -0.0951870009303092957 2.22838997840881348 167 159 157
0.416121006011962891 -0.0912220031023025513 2.29523110389709473 167 159 157
0.416729003190994263 -0.0896480008959770203 2.29858088493347168 167 159 157
0.413273990154266357 -0.0804390013217926025 2.27952408790588379 164 156 154
0.409144014120101929 -0.0729300007224082947 2.25674605369567871 164 156 154
0.404545009136199951 -0.0704530030488967896 2.23137807846069336 163 155 153
0.403921991586685181 -0.0686900019645690918 2.22794294357299805 163 155 153
0.375189006328582764 -0.0576549991965293884 2.0694580078125 163 155 153
0.375497013330459595 -0.0561640001833438873 2.07115507125854492 163 155 153
0.37646600604057312 -0.0547670014202594757 2.07650303840637207 163 155 153
0.375661998987197876 -0.0531110018491744995 2.07206392288208008 161 153 150
0.411552995443344116 -0.053126998245716095 2.2700350284576416 161 153 150
0.410349011421203613 -0.0512900017201900482 2.26339292526245117 161 153 150
0.409153014421463013 -0.0494639985263347626 2.25679802894592285 161 153 150
0.406498998403549194 -0.0474780015647411346 2.24215793609619141 161 153 150
0.403867006301879883 -0.038897000253200531 2.22763895988464355 159 151 148
0.447412997484207153 -0.032092999666929245 2.46782994270324707 157 147 145
0.447872012853622437 -0.0302910003811120987 2.47036099433898926 157 147 145
0.44879499077796936 -0.0285149998962879181 2.47545289993286133 157 147 145
0.51922297477722168 -0.0117170000448822975 2.86391592025756836 155 145 143
0.527095973491668701 -0.00109799997881054878 2.90734195709228516 153 145 142
0.504984021186828613 0.0672219991683959961 2.78537702560424805 151 142 135
0.504275977611541748 0.0691939964890480042 2.78147292137145996 151 141 135
0.401647001504898071 -0.130299001932144165 2.20635294914245605 179 171 169
0.405815005302429199 -0.129996001720428467 2.22925209999084473 178 170 168
0.401915013790130615 -0.127105996012687683 2.20782589912414551 178 170 168
0.39637601375579834 -0.123736999928951263 2.1773979663848877 177 169 167
0.392715007066726685 -0.120991997420787811 2.1572868824005127 177 169 167
0.394865989685058594 -0.120044000446796417 2.16910696029663086 177 169 167
0.395312011241912842 -0.11856599897146225 2.17155289649963379 176 168 166
0.39568600058555603 -0.117063999176025391 2.17360997200012207 176 168 166
0.39251101016998291 -0.101710997521877289 2.15616703033447266 170 162 159
0.396472007036209106 -0.101120002567768097 2.17792892456054688 169 161 158
0.399594992399215698 -0.0986550003290176392 2.19508004188537598 168 160 157
0.398532003164291382 -0.0951410010457038879 2.18924307823181152 167 159 157
0.416783004999160767 -0.0892940014600753784 2.28950309753417969 167 159 157
0.414465010166168213 -0.0786510035395622253 2.27676892280578613 165 157 155
0.405364990234375 -0.070307999849319458 2.2267758846282959 163 155 153
0.402370989322662354 -0.0681470036506652832 2.21033096313476562 163 155 153
0.419176995754241943 -0.0675730034708976746 2.30265188217163086 163 155 153
0.375979989767074585 -0.0575410015881061554 2.06536102294921875 163 155 153
0.376926004886627197 -0.0561480000615119934 2.0705559253692627 163 155 153
0.376179993152618408 -0.054501999169588089 2.06645488739013672 163 155 153
0.376987993717193604 -0.0530809983611106873 2.0708930492401123 162 154 151
0.415022999048233032 -0.0550489984452724457 2.27983307838439941 162 154 151
0.410546004772186279 -0.0527799986302852631 2.25524091720581055 162 154 151
0.40704500675201416 -0.0490089990198612213 2.23601007461547852 162 154 151
0.401811003684997559 -0.0385410003364086151 2.20725297927856445 159 151 148
0.444896996021270752 -0.0299670007079839706 2.4439389705657959 157 147 145
0.521238029003143311 -0.0117149995639920235 2.8632969856262207 156 146 144
0.500940978527069092 0.0664120018482208252 2.75180292129516602 151 142 134
0.500352978706359863 0.0683749988675117493 2.74857401847839355 151 142 134
0.402916014194488525 -0.126904994249343872 2.20433211326599121 178 170 168
0.396021991968154907 -0.123124003410339355 2.16661310195922852 177 169 167
0.393404990434646606 -0.120711997151374817 2.15229892730712891 177 169 167
0.393433988094329834 -0.11912199854850769 2.15245294570922852 177 169 167
0.393963992595672607 -0.117682002484798431 2.15535402297973633 176 168 166
0.393761008977890015 -0.116020999848842621 2.15424489974975586 176 168 166
0.377182990312576294 -0.106537997722625732 2.06354594230651855 174 166 164
0.393101006746292114 -0.101450003683567047 2.1506340503692627 170 162 159
0.395107001066207886 -0.100362002849578857 2.16160702705383301 170 162 159
0.396975010633468628 -0.0992230027914047241 2.1718289852142334 169 161 158
0.398173004388809204 -0.0979050025343894958 2.17838406562805176 169 161 158
0.396975010633468628 -0.0943839997053146362 2.1718289852142334 168 160 158
0.41141200065612793 -0.0794259980320930481 2.25081396102905273 165 157 155
0.411884993314743042 -0.07784300297498703 2.25339698791503906 165 157 155
0.408589005470275879 -0.072240002453327179 2.23536992073059082 165 157 155
0.404621988534927368 -0.0698940008878707886 2.21366190910339355 164 156 154
0.403221011161804199 -0.0680129975080490112 2.20600199699401855 164 156 154
0.403757005929946899 -0.0418520011007785797 2.20893192291259766 161 153 150
0.402417004108428955 -0.0400779992341995239 2.20160198211669922 161 153 150
0.512746989727020264 -0.038564000278711319 2.80521297454833984 158 148 146
0.501626014709472656 0.0662320032715797424 2.74436593055725098 152 143 134
0.366214990615844727 0.220981001853942871 2.00354194641113281 0 0 0
0.395287990570068359 -0.120798997581005096 2.15384793281555176 177 169 167
0.393875002861022949 -0.118772998452186584 2.1461479663848877 177 169 167
0.392780005931854248 -0.116852998733520508 2.14017891883850098 176 168 166
0.378280013799667358 -0.106416001915931702 2.06117606163024902 174 166 164
0.400225996971130371 -0.101250998675823212 2.18075299263000488 170 162 159
0.396851003170013428 -0.0987910032272338867 2.16236400604248047 169 161 158
0.396560013294219971 -0.097112998366355896 2.16077494621276855 169 161 158
0.410356998443603516 -0.0772410035133361816 2.23595404624938965 166 158 156
0.40481799840927124 -0.0696450024843215942 2.20577597618103027 164 156 154
0.403708010911941528 -0.0678199976682662964 2.19972491264343262 164 156 154
0.423938006162643433 -0.0677869990468025208 2.30995488166809082 164 156 154
0.380008995532989502 -0.0576869994401931763 2.07059407234191895 164 156 154
0.380470991134643555 -0.0500579997897148132 2.07311201095581055 163 155 152
0.380158007144927979 -0.0484779998660087585 2.07140493392944336 163 155 152
0.379723995923995972 -0.0453489981591701508 2.06904006004333496 163 155 152
0.512377023696899414 -0.0363069996237754822 2.79184103012084961 158 148 145
0.510324001312255859 -0.0217039994895458221 2.78065395355224609 157 147 145
0.549565017223358154 0.0478020012378692627 2.99447107315063477 153 145 142
0.531943976879119873 0.0613389983773231506 2.89845800399780273 153 145 141
0.393801987171173096 -0.118271999061107635 2.1371009349822998 178 169 169
0.389822989702224731 -0.115506000816822052 2.11550807952880859 177 169 168
0.378848999738693237 -0.106146000325679779 2.05595302581787109 175 167 165
0.400683999061584473 -0.100957997143268585 2.17444610595703125 170 162 160
0.397442013025283813 -0.0985390022397041321 2.15685606002807617 170 162 159
0.396968990564346313 -0.096822001039981842 2.15428709983825684 169 161 159
0.404731005430221558 -0.0677179992198944092 2.19640994071960449 165 157 155
0.381191998720169067 -0.0591700002551078796 2.06867003440856934 163 155 153
0.381285995244979858 -0.0576470009982585907 2.06917905807495117 163 155 153
0.380995988845825195 -0.049924999475479126 2.06760501861572266 163 155 152
0.381303012371063232 -0.0484279990196228027 2.06926798820495605 163 155 152
0.381222009658813477 -0.0468810014426708221 2.0688331127166748 163 155 152
0.381191998720169067 -0.045340999960899353 2.06867003440856934 163 155 152
0.548964023590087891 -0.0343170017004013062 2.97913908958435059 159 150 144
0.508198022842407227 -0.0215259995311498642 2.75790905952453613 157 148 145
0.552492976188659668 -0.0144940000027418137 2.99829006195068359 157 147 145
0.552120983600616455 -0.010033000260591507 2.99627089500427246 157 147 145
0.552398025989532471 0.0233609993010759354 2.99777388572692871 155 147 144
0.552402973175048828 0.0456280000507831573 2.99780011177062988 153 145 142
0.53602898120880127 0.0507580004632472992 2.90894103050231934 153 145 140
0.534901976585388184 0.052806999534368515 2.90282702445983887 153 145 140
0.549655020236968994 0.0897129997611045837 2.98288798332214355 148 143 138
0.514307022094726562 0.144063994288444519 2.79105997085571289 1 5 9
0.51584702730178833 0.146575003862380981 2.79942107200622559 0 3 8
0.391579985618591309 -0.117132999002933502 2.11650896072387695 178 169 170
0.386308997869491577 -0.112455002963542938 2.08802199363708496 177 169 167
0.383087009191513062 -0.109979003667831421 2.07060694694519043 176 168 166
0.380133986473083496 -0.106077998876571655 2.05464410781860352 175 167 165
0.401217013597488403 -0.100685998797416687 2.16859889030456543 170 162 160
0.382259011268615723 -0.05909699946641922 2.0661320686340332 163 155 153
0.381702989339828491 -0.0574790015816688538 2.06312298774719238 163 155 153
0.554764986038208008 -0.0768579989671707153 2.9985349178314209 163 155 153
0.381942003965377808 -0.0498480014503002167 2.06441593170166016 163 155 153
0.381823986768722534 -0.0482989996671676636 2.06377792358398438 163 155 153
0.381825000047683716 -0.0467670001089572906 2.06378388404846191 163 155 153
0.381866008043289185 -0.0452390015125274658 2.06400489807128906 163 155 153
0.532855987548828125 -0.0267590004950761795 2.88011288642883301 159 152 143
0.552272975444793701 -0.021082000806927681 2.9850618839263916 159 152 146
0.55334097146987915 -0.0189009997993707657 2.99083495140075684 159 151 147
0.553001999855041504 -0.0166699998080730438 2.98900699615478516 159 151 148
0.538209021091461182 -0.0119019998237490654 2.90904593467712402 159 151 148
0.554933011531829834 -0.00558800017461180687 2.99943995475769043 157 149 147
0.535333991050720215 0.00105700001586228609 2.89350700378417969 156 148 145
0.55390399694442749 0.0433450005948543549 2.99388003349304199 153 145 142
0.53848797082901001 0.0507859997451305389 2.91055703163146973 153 146 139
0.535072982311248779 0.0526119992136955261 2.89209794998168945 153 146 139
0.535902976989746094 0.0548450015485286713 2.89658188819885254 153 146 139
0.377595007419586182 0.0932170003652572632 2.04092097282409668 93 93 103
0.377696990966796875 0.0977910012006759644 2.04147100448608398 14 18 29
0.377573996782302856 0.0992759987711906433 2.04080700874328613 2 5 14
0.514931023120880127 0.143659994006156921 2.78322792053222656 0 5 9
0.513981997966766357 0.145458996295928955 2.77810192108154297 0 3 8
0.514128029346466064 0.14756399393081665 2.77888798713684082 0 2 9
0.383457005023956299 -0.109644003212451935 2.0643160343170166 176 168 166
0.381175011396408081 -0.107468001544475555 2.0520329475402832 176 168 166
0.411047011613845825 -0.10767199844121933 2.21284794807434082 172 164 162
0.399580001831054688 -0.0998750030994415283 2.15111398696899414 170 162 160
0.385266989469528198 -0.0901350006461143494 2.07406210899353027 172 164 162
0.417865991592407227 -0.0843940004706382751 2.2495570182800293 167 159 157
0.38374599814414978 -0.0498830005526542664 2.0658729076385498 163 155 153
0.383888006210327148 -0.0483659990131855011 2.06663894653320312 163 155 153
0.384216010570526123 -0.0468709990382194519 2.06840300559997559 163 155 153
0.386252999305725098 -0.0455750003457069397 2.07936811447143555 163 155 153
0.530169010162353516 -0.0243970006704330444 2.85413289070129395 159 152 144
0.55674898624420166 -0.0211679991334676743 2.99722194671630859 159 152 146
0.540328025817871094 -0.0140620004385709763 2.90882492065429688 159 151 148
0.542083978652954102 -0.0119399996474385262 2.91827511787414551 159 151 148
0.541514992713928223 -0.00976200029253959656 2.91521310806274414 159 151 148
0.532934010028839111 0.00104799994733184576 2.86901593208312988 157 149 146
0.532836019992828369 0.00317799998447299004 2.86848998069763184 157 149 146
0.55526202917098999 0.0432769991457462311 2.98921895027160645 154 146 144
0.556438982486724854 0.0455939993262290955 2.99555611610412598 154 146 143
0.554795980453491211 0.0476780012249946594 2.9867091178894043 154 147 141
0.538402974605560303 0.0505749993026256561 2.89845800399780273 154 147 139
0.537405014038085938 0.056928001344203949 2.89308905601501465 154 147 139
0.516431987285614014 0.0588359981775283813 2.78018093109130859 154 147 140
0.555167973041534424 0.0721290037035942078 2.98871111869812012 153 145 140
0.554804027080535889 0.0898300036787986755 2.9867548942565918 152 145 136
0.548862993717193604 0.0910620018839836121 2.95476889610290527 152 145 136
0.378412008285522461 0.0960720032453536987 2.03715896606445312 96 93 105
0.377573996782302856 0.0973690003156661987 2.03264403343200684 65 64 75
0.378165006637573242 0.0990329980850219727 2.03582596778869629 30 32 39
0.373618006706237793 0.111288003623485565 2.01134896278381348 0 4 13
0.385224014520645142 -0.111244998872280121 2.06557202339172363 177 169 167
0.411235988140106201 -0.108929999172687531 2.20504903793334961 173 165 163
0.409121006727218628 -0.106739997863769531 2.19370698928833008 173 165 163
0.384880989789962769 -0.0896859988570213318 2.06373095512390137 172 164 162
0.383186012506484985 -0.0877650007605552673 2.05464410781860352 172 164 162
0.417201995849609375 -0.083925001323223114 2.23703908920288086 167 159 157
0.418498009443283081 -0.07918500155210495 2.24398493766784668 167 159 157
0.416020989418029785 -0.0621469989418983459 2.23070406913757324 163 155 153
0.385044991970062256 -0.0498519986867904663 2.06461191177368164 163 155 153
0.38552701473236084 -0.0483790002763271332 2.06719803810119629 163 155 153
0.385820001363754272 -0.0468799993395805359 2.06876611709594727 163 155 153
0.38609999418258667 -0.0453759990632534027 2.07026910781860352 163 155 153
0.385379999876022339 -0.0437560006976127625 2.06640505790710449 163 155 153
0.384140998125076294 -0.0420860014855861664 2.05976390838623047 163 155 153
0.535162985324859619 -0.0117399999871850014 2.86954307556152344 159 151 148
0.529442012310028076 0.00314499996602535248 2.8388679027557373 157 149 146
0.380382001399993896 0.0931570008397102356 2.03960704803466797 168 161 159
0.379983007907867432 0.0960860028862953186 2.03746700286865234 163 154 164
0.378912985324859619 0.0973249971866607666 2.03173303604125977 137 130 140
0.379622995853424072 0.0990189984440803528 2.03553891181945801 91 89 95
0.385704010725021362 -0.11400199681520462 2.05994009971618652 178 170 168
0.408847004175186157 -0.107868000864982605 2.18354201316833496 174 166 164
0.408659011125564575 -0.106196999549865723 2.18253397941589355 173 165 163
0.395475000143051147 -0.0996330007910728455 2.11212396621704102 172 164 162
0.400321006774902344 -0.0992660000920295715 2.13800597190856934 171 163 161
0.40455898642539978 -0.0971070006489753723 2.16063904762268066 170 162 160
0.38575899600982666 -0.0895339995622634888 2.06023406982421875 173 165 163
0.384317010641098022 -0.0876749977469444275 2.05253410339355469 172 164 162
0.383711010217666626 -0.0860140025615692139 2.04929399490356445 172 164 162
0.417079001665115356 -0.085221998393535614 2.22750306129455566 169 161 159
0.416137993335723877 -0.0833790004253387451 2.22248196601867676 168 160 158
0.411478012800216675 -0.0693859979510307312 2.19759106636047363 167 159 157
0.414476007223129272 -0.0682480037212371826 2.21360397338867188 167 159 157
0.413917988538742065 -0.0615880005061626434 2.21062207221984863 164 156 154
0.385657995939254761 -0.0497340001165866852 2.05969405174255371 164 156 154
0.386130005121231079 -0.0482629984617233276 2.06221699714660645 164 156 154
0.386117011308670044 -0.0467300005257129669 2.06214690208435059 164 156 154
0.386106997728347778 -0.0451969988644123077 2.06209111213684082 164 156 154
0.385939985513687134 -0.0436460003256797791 2.06120109558105469 164 156 154
0.415935009717941284 -0.0387879982590675354 2.22139811515808105 162 154 152
0.560702025890350342 -0.0411669984459877014 2.99455809593200684 159 152 145
0.523311972618103027 -0.0342699997127056122 2.79486799240112305 160 153 143
0.521443009376525879 -0.0320790000259876251 2.78488492965698242 160 153 143
0.525825977325439453 0.00311199994757771492 2.80829095840454102 158 150 147
0.559693992137908936 0.0432769991457462311 2.98917102813720703 155 147 145
0.521049022674560547 0.0506229996681213379 2.78277897834777832 155 148 138
0.520383000373840332 0.0526229999959468842 2.77922391891479492 155 148 138
0.519689977169036865 0.0546149984002113342 2.77552199363708496 155 148 140
0.521704971790313721 0.0631050020456314087 2.78628206253051758 154 146 142
0.38269999623298645 0.0933530032634735107 2.04389810562133789 152 144 140
0.381913989782333374 0.0946760028600692749 2.03969597816467285 166 156 158
0.381514996290206909 0.0960910022258758545 2.03756904602050781 174 163 170
0.380591988563537598 0.0973690003156661987 2.03264093399047852 169 160 167
0.381435006856918335 0.0990969985723495483 2.03713893890380859 149 145 149
0.381534010171890259 0.100636996328830719 2.03767108917236328 118 118 119
0.379018008708953857 0.108993999660015106 2.02423191070556641 3 7 17
0.3787040114402771 0.110405996441841125 2.02255606651306152 6 10 21
0.378376007080078125 0.111810997128486633 2.02080392837524414 5 9 21
0.387196004390716553 0.231151998043060303 2.06790804862976074 0 0 0
0.413942992687225342 -0.112052001059055328 2.20201897621154785 175 167 165
0.409121990203857422 -0.105897001922130585 2.1763761043548584 174 166 164
0.396118998527526855 -0.0978360027074813843 2.10720491409301758 172 164 162
0.385912001132965088 -0.0892160013318061829 2.05290889739990234 173 165 163
0.384086012840270996 -0.0872759968042373657 2.04319500923156738 173 165 163
0.414716988801956177 -0.0827659964561462402 2.20614099502563477 169 161 159
0.413316994905471802 -0.0677879974246025085 2.19869089126586914 167 159 157
0.384285002946853638 -0.0493610017001628876 2.04425406455993652 165 157 155
0.384090006351470947 -0.0478180013597011566 2.04321694374084473 165 157 155
0.384653985500335693 -0.0463690012693405151 2.04621601104736328 165 157 155
0.384945005178451538 -0.0448830015957355499 2.04776406288146973 165 157 155
0.383433997631072998 -0.0401609987020492554 2.03972697257995605 164 156 154
0.383888006210327148 -0.0386920012533664703 2.04214000701904297 163 155 153
0.417012006044387817 -0.0387349985539913177 2.21834611892700195 162 154 152
0.526498019695281982 -0.0364230014383792877 2.80077195167541504 161 154 146
0.520789980888366699 -0.0339699983596801758 2.77040696144104004 161 154 146
0.518819987773895264 -0.0317919999361038208 2.75992798805236816 161 154 146
0.563564002513885498 -0.0211730003356933594 2.99795007705688477 160 153 147
0.523027002811431885 0.0010160000529140234 2.78230810165405273 158 150 147
0.551710009574890137 0.0468510016798973083 2.93488907814025879 156 148 143
0.548002004623413086 0.0508660003542900085 2.91516304016113281 156 149 140
0.522260010242462158 0.0629220008850097656 2.7782280445098877 154 146 141
0.522884011268615723 0.0650629997253417969 2.78154897689819336 154 146 143
0.522569000720977783 0.0670889988541603088 2.77987194061279297 154 146 143
0.383556991815567017 0.0962240025401115417 2.04038000106811523 162 152 156
0.38111799955368042 0.109164997935295105 2.0274040699005127 1 3 12
0.380854994058609009 0.110593996942043304 2.02600407600402832 0 2 14
0.380652010440826416 0.112038999795913696 2.02492499351501465 0 1 13
0.385464012622833252 -0.116067998111248016 2.04245209693908691 179 170 169
0.381287992000579834 -0.0487830005586147308 2.0203249454498291 165 157 155
0.38085600733757019 -0.0472289994359016418 2.01803708076477051 165 157 155
0.381022006273269653 -0.0457499995827674866 2.01891708374023438 165 157 155
0.382247000932693481 -0.0443929992616176605 2.02540802955627441 165 157 155
0.415001004934310913 -0.0383969992399215698 2.1989591121673584 163 155 153
0.56550300121307373 -0.047869998961687088 2.99642205238342285 161 153 151
0.525108993053436279 -0.0341169983148574829 2.78238797187805176 161 154 146
0.51985400915145874 -0.0317299999296665192 2.754547119140625 161 154 146
0.557754993438720703 -0.0208720006048679352 2.95537209510803223 161 154 148
0.561353027820587158 -0.0187979992479085922 2.97443604469299316 161 153 149
0.563188016414642334 -0.0166420005261898041 2.98415708541870117 161 153 150
0.562820017337799072 -0.0144159998744726181 2.9822089672088623 161 153 150
0.563498973846435547 -0.0122159998863935471 2.98580598831176758 161 153 150
0.525875985622406006 -0.00105199997778981924 2.78645205497741699 159 151 148
0.52422797679901123 0.00101400003768503666 2.77771902084350586 159 151 148
0.548430979251861572 0.0463889986276626587 2.90596699714660645 156 148 144
0.519340991973876953 0.058235999196767807 2.75182294845581055 156 149 141
0.520431995391845703 0.0604070015251636505 2.75760793685913086 155 148 143
0.524861991405487061 0.0650530010461807251 2.78108310699462891 155 147 144
0.524936020374298096 0.0671280026435852051 2.78147292137145996 155 147 144
0.522737979888916016 0.068903997540473938 2.76982808113098145 155 147 144
0.38730698823928833 0.0983060002326965332 2.05221700668334961 155 148 148
0.382977008819580078 0.109265998005867004 2.02927589416503906 19 22 28
0.383053988218307495 0.110794998705387115 2.02968502044677734 0 2 11
0.382687002420425415 0.112195000052452087 2.0277409553527832 0 0 11
0.388193994760513306 -0.11795400083065033 2.04885601997375488 179 171 169
0.525092005729675293 -0.0895619988441467285 2.77138996124267578 169 161 159
0.533707022666931152 -0.0429090000689029694 2.81685900688171387 161 153 151
0.535962998867034912 -0.0409890003502368927 2.8287661075592041 160 152 150
0.518997013568878174 -0.0335879996418952942 2.73922395706176758 161 154 147
0.525891005992889404 -0.0216639991849660873 2.77561092376708984 161 153 149
0.549103021621704102 -0.014010000042617321 2.89811897277832031 161 153 150
0.546836972236633301 -0.0118079995736479759 2.88616204261779785 161 153 150
0.545548021793365479 -0.00964200031012296677 2.87935495376586914 161 153 150
0.542209982872009277 -0.00533200008794665337 2.8617401123046875 160 152 149
0.534007012844085693 -0.00315800006501376629 2.81844305992126465 160 152 149
0.526956021785736084 -0.0010499999625608325 2.78123092651367188 160 152 149
0.527423977851867676 0.00101699994411319494 2.78369903564453125 160 152 149
0.540031015872955322 0.0370309986174106598 2.85024094581604004 157 149 146
0.521854996681213379 0.0582889989018440247 2.75430488586425781 157 150 142
0.523195981979370117 0.060490000993013382 2.76138496398925781 156 149 142
0.525569021701812744 0.0628240033984184265 2.7739109992980957 156 148 143
0.525350987911224365 0.0669170022010803223 2.77275991439819336 155 147 144
0.525097012519836426 0.0689430013298988342 2.77141499519348145 155 147 145
0.527334988117218018 0.0961119979619979858 2.78322792053222656 154 147 139
0.524447023868560791 0.0976419970393180847 2.76798892021179199 154 147 139
0.385370999574661255 0.101963996887207031 2.03395795822143555 154 156 149
0.384434014558792114 0.107744000852108002 2.02900791168212891 145 146 149
0.385039001703262329 0.109422996640205383 2.03220295906066895 96 96 101
0.385428011417388916 0.111045002937316895 2.03425693511962891 44 44 51
0.384312987327575684 0.112230002880096436 2.02836990356445312 12 11 20
0.383679002523422241 0.113549001514911652 2.0250248908996582 0 0 10
0.383884996175765991 0.115115001797676086 2.02610993385314941 1 1 11
0.5293160080909729 -0.0423900000751018524 2.78277897834777832 161 153 151
0.529959022998809814 -0.0403719991445541382 2.78615903854370117 161 153 150
0.529699981212615967 -0.0382840000092983246 2.78479599952697754 161 153 150
0.542632997035980225 -0.0116720004007220268 2.85279107093811035 161 153 150
0.538689970970153809 -0.00737999984994530678 2.83205699920654297 161 153 150
0.536854982376098633 -0.00525799999013543129 2.82241106033325195 160 152 149
0.531122028827667236 -0.00312800006940960884 2.79227304458618164 160 152 149
0.531387984752655029 -0.00105500000063329935 2.7936699390411377 160 152 149
0.530982017517089844 0.00101999996695667505 2.79153299331665039 160 152 149
0.388801008462905884 0.100951001048088074 2.04404711723327637 158 156 149
0.386635005474090576 0.101898998022079468 2.03266000747680664 155 156 148
0.386040002107620239 0.103248998522758484 2.02952909469604492 155 156 149
0.385670989751815796 0.106163002550601959 2.02759003639221191 163 164 161
0.386386990547180176 0.109376996755599976 2.03135299682617188 155 154 158
0.386528998613357544 0.110927000641822815 2.03209996223449707 124 123 129
0.38617900013923645 0.112334996461868286 2.03026294708251953 83 82 89
0.38593098521232605 0.113770000636577606 2.02895808219909668 41 40 48
0.384903013706207275 0.114969998598098755 2.02355408668518066 12 11 20
0.386712014675140381 -0.116590000689029694 2.02515411376953125 179 171 169
0.434980005025863647 -0.0956109985709190369 2.27792811393737793 173 165 163
0.529531002044677734 -0.0422420017421245575 2.77307891845703125 162 154 152
0.526023983955383301 -0.0399160012602806091 2.75471305847167969 162 154 152
0.527145028114318848 -0.0379510000348091125 2.76058101654052734 162 154 151
0.548550009727478027 -0.0160210002213716507 2.87267494201660156 161 153 150
0.546782016754150391 -0.0138419996947050095 2.8634181022644043 161 153 150
0.545975029468536377 -0.0116980001330375671 2.85919404029846191 161 153 150
0.545706987380981445 -0.00956999976187944412 2.8577880859375 161 153 150
0.531813979148864746 -0.00105099997017532587 2.78503298759460449 160 152 149
0.533940017223358154 0.00102099997457116842 2.79616808891296387 160 152 149
0.530987977981567383 0.0629779994487762451 2.78070998191833496 156 148 143
0.53118598461151123 0.0671340003609657288 2.78174304962158203 156 148 145
0.531059980392456055 0.0691839978098869324 2.78108310699462891 156 148 145
0.531222999095916748 0.0712720006704330444 2.78194093704223633 156 148 146
0.53059697151184082 0.091826997697353363 2.77866005897521973 155 148 140
0.390722006559371948 0.0843370035290718079 2.04615402221679688 154 147 139
0.387659013271331787 0.100262999534606934 2.03011488914489746 141 139 130
0.387302011251449585 0.101677998900413513 2.02824497222900391 140 140 130
0.386765003204345703 0.103041000664234161 2.02543497085571289 146 146 137
0.386732012033462524 0.104535996913909912 2.02525711059570312 151 151 144
0.387244999408721924 0.106181003153324127 2.02794694900512695 151 150 146
0.387315988540649414 0.107707999646663666 2.0283210277557373 156 154 152
0.386750012636184692 0.109053999185562134 2.02535390853881836 168 164 165
0.386871010065078735 0.110592998564243317 2.02598690986633301 169 165 168
0.387205004692077637 0.112195000052452087 2.02773594856262207 149 145 151
0.386523991823196411 0.113500997424125671 2.02417302131652832 108 104 111
0.386218994855880737 0.114914000034332275 2.02257299423217773 59 56 63
0.452596008777618408 -0.113127000629901886 2.36099600791931152 174 166 164
0.433748990297317505 -0.0512740015983581543 2.26267910003662109 165 157 155
0.548568010330200195 -0.0138339996337890625 2.86163806915283203 161 153 150
0.547583997249603271 -0.0116870002821087837 2.8565061092376709 161 153 150
0.558835029602050781 0.0573629997670650482 2.91519999504089355 158 151 143
0.534650027751922607 0.0673099979758262634 2.78903603553771973 156 148 145
0.53263700008392334 0.0691210031509399414 2.77853703498840332 156 148 145
0.388743013143539429 0.10316699743270874 2.02790093421936035 153 153 142
0.388751000165939331 0.10467500239610672 2.02794694900512695 151 149 141
0.388375997543334961 0.106078997254371643 2.02598810195922852 152 149 143
0.388464987277984619 0.107607997953891754 2.02645206451416016 153 150 146
0.388664007186889648 0.109168998897075653 2.02748894691467285 155 151 149
0.388761013746261597 0.1107029989361763 2.02799797058105469 164 160 161
0.387793004512786865 0.111929997801780701 2.02294588088989258 173 168 171
