ply
format ascii 1.0
element vertex 642
property float x
property float y
property float z
property uchar red
property uchar green
property uchar blue
end_header
0.35067400336265564 -0.0812349990010261536 2.30206394195556641 165 158 150
0.350762993097305298 -0.0795449987053871155 2.30265188217163086 164 157 149
0.350423991680145264 -0.0777589976787567139 2.30042409896850586 163 156 148
0.323606014251708984 -0.0528730005025863647 2.12436890602111816 157 150 143
0.335027992725372314 -0.0498390011489391327 2.19935107231140137 164 161 158
0.429334014654159546 0.0177769996225833893 2.81844305992126465 0 1 8
0.430519014596939087 0.0199250001460313797 2.82622098922729492 0 1 7
0.435041993856430054 0.022255999967455864 2.85591697692871094 0 1 6
0.351435005664825439 -0.0793109983205795288 2.29586505889892578 164 157 149
0.349595993757247925 -0.0771989971399307251 2.28385210037231445 163 156 148
0.33426898717880249 -0.0494850017130374908 2.18372297286987305 147 145 140
0.321655988693237305 -0.0288880001753568649 2.10132408142089844 163 160 154
0.437115013599395752 -0.0222890004515647888 2.85560107231140137 152 145 135
0.431483000516891479 0.0219669993966817856 2.81880402565002441 0 1 6
0.307117998600006104 0.0439499989151954651 2.0063478946685791 0 2 9
0.309807002544403076 0.0578650012612342834 2.02391910552978516 0 2 9
0.307637989521026611 0.0634310021996498108 2.00974798202514648 0 2 9
0.362877011299133301 -0.0902590006589889526 2.35916399955749512 168 161 153
0.363263994455337524 -0.0886010006070137024 2.36168193817138672 167 160 152
0.363440990447998047 -0.0868889987468719482 2.36283302307128906 167 160 152
0.351518988609313965 -0.0789460018277168274 2.28532195091247559 165 158 150
0.348710000514984131 -0.0766320005059242249 2.26706504821777344 164 157 149
0.331521987915039062 -0.061648000031709671 2.1553189754486084 161 154 146
0.329192996025085449 -0.0596249997615814209 2.14017891883850098 160 153 145
0.332318991422653198 -0.0489579997956752777 2.16049790382385254 151 149 144
0.33197098970413208 -0.0473040007054805756 2.15824007987976074 150 149 145
0.321245014667510986 -0.028712000697851181 2.08850598335266113 157 154 148
0.431901991367340088 -0.021916000172495842 2.80791592597961426 152 145 137
0.427192002534866333 -0.0175519995391368866 2.77729606628417969 148 141 133
0.429646998643875122 -0.0155779998749494553 2.79325699806213379 149 142 134
0.429895013570785522 0.0134760001674294472 2.79486799240112305 0 2 8
0.42932400107383728 0.0196780003607273102 2.79115390777587891 0 1 8
0.430195003747940063 0.0217950008809566498 2.79681801795959473 0 1 6
0.308329999446868896 0.0573109984397888184 2.00453901290893555 0 2 9
0.308443993330001831 0.0647789984941482544 2.00528097152709961 0 2 9
0.3561440110206604 -0.0813120007514953613 2.30426907539367676 166 159 151
0.325488001108169556 -0.0602350011467933655 2.10592198371887207 161 154 147
0.326882004737854004 -0.0589220002293586731 2.11493706703186035 160 153 146
0.327037990093231201 -0.0573789998888969421 2.11594605445861816 160 153 145
0.431169003248214722 -0.0197020005434751511 2.78968310356140137 151 144 136
0.429942011833190918 0.0113469995558261871 2.78174304962158203 0 4 8
0.431670010089874268 0.0134669998660683632 2.79292106628417969 0 1 8
0.430952012538909912 0.0196579992771148682 2.78827691078186035 0 1 8
0.430171996355056763 0.0485639981925487518 2.78322792053222656 0 2 9
0.322986990213394165 0.241353005170822144 2.08974003791809082 0 1 5
0.356995999813079834 -0.081116996705532074 2.29873108863830566 166 159 151
0.352750003337860107 -0.0767780020833015442 2.27138805389404297 165 158 150
0.326974004507064819 -0.0586570017039775848 2.10541391372680664 161 154 148
0.326570987701416016 -0.0570229999721050262 2.10282206535339355 160 153 147
0.433241009712219238 -0.0197020005434751511 2.78968310356140137 151 144 138
0.434855014085769653 -0.0176960006356239319 2.80007290840148926 150 143 137
0.455927014350891113 0.00761399976909160614 2.93575692176818848 3 4 8
0.429598003625869751 0.0112840002402663231 2.76622104644775391 1 5 11
0.43210899829864502 0.013415999710559845 2.78238797187805176 0 0 7
0.323327988386154175 0.240453004837036133 2.08194208145141602 0 1 5
0.355695009231567383 -0.0787440016865730286 2.27945399284362793 166 159 151
0.324696987867355347 -0.0626080036163330078 2.08080506324768066 164 157 151
0.325960993766784668 -0.0612999983131885529 2.08890199661254883 163 156 150
0.325985997915267944 -0.0597530007362365723 2.0890660285949707 162 155 149
0.326303988695144653 -0.0582580007612705231 2.09109997749328613 161 154 148
0.432056993246078491 -0.0195550005882978439 2.76881289482116699 151 144 138
0.433661013841629028 -0.0175630003213882446 2.77909398078918457 151 144 138
0.435250014066696167 -0.0155560001730918884 2.78927898406982422 150 143 135
0.439072996377944946 0.0302869994193315506 2.81377696990966797 0 2 9
0.43997800350189209 0.03872700035572052 2.81957602500915527 0 2 9
0.323942005634307861 -0.0637009963393211365 2.0661320686340332 165 158 152
0.325421988964080811 -0.0609089992940425873 2.07556891441345215 164 157 151
0.326858013868331909 -0.059629000723361969 2.08472490310668945 163 156 151
0.317533999681472778 0.199306994676589966 2.02525711059570312 0 0 7
0.322627007961273193 0.236536994576454163 2.04804110527038574 0 1 5
0.465380012989044189 -0.00975499954074621201 2.91303110122680664 151 144 133
0.465038001537322998 -0.00326099991798400879 2.91089200973510742 151 143 131
0.320181995630264282 0.0573000013828277588 2.00416803359985352 0 2 9
0.457666993141174316 -0.130274996161460876 2.85149502754211426 177 170 164
0.459295004606246948 -0.128612995147705078 2.86163806915283203 176 169 161
0.478944003582000732 -0.127464994788169861 2.98406004905700684 176 169 163
0.401526004076004028 -0.075272001326084137 2.50171208381652832 167 159 156
0.408475011587142944 -0.0312060005962848663 2.54500508308410645 157 150 142
0.478691995143890381 0.0232420004904270172 2.98249197006225586 4 4 10
0.321081012487411499 0.0586810000240802765 2.00049710273742676 0 2 9
0.321117997169494629 0.0601739995181560516 2.00072503089904785 0 2 9
0.455911010503768921 -0.129177004098892212 2.82747101783752441 177 170 164
0.409215986728668213 -0.0820159986615180969 2.53787398338317871 168 160 157
0.47460600733757019 0.0229380000382661819 2.94341111183166504 36 36 41
0.472155988216400146 0.0249940007925033569 2.92822098731994629 5 7 15
0.454791009426116943 -0.128269001841545105 2.80758905410766602 177 170 164
0.373319000005722046 -0.0813250020146369934 2.30463695526123047 171 163 160
0.470142006874084473 0.0226179994642734528 2.90235495567321777 89 89 91
0.378010988235473633 -0.102675996720790863 2.32294511795043945 176 169 161
0.371080011129379272 -0.0787750035524368286 2.28035497665405273 171 163 160
0.370330989360809326 -0.0769250020384788513 2.27574992179870605 170 162 159
0.370173007249832153 -0.061686001718044281 2.27478194236755371 165 157 154
0.370007991790771484 -0.059969000518321991 2.27376699447631836 165 157 154
0.366486996412277222 -0.0527070015668869019 2.25212907791137695 165 157 154
0.369854986667633057 -0.0498160012066364288 2.27283000946044922 163 155 153
0.40416601300239563 -0.01938600093126297 2.48367810249328613 157 150 142
0.401409000158309937 -0.0174209997057914734 2.46673488616943359 156 149 141
0.451866000890731812 -0.0113610001280903816 2.77680301666259766 153 146 138
0.368853002786636353 -0.0762699991464614868 2.25637006759643555 171 163 160
0.368948012590408325 -0.0612020008265972137 2.25695109367370605 166 158 155
0.368324011564254761 -0.0594250001013278961 2.25313305854797363 165 157 154
0.44951900839805603 -0.0112509997561573982 2.74982500076293945 154 147 139
0.32737499475479126 0.00965599995106458664 2.00263690948486328 154 148 134
0.463281005620956421 -0.128889992833137512 2.82119488716125488 177 170 164
0.379575997591018677 -0.0811989977955818176 2.30105495452880859 173 165 162
0.480105012655258179 0.0659170001745223999 2.91048002243041992 0 1 8
0.387582004070281982 -0.10292699933052063 2.32861709594726562 179 172 164
0.380504995584487915 -0.0789730027318000793 2.28610110282897949 172 164 161
0.378621011972427368 -0.0549269989132881165 2.27478194236755371 168 160 157
0.375230014324188232 -0.0527609996497631073 2.25440597534179688 167 159 156
0.377784997224807739 -0.0562409982085227966 2.25967597961425781 169 161 158
0.376621007919311523 -0.0142360003665089607 2.25271201133728027 160 153 145
0.375265002250671387 -0.0157820004969835281 2.23467302322387695 161 154 146
0.416321009397506714 -0.114598996937274933 2.46824193000793457 180 172 168
0.345811009407043457 -0.457134008407592773 2.04121994972229004 184 177 168
0.507614970207214355 -0.130214005708694458 2.99629807472229004 177 170 164
0.41605299711227417 -0.0793640017509460449 2.45583796501159668 173 165 162
0.465887993574142456 -0.0561890006065368652 2.74999904632568359 165 157 153
0.377386987209320068 -0.0140779996290802956 2.22760009765625 162 155 147
0.507903993129730225 -0.00335899996571242809 2.99800801277160645 157 150 144
0.507951974868774414 -0.00113200000487267971 2.99829006195068359 157 150 145
0.396364003419876099 -0.08219899982213974 2.3294060230255127 175 167 164
0.392839014530181885 -0.0797540023922920227 2.30869197845458984 174 166 163
0.391281992197036743 -0.0777290016412734985 2.29953908920288086 174 166 163
0.41104501485824585 -0.0296209994703531265 2.41568493843078613 164 157 149
0.502463996410369873 -0.00330800004303455353 2.95294904708862305 158 151 145
0.50880199670791626 0.0566180013120174408 2.99019694328308105 26 27 31
0.379191994667053223 -0.498551011085510254 2.21880197525024414 185 178 167
0.402509003877639771 -0.0866099968552589417 2.35524106025695801 177 169 166
0.395186007022857666 -0.0815989971160888672 2.31239008903503418 176 168 165
0.392706006765365601 -0.0793799981474876404 2.29787492752075195 175 167 164
0.402332007884979248 -0.0778290033340454102 2.3542020320892334 174 166 163
0.398936003446578979 -0.0667679980397224426 2.33432888984680176 171 163 160
0.403537005186080933 -0.037723001092672348 2.36125302314758301 164 157 149
0.394468992948532104 -0.0351609997451305389 2.30819296836853027 164 157 149
0.373679995536804199 0.0105429999530315399 2.18655109405517578 160 149 147
0.496785014867782593 0.0464040003716945648 2.90688204765319824 165 167 159
0.378347992897033691 -0.495288997888565063 2.2042849063873291 185 178 167
0.405714988708496094 -0.0904330015182495117 2.36372494697570801 177 169 166
0.399940997362136841 -0.0856849998235702515 2.33008694648742676 177 169 166
0.395963013172149658 -0.0831189975142478943 2.30691194534301758 176 168 165
0.396021008491516113 -0.0814170017838478088 2.30724501609802246 176 168 165
0.391930997371673584 -0.0771849974989891052 2.28341794013977051 174 166 163
0.400523990392684937 -0.0771439969539642334 2.33348298072814941 174 166 163
0.399399012327194214 -0.0751980021595954895 2.32692790031433105 173 165 162
0.397668004035949707 -0.0662679970264434814 2.31684398651123047 171 163 160
0.390691012144088745 -0.0617239996790885925 2.27619099617004395 171 163 160
0.465911000967025757 -0.0292520001530647278 2.7144320011138916 164 157 150
0.426468998193740845 -0.0193930007517337799 2.48463988304138184 163 156 148
0.486411988735198975 0.0305039994418621063 2.83387088775634766 160 153 144
0.493375003337860107 0.0458859987556934357 2.87443995475769043 158 159 151
0.378232985734939575 -0.49300500750541687 2.19411897659301758 185 178 167
0.405640006065368652 -0.0900269970297813416 2.35310196876525879 178 170 167
0.401652991771697998 -0.0874119997024536133 2.32997894287109375 177 169 166
0.397219002246856689 -0.0847349986433982849 2.30425596237182617 177 169 166
0.395956993103027344 -0.0827599987387657166 2.29693508148193359 176 168 165
0.396335989236831665 -0.0811309963464736938 2.29913091659545898 176 168 165
0.359593987464904785 -0.0596649982035160065 2.08599090576171875 172 164 161
0.360253989696502686 -0.0582230016589164734 2.08982300758361816 171 163 160
0.4559440016746521 -0.0560059994459152222 2.64491891860961914 167 159 156
0.402090996503829956 -0.0286010000854730606 2.33251595497131348 164 157 153
0.426459997892379761 -0.0174720007926225662 2.47387790679931641 164 157 149
0.367058992385864258 0.010266999714076519 2.12929701805114746 160 151 147
0.378881007432937622 -0.491730004549026489 2.18844509124755859 185 178 169
0.398416996002197266 -0.0863350033760070801 2.30128788948059082 177 169 166
0.39470401406288147 -0.0838370025157928467 2.27983903884887695 177 169 166
0.395451992750167847 -0.0822990015149116516 2.28416204452514648 177 169 166
0.395586013793945312 -0.0806299969553947449 2.28493595123291016 176 168 165
0.394935011863708496 -0.0788030028343200684 2.28117704391479492 175 167 164
0.395301014184951782 -0.0754840001463890076 2.28328990936279297 174 166 163
0.432595014572143555 -0.0491980016231536865 2.4987030029296875 166 158 155
0.394223004579544067 -0.0346859991550445557 2.27706599235534668 165 157 154
0.398234009742736816 -0.0299139991402626038 2.30023002624511719 165 157 154
0.429850995540618896 -0.0156909991055727005 2.48285388946533203 164 157 148
0.397403985261917114 -0.0076870000921189785 2.29543590545654297 161 154 146
0.396216988563537598 -0.0854919999837875366 2.27880501747131348 178 170 167
0.39543798565864563 -0.0836339965462684631 2.27432703971862793 177 169 166
0.395498991012573242 -0.0819580033421516418 2.27467489242553711 177 169 166
0.398317992687225342 -0.0808399990200996399 2.29088807106018066 176 168 165
0.396416991949081421 -0.0787609964609146118 2.27995610237121582 175 167 164
0.39578700065612793 -0.0769449993968009949 2.27633190155029297 175 167 164
0.396717995405197144 -0.0754309967160224915 2.28168606758117676 174 166 163
0.396456003189086914 -0.0736880004405975342 2.280181884765625 174 166 163
0.39494699239730835 -0.0700329989194869995 2.27150201797485352 175 167 164
0.396099001169204712 -0.0600840002298355103 2.27812695503234863 171 163 160
0.400168001651763916 -0.052154000848531723 2.30152988433837891 168 160 157
0.399533003568649292 -0.0401239991188049316 2.29787492752075195 166 158 155
0.393130987882614136 -0.0344420000910758972 2.26105308532714844 166 158 155
0.396748989820480347 -0.0313699990510940552 2.28186202049255371 166 158 155
0.398930013179779053 -0.0298379994928836823 2.29440808296203613 166 158 155
0.400725990533828735 -0.0282600000500679016 2.30473709106445312 166 158 155
0.431744009256362915 -0.0193809997290372849 2.48313593864440918 165 158 152
0.432137995958328247 -0.0138609996065497398 2.48539996147155762 163 156 146
0.39702799916267395 -0.00764600001275539398 2.28346896171569824 161 154 146
0.397453010082244873 -0.0870840027928352356 2.27619099617004395 179 171 168
0.393472999334335327 -0.0845390036702156067 2.25339698791503906 178 170 167
0.397475004196166992 -0.0803259983658790588 2.27631807327270508 177 169 166
0.393828988075256348 -0.0762389972805976868 2.25543594360351562 175 167 164
0.398185998201370239 -0.075387999415397644 2.28038811683654785 175 167 164
0.393121004104614258 -0.0694120004773139954 2.25137901306152344 175 167 164
0.394594013690948486 -0.0679939985275268555 2.25981593132019043 175 167 164
0.393191993236541748 -0.0593900009989738464 2.25178694725036621 172 164 161
0.436634987592697144 -0.0510930009186267853 2.50058388710021973 168 160 157
0.391871988773345947 -0.0341859981417655945 2.24422502517700195 166 158 155
0.396730989217758179 -0.0295470003038644791 2.27205300331115723 166 158 155
0.432375013828277588 -0.0138100003823637962 2.47618293762207031 164 157 147
0.432047992944717407 -0.0119610000401735306 2.47431492805480957 163 156 147
0.397507995367050171 -0.00762300007045269012 2.2765040397644043 162 155 147
0.390132009983062744 -0.0702449977397918701 2.22479891777038574 176 168 165
0.394333004951477051 -0.0676610022783279419 2.24875593185424805 176 168 165
0.467503011226654053 -0.0663539990782737732 2.66602301597595215 172 164 161
0.436414003372192383 -0.0966549962759017944 2.47823190689086914 180 172 169
0.39815598726272583 -0.0764259994029998779 2.26098203659057617 177 169 166
0.39187699556350708 -0.0669559985399246216 2.22532200813293457 176 168 165
0.441027998924255371 -0.0511710010468959808 2.50443506240844727 168 160 157
0.403351008892059326 -0.0787919983267784119 2.28086209297180176 177 169 166
0.404917985200881958 -0.0787670016288757324 2.28014111518859863 177 169 166
0.445964992046356201 -0.0529550015926361084 2.50082206726074219 170 162 159
0.447037011384963989 -0.0512199997901916504 2.50683498382568359 170 162 159
0.373757004737854004 -0.0597000010311603546 2.08721303939819336 175 167 164
0.446440011262893677 -0.0527920015156269073 2.49310302734375 171 163 160
0.447750002145767212 -0.0510889999568462372 2.50041890144348145 171 163 160
0.538854002952575684 -0.664448022842407227 2.99675202369689941 184 177 169
0.538443982601165771 -0.661718010902404785 2.99447107315063477 184 177 169
0.538926005363464355 -0.642274975776672363 2.99715304374694824 182 175 167
0.537353992462158203 -0.629303991794586182 2.98841190338134766 182 174 169
0.449158012866973877 -0.0510380007326602936 2.49792098999023438 171 163 160
0.362751990556716919 0.0666690021753311157 2.01738905906677246 153 152 160
0.363198995590209961 0.068250998854637146 2.01987290382385254 119 119 126
0.363148987293243408 0.0697420015931129456 2.01959609985351562 69 71 81
0.363647013902664185 0.0713400021195411682 2.02236294746398926 45 49 59
0.362266004085540771 0.0725649967789649963 2.01468491554260254 47 51 62
0.367316991090774536 0.0902670025825500488 2.04277396202087402 0 4 14
0.367278009653091431 0.0917750000953674316 2.04255890846252441 0 5 15
0.367395997047424316 0.0933220013976097107 2.04321694374084473 0 4 14
0.54123997688293457 -0.664645016193389893 2.99763989448547363 184 177 169
0.541049003601074219 -0.662185013294219971 2.99658203125 184 177 169
0.541570007801055908 -0.642771005630493164 2.99946689605712891 182 175 167
0.540114998817443848 -0.629934012889862061 2.99140691757202148 182 174 168
0.376836001873016357 -0.0627970024943351746 2.08709502220153809 177 169 166
0.361721009016036987 0.0602540001273155212 2.00337696075439453 169 163 172
0.362708985805511475 0.0619099996984004974 2.00885295867919922 169 162 173
0.363860011100769043 0.0680940002202987671 2.01522397994995117 169 168 173
0.364248007535934448 0.0696649998426437378 2.01737594604492188 156 158 164
0.363400012254714966 0.0709979981184005737 2.0126800537109375 139 142 150
0.362910002470016479 0.0723949968814849854 2.0099639892578125 134 137 145
0.363478004932403564 0.0740040019154548645 2.01311206817626953 152 155 163
0.367761999368667603 0.0900050029158592224 2.03683805465698242 3 10 18
0.368681997060775757 0.0917470008134841919 2.04193210601806641 0 5 14
0.36896398663520813 0.0933350026607513428 2.04349303245544434 0 5 13
0.369087010622024536 0.0948840007185935974 2.04417300224304199 0 4 13
0.36790001392364502 0.0960929989814758301 2.03760290145874023 0 5 12
0.367886006832122803 0.0976020023226737976 2.03752493858337402 0 7 13
0.543181002140045166 -0.664295971393585205 2.99606490135192871 184 177 169
0.543027997016906738 -0.661884009838104248 2.99521899223327637 184 177 169
0.543541014194488525 -0.642467021942138672 2.99804902076721191 182 175 167
0.407700002193450928 -0.0509589985013008118 2.2487800121307373 173 165 162
0.362937003374099731 0.0602089986205101013 2.00187993049621582 169 163 167
0.363691002130508423 0.0618240013718605042 2.00603699684143066 163 156 162
0.366073012351989746 0.065228000283241272 2.01917695999145508 171 165 170
0.369962990283966064 0.0916879996657371521 2.04063200950622559 32 36 41
0.370272010564804077 0.0932819992303848267 2.04233908653259277 12 16 21
0.370335012674331665 0.0963319987058639526 2.04268288612365723 0 5 11
0.370186001062393188 0.0978100001811981201 2.04185891151428223 0 5 11
0.370052993297576904 0.100807003676891327 2.04112911224365234 1 7 13
0.545772016048431396 -0.66696697473526001 2.99807000160217285 184 177 169
0.545319974422454834 -0.664189994335174561 2.99558901786804199 184 177 169
0.54528498649597168 -0.661922991275787354 2.99539494514465332 184 177 169
0.41000598669052124 -0.0527109988033771515 2.2522730827331543 175 167 164
0.364672005176544189 0.0602490007877349854 2.00323796272277832 170 164 163
0.364652007818222046 0.0617339983582496643 2.00313210487365723 162 155 156
0.366966009140014648 0.0651199966669082642 2.01584005355834961 160 154 155
0.367359012365341187 0.0666889995336532593 2.01800394058227539 166 160 159
0.36719098687171936 0.068157002329826355 2.01707696914672852 168 163 162
0.367316991090774536 0.0696789994835853577 2.01777100563049316 172 169 170
0.367803990840911865 0.0742729976773262024 2.02044510841369629 171 169 172
0.369542986154556274 0.0761319994926452637 2.02999591827392578 162 162 164
0.37023499608039856 0.0777859985828399658 2.03379988670349121 153 153 155
0.370799005031585693 0.0794169977307319641 2.03689908981323242 156 156 158
0.371630012989044189 0.0902099981904029846 2.04146599769592285 156 157 160
0.371686995029449463 0.0917399972677230835 2.04177689552307129 127 129 131
0.371751010417938232 0.0932729989290237427 2.0421299934387207 102 105 107
0.371733993291854858 0.0947849974036216736 2.04203200340270996 70 75 77
0.371829003095626831 0.096326000988483429 2.0425560474395752 43 48 51
0.371948987245559692 0.0978749990463256836 2.04321694374084473 21 26 30
0.371358990669250488 0.0992349982261657715 2.03997492790222168 5 9 13
0.371740013360977173 0.100854001939296722 2.04206705093383789 0 3 7
0.37227100133895874 0.102517001330852509 2.04498505592346191 0 3 7
0.371607005596160889 0.105365999042987823 2.04133701324462891 0 4 9
0.371425986289978027 0.106830000877380371 2.04034209251403809 0 4 9
0.548039019107818604 -0.667016029357910156 2.99829006195068359 184 177 169
0.548183023929595947 -0.664964020252227783 2.99907708168029785 184 177 169
0.365848004817962646 0.0572250001132488251 2.00153493881225586 159 154 147
0.365720003843307495 0.0586909987032413483 2.00083398818969727 159 155 148
0.365707993507385254 0.0601750016212463379 2.00076889991760254 161 153 149
0.366676002740859985 0.0618240013718605042 2.00606489181518555 161 153 149
0.36715400218963623 0.0633969977498054504 2.00868105888366699 164 157 153
0.368169993162155151 0.0650679990649223328 2.01423501968383789 169 162 158
0.367830991744995117 0.0665030032396316528 2.01238203048706055 171 163 159
0.368073999881744385 0.0680430009961128235 2.01371192932128906 168 163 160
0.368488997220993042 0.0696170032024383545 2.01598405838012695 167 161 160
0.368238985538482666 0.0710659995675086975 2.01461410522460938 169 163 163
0.36842799186706543 0.0725999996066093445 2.01564908027648926 172 167 167
0.368954986333847046 0.074202999472618103 2.01853203773498535 172 168 167
0.370357006788253784 0.0759899988770484924 2.02620100975036621 167 164 163
0.371206998825073242 0.077673003077507019 2.03085494041442871 159 155 154
0.372352004051208496 0.0794259980320930481 2.03711795806884766 154 151 150
0.372756987810134888 0.0825409963726997375 2.03933095932006836 152 151 149
0.373102009296417236 0.0841339975595474243 2.04121994972229004 157 156 154
0.373297989368438721 0.0856949985027313232 2.04229497909545898 167 167 165
0.372929006814956665 0.0947029963135719299 2.04027509689331055 162 164 164
0.373382002115249634 0.0963359996676445007 2.04275298118591309 128 132 132
0.373335003852844238 0.0978410020470619202 2.04249691963195801 92 96 97
0.373297989368438721 0.0993480011820793152 2.04229211807250977 58 62 64
0.37315601110458374 0.100826002657413483 2.04151296615600586 36 39 41
0.372604995965957642 0.102191999554634094 2.03850102424621582 21 24 27
0.373201996088027954 0.103872001171112061 2.04176688194274902 9 13 17
0.373326987028121948 0.105424001812934875 2.04245209693908691 2 6 10
0.37301298975944519 0.106850996613502502 2.04073500633239746 1 5 9
0.455238014459609985 -0.0764769986271858215 2.4804999828338623 179 171 168
0.454667001962661743 -0.0745399966835975647 2.47738909721374512 178 170 167
0.409359991550445557 -0.0522020012140274048 2.23052000999450684 176 168 165
0.367511987686157227 0.057252001017332077 2.00249910354614258 162 158 149
0.367635995149612427 0.0587599985301494598 2.00317502021789551 159 155 145
0.367482006549835205 0.0602219998836517334 2.00233793258666992 160 153 144
0.367653995752334595 0.0617379993200302124 2.00327491760253906 163 156 148
0.368658006191253662 0.0633990019559860229 2.00874590873718262 169 162 154
0.368506014347076416 0.0648640021681785583 2.00791501998901367 171 163 155
0.368535995483398438 0.0663610026240348816 2.00807809829711914 168 161 153
0.36866798996925354 0.0678770020604133606 2.00879597663879395 164 157 151
0.368584007024765015 0.0693529993295669556 2.00834298133850098 167 157 155
0.368431985378265381 0.0708160027861595154 2.00751304626464844 167 158 155
0.368923991918563843 0.0724039971828460693 2.01019597053527832 167 159 156
0.369825989007949829 0.0740770027041435242 2.0151069164276123 168 160 157
0.371390998363494873 0.0758939981460571289 2.02363395690917969 169 161 158
0.372364997863769531 0.0776000022888183594 2.02894401550292969 169 162 159
0.372732996940612793 0.07918500155210495 2.03095102310180664 169 162 159
0.37420499324798584 0.0825269967317581177 2.03896999359130859 172 168 164
0.374428987503051758 0.0840919986367225647 2.04018998146057129 173 169 165
0.374826997518539429 0.0856980010867118835 2.04236102104187012 172 168 164
0.375223010778427124 0.0873069986701011658 2.04451394081115723 171 167 163
0.374935001134872437 0.0887579992413520813 2.04294610023498535 171 168 164
0.374812006950378418 0.0902450010180473328 2.04227805137634277 176 173 169
0.374585002660751343 0.0977709963917732239 2.04103899002075195 162 166 164
0.374576985836029053 0.0992849990725517273 2.04099798202514648 141 145 144
0.374953985214233398 0.100901998579502106 2.04305195808410645 120 124 124
0.374502986669540405 0.102297000586986542 2.04059600830078125 94 98 99
0.374119013547897339 0.103706002235412598 2.03850102424621582 64 68 70
0.374603003263473511 0.105356000363826752 2.04114007949829102 38 41 44
0.455787986516952515 -0.0744230002164840698 2.47348904609680176 177 169 166
0.420055985450744629 -0.0652019977569580078 2.27957701683044434 176 168 166
0.410445988178253174 -0.050475001335144043 2.22742700576782227 175 167 164
0.369684994220733643 0.0662999972701072693 2.00622296333312988 161 152 143
0.369208008050918579 0.0677020028233528137 2.00363302230834961 159 150 143
0.36929398775100708 0.0692069977521896362 2.00409793853759766 160 150 144
0.369720011949539185 0.0707769989967346191 2.00641107559204102 162 151 146
0.370072990655899048 0.0723360031843185425 2.00832509994506836 161 150 146
0.376740008592605591 0.0857879966497421265 2.04450702667236328 170 163 158
0.376055985689163208 0.0901800021529197693 2.04079294204711914 165 160 155
0.375891000032424927 0.103776998817920685 2.0399019718170166 147 150 151
0.371042013168334961 0.115898996591567993 2.01358294486999512 0 6 14
0.457347989082336426 -0.0743779987096786499 2.47198700904846191 176 168 166
0.416088014841079712 -0.060986001044511795 2.24898004531860352 176 168 166
0.556783974170684814 -0.666821002960205078 2.99741101264953613 183 176 169
0.556555986404418945 -0.664322972297668457 2.9961860179901123 183 176 169
0.556908011436462402 -0.662515997886657715 2.99807906150817871 183 176 169
0.458669990301132202 -0.0742949992418289185 2.46922397613525391 177 169 167
0.41809999942779541 -0.0610359981656074524 2.25081396102905273 177 169 167
0.413195013999938965 -0.0520589984953403473 2.22441005706787109 175 167 164
0.459995001554489136 -0.0742129981517791748 2.46649003028869629 177 169 167
0.419690996408462524 -0.0610239990055561066 2.25038290023803711 177 169 167
0.52469402551651001 0.182833001017570496 2.81340909004211426 0 4 8
0.417043000459671021 -0.0140760000795125961 2.22731304168701172 170 162 159
0.544372022151947021 0.0744839981198310852 2.90734195709228516 168 160 157
0.544237017631530762 0.0766249969601631165 2.90662097930908203 168 160 157
0.545342028141021729 0.0789439976215362549 2.91252398490905762 168 160 157
0.543999016284942627 0.0809070020914077759 2.90535211563110352 167 159 156
0.542470991611480713 0.117262996733188629 2.89718794822692871 168 160 157
0.541128993034362793 0.119120001792907715 2.89002299308776855 168 160 157
0.54193800687789917 0.125746995210647583 2.89434289932250977 168 160 157
0.521681010723114014 0.181061998009681702 2.78615903854370117 0 3 6
0.524226009845733643 0.184024006128311157 2.79974699020385742 0 5 4
0.545199990272521973 0.076457001268863678 2.90025901794433594 168 160 157
0.545481979846954346 0.0786520019173622131 2.90175795555114746 168 160 157
0.538276970386505127 0.180404007434844971 2.84098100662231445 3 4 9
0.535757005214691162 0.181659996509552002 2.82768011093139648 3 5 9
0.536131978034973145 0.181077003479003906 2.81861209869384766 19 19 23
0.525390982627868652 -0.0112570002675056458 2.75139689445495605 170 162 159
0.539808988571166992 0.181610003113746643 2.8269040584564209 88 88 88
0.574829995632171631 0.116915002465248108 2.99863696098327637 171 163 160
0.574190974235534668 0.119009003043174744 2.99530291557312012 171 163 160
0.528174996376037598 -0.0153069999068975449 2.74462294578552246 173 165 162
0.527114987373352051 -0.0132409995421767235 2.73911690711975098 172 164 161
0.527818024158477783 -0.0112220002338290215 2.74277091026306152 171 163 160
0.558667004108428955 0.106720000505447388 2.9030759334564209 172 164 161
0.559300005435943604 0.111157998442649841 2.90636110305786133 172 164 161
0.532876014709472656 -0.0112859997898340225 2.7584071159362793 172 164 161
0.554422974586486816 0.0628679990768432617 2.86994504928588867 173 165 162
0.553591012954711914 0.0649020001292228699 2.86563611030578613 173 165 162
0.562340974807739258 0.0940359979867935181 2.91092991828918457 173 165 162
0.55629199743270874 0.107996001839637756 2.87961792945861816 173 165 162
0.556234002113342285 0.110123999416828156 2.87931704521179199 173 165 162
0.558811008930206299 0.112782999873161316 2.89265990257263184 173 165 162
0.53267902135848999 -0.0193990003317594528 2.74682807922363281 175 167 164
0.562577009201049805 0.0958700031042098999 2.90100002288818359 174 166 163
0.553309023380279541 0.109125003218650818 2.85320711135864258 174 166 163
0.541182994842529297 0.181354999542236328 2.79067897796630859 163 158 154
0.396474003791809082 0.17538200318813324 2.04446601867675781 0 4 10
0.464433997869491577 -0.0576069988310337067 2.3857719898223877 178 170 167
0.541885972023010254 -0.0341329984366893768 2.78363895416259766 178 170 167
0.541387975215911865 -0.0320359990000724792 2.78108310699462891 177 169 166
0.535609006881713867 -0.0194320008158683777 2.75139689445495605 176 168 165
0.538745999336242676 -0.017489999532699585 2.76750993728637695 176 168 165
0.541190981864929199 -0.0155039997771382332 2.78007006645202637 175 167 164
0.54089200496673584 -0.0134319998323917389 2.77853703498840332 174 166 163
0.536486029624938965 -0.0112749999389052391 2.75589990615844727 173 165 162
0.529375016689300537 -0.00910599995404481888 2.71936988830566406 173 165 162
0.521591007709503174 0.0586929991841316223 2.67938494682312012 174 166 163
0.521139025688171387 0.0606309995055198669 2.67706489562988281 174 166 163
0.521398007869720459 0.0626510009169578552 2.67839503288269043 174 166 163
0.521337985992431641 0.0646319985389709473 2.67808389663696289 174 166 163
0.520963013172149658 0.06657399982213974 2.67616009712219238 174 166 163
0.541100978851318359 0.182701006531715393 2.77960991859436035 163 158 154
0.543244004249572754 -0.0155039997771382332 2.78001189231872559 175 167 164
0.537106990814208984 -0.0132870003581047058 2.74860310554504395 174 166 163
0.534784972667694092 -0.0111969998106360435 2.73671889305114746 174 166 163
0.544867992401123047 0.179131001234054565 2.78832101821899414 165 161 150
0.543570995330810547 0.180770993232727051 2.78168296813964844 174 170 159
0.541562974452972412 -0.0480270013213157654 2.75049805641174316 179 171 169
0.540391981601715088 -0.0477430000901222229 2.73423504829406738 178 170 168
0.593327999114990234 -0.665358006954193115 2.99083495140075684 182 174 169
0.592191994190216064 -0.661867022514343262 2.98510909080505371 182 174 169
0.591350018978118896 -0.658712029457092285 2.98086690902709961 182 175 168
0.570285975933074951 0.0587010011076927185 2.87468600273132324 177 169 166
0.434107005596160889 -0.489850014448165894 2.18007588386535645 182 174 168
0.595055997371673584 -0.664807021617889404 2.9883580207824707 182 175 165
0.594317972660064697 -0.661764979362487793 2.98465108871459961 182 175 165
0.593777000904083252 -0.658949017524719238 2.98193788528442383 182 175 167
0.596261024475097656 -0.432617008686065674 2.99440789222717285 184 177 167
0.594501018524169922 -0.429122000932693481 2.98557090759277344 184 177 167
0.545997977256774902 -0.0519520007073879242 2.7419888973236084 178 170 168
0.547870993614196777 -0.050085999071598053 2.75139689445495605 178 170 168
0.548416018486022949 -0.0480910018086433411 2.75413608551025391 178 170 168
0.546908974647521973 -0.0459179989993572235 2.74656391143798828 178 170 168
0.547677993774414062 -0.0439400002360343933 2.75042891502380371 178 170 168
0.547810018062591553 -0.0419070012867450714 2.75109004974365234 178 170 168
0.545159995555877686 -0.0335699990391731262 2.73778295516967773 177 170 164
0.546783983707427979 -0.0316310003399848938 2.74593496322631836 177 170 164
0.547537028789520264 -0.0296320002526044846 2.74972009658813477 177 170 164
0.550981998443603516 -0.0277629997581243515 2.76702189445495605 177 170 164
0.55185699462890625 -0.0257489997893571854 2.77141499519348145 177 170 164
0.552929997444152832 -0.0237360000610351562 2.77680301666259766 177 170 164
0.555752992630004883 -0.0217840000987052917 2.79097700119018555 176 168 164
0.55242002010345459 -0.0195930004119873047 2.77424097061157227 176 168 165
0.55734097957611084 -0.0156100001186132431 2.79895591735839844 176 168 165
0.545687019824981689 -0.0112119996920228004 2.74042701721191406 176 168 165
0.537617027759552002 0.0651590004563331604 2.69990205764770508 177 169 166
0.535470008850097656 0.066895999014377594 2.6891179084777832 177 169 166
0.434843003749847412 -0.488857001066207886 2.17565608024597168 182 175 167
0.596742987632751465 -0.664214015007019043 2.98569488525390625 182 175 164
0.596207976341247559 -0.661403000354766846 2.9830169677734375 182 175 164
0.595906972885131836 -0.658854007720947266 2.98150801658630371 182 175 165
0.494614005088806152 -0.377752989530563354 2.47470998764038086 184 177 167
0.494491994380950928 -0.370308995246887207 2.47410011291503906 184 177 169
0.494812995195388794 -0.368710994720458984 2.4757080078125 184 177 169
0.490456998348236084 -0.358173996210098267 2.45391106605529785 184 177 169
0.483729004859924316 -0.351462006568908691 2.42024707794189453 184 177 167
0.597770988941192627 -0.432099997997283936 2.99083495140075684 184 177 167
0.596144020557403564 -0.4287090003490448 2.98269510269165039 184 177 167
0.494215011596679688 -0.35173499584197998 2.47271299362182617 183 176 169
0.546280026435852051 -0.0517860017716884613 2.73321008682250977 179 171 169
0.547371983528137207 -0.0498550012707710266 2.73867201805114746 179 171 169
0.547930002212524414 -0.0478690005838871002 2.74146795272827148 179 171 169
0.546838998794555664 -0.0457420013844966888 2.73600506782531738 179 171 169
0.547086000442504883 -0.0437289997935295105 2.73724198341369629 179 171 169
0.547698020935058594 -0.0417429991066455841 2.74030709266662598 179 171 169
0.548601984977722168 -0.0397729985415935516 2.74482893943786621 179 171 168
0.543696999549865723 -0.0313349999487400055 2.72028589248657227 178 170 165
0.547869980335235596 -0.0295400004833936691 2.74116706848144531 178 170 165
0.54960101842880249 -0.0275909993797540665 2.74982500076293945 178 170 165
0.549088001251220703 -0.0255239997059106827 2.74726104736328125 178 170 165
0.550294995307922363 -0.0235350001603364944 2.75329804420471191 178 170 165
0.549229979515075684 -0.0214489996433258057 2.74796795845031738 176 168 165
0.541980981826782227 -0.0110950004309415817 2.7116999626159668 176 168 165
0.537836015224456787 0.0509519986808300018 2.6909639835357666 177 169 166
0.539255976676940918 0.0530899986624717712 2.69806694984436035 177 169 166
0.541248977184295654 0.0552980005741119385 2.70803689956665039 177 169 166
0.541046023368835449 0.0572879984974861145 2.70702195167541504 177 169 166
0.54039299488067627 0.0592270009219646454 2.70375394821166992 177 169 166
0.539641022682189941 0.0611499994993209839 2.69999194145202637 177 169 166
0.538730025291442871 0.0650509968400001526 2.6954340934753418 177 169 166
0.537617981433868408 0.0669149979948997498 2.68987011909484863 177 169 166
0.538110017776489258 0.0689759999513626099 2.69233298301696777 177 169 166
0.539542019367218018 0.0711650028824806213 2.69949793815612793 177 169 166
0.435822010040283203 -0.488144010305404663 2.17248201370239258 182 175 167
0.598742008209228516 -0.663971006870269775 2.98460102081298828 182 175 164
0.598010003566741943 -0.660944998264312744 2.98095202445983887 182 175 164
0.597763001918792725 -0.658459007740020752 2.97972202301025391 182 175 165
0.492908000946044922 -0.365931004285812378 2.45704293251037598 184 177 169
0.488366007804870605 -0.355325996875762939 2.43440008163452148 184 177 169
0.485287994146347046 -0.351289987564086914 2.41905808448791504 184 177 167
0.598589003086090088 -0.428873002529144287 2.98383998870849609 184 177 168
0.548774003982543945 -0.0396380014717578888 2.73552489280700684 179 171 169
0.542689979076385498 -0.0311609990894794464 2.70519495010375977 178 170 167
0.545499980449676514 -0.0293029993772506714 2.71920108795166016 178 170 167
0.546540975570678711 -0.0253120008856058121 2.72439289093017578 178 170 167
0.549480020999908447 -0.0234130006283521652 2.73904299736022949 178 170 167
0.549194991588592529 -0.0213680006563663483 2.73762106895446777 177 169 166
0.550800979137420654 -0.0153120001778006554 2.74562597274780273 176 168 165
0.541853010654449463 -0.0110510000959038734 2.70102095603942871 176 168 165
0.538748025894165039 0.014944000169634819 2.68554592132568359 178 170 167
0.537567019462585449 0.0586990006268024445 2.67965602874755859 177 169 166
0.536675989627838135 0.0605890005826950073 2.67522001266479492 177 169 166
0.536424994468688965 0.0625469982624053955 2.6739659309387207 177 169 166
0.536476016044616699 0.064539000391960144 2.67422008514404297 177 169 166
0.53571397066116333 0.066431000828742981 2.67041993141174316 177 169 166
0.535673975944519043 0.0684090033173561096 2.67022299766540527 177 169 166
0.600957989692687988 -0.663971006870269775 2.98460102081298828 182 175 165
0.600040018558502197 -0.660741984844207764 2.98003792762756348 182 175 165
0.599472999572753906 -0.657907009124755859 2.97722411155700684 182 175 165
0.487666010856628418 -0.35350799560546875 2.42194604873657227 184 177 169
0.485359996557235718 -0.350046008825302124 2.41049003601074219 184 177 167
0.485626012086868286 -0.34844699501991272 2.41181588172912598 184 177 167
0.483938992023468018 -0.345450997352600098 2.40343809127807617 184 177 168
0.48325800895690918 -0.343181997537612915 2.40005302429199219 184 177 169
0.541333973407745361 -0.0309689994901418686 2.68848299980163574 179 171 168
0.546580970287322998 -0.0292530003935098648 2.71454310417175293 179 171 168
0.449584007263183594 -0.0141110001131892204 2.23281693458557129 177 169 166
0.425336986780166626 0.00861699972301721573 2.11239409446716309 178 170 167
0.477993011474609375 0.0414219982922077179 2.37390708923339844 177 169 166
0.535516977310180664 0.0582600012421607971 2.65959310531616211 177 169 166
0.534583985805511475 0.060130000114440918 2.65495991706848145 177 169 166
0.419176995754241943 -0.464507997035980225 2.07414793968200684 182 175 166
0.603174984455108643 -0.663971006870269775 2.98460102081298828 182 175 166
0.6022530198097229 -0.660741984844207764 2.98003792762756348 182 175 166
0.601444005966186523 -0.657643973827362061 2.97603511810302734 182 175 166
0.495833009481430054 -0.37633100152015686 2.45345592498779297 184 177 168
0.496504008769989014 -0.365891009569168091 2.45677495002746582 184 177 169
0.491277992725372314 -0.354817986488342285 2.43091797828674316 184 177 169
0.488144993782043457 -0.350760996341705322 2.41541409492492676 184 177 167
0.546477019786834717 -0.0291399993002414703 2.70404911041259766 179 171 168
0.586381018161773682 0.0743350014090538025 2.90149998664855957 177 169 166
0.585107028484344482 0.0763240009546279907 2.89519596099853516 177 169 166
0.419288009405136108 -0.462929993867874146 2.06710100173950195 182 175 167
0.605391979217529297 -0.663971006870269775 2.98460102081298828 182 175 167
0.60446697473526001 -0.660741984844207764 2.98003792762756348 182 175 167
0.603654980659484863 -0.657643973827362061 2.97603511810302734 182 175 167
0.495725005865097046 -0.376686006784439087 2.4439389705657959 184 177 169
0.497893005609512329 -0.376509994268417358 2.45462608337402344 184 177 168
0.49740898609161377 -0.374323010444641113 2.45224308967590332 184 177 167
0.500584006309509277 -0.369379997253417969 2.4678959846496582 184 177 169
0.497774988412857056 -0.365485012531280518 2.45404601097106934 184 177 169
0.495337992906570435 -0.358253985643386841 2.44203090667724609 184 177 169
0.492722004652023315 -0.354557007551193237 2.42913293838500977 184 177 169
0.495416998863220215 -0.347425997257232666 2.44242000579833984 182 175 169
0.548120975494384766 -0.055213000625371933 2.70225000381469727 179 171 169
0.547336995601654053 -0.0310830008238554001 2.69838905334472656 179 171 169
0.586048007011413574 0.0589979998767375946 2.88923501968383789 177 169 166
0.584994018077850342 0.0610340014100074768 2.88404011726379395 177 169 166
0.582715988159179688 0.0629300028085708618 2.87280607223510742 177 169 166
0.582267999649047852 0.0650139972567558289 2.87059593200683594 177 169 166
0.581772983074188232 0.0670889988541603088 2.86815690994262695 177 169 166
0.581035017967224121 0.069132000207901001 2.8645179271697998 177 169 166
0.582610011100769043 0.071452997624874115 2.87228298187255859 177 169 166
0.582892000675201416 0.0736220031976699829 2.87367391586303711 177 169 166
0.581875026226043701 0.0756239965558052063 2.86865997314453125 177 169 166
0.58173900842666626 0.0777370035648345947 2.86799097061157227 177 169 166
0.607068002223968506 0.0944589972496032715 2.99286389350891113 177 169 166
0.419328987598419189 -0.461286008358001709 2.05976390838623047 182 175 168
0.607608973979949951 -0.663971006870269775 2.98460102081298828 182 175 167
0.606679975986480713 -0.660741984844207764 2.98003792762756348 182 175 167
0.605865001678466797 -0.657643973827362061 2.97603511810302734 182 175 167
0.496818989515304565 -0.376139998435974121 2.44039797782897949 184 177 169
0.499525994062423706 -0.376367002725601196 2.45369291305541992 184 177 168
0.502130985260009766 -0.369170010089874268 2.46649003028869629 184 177 169
0.49990999698638916 -0.365713000297546387 2.45557999610900879 184 177 169
0.442836999893188477 -0.312651008367538452 2.17523193359375 182 175 166
0.445437014102935791 -0.312862008810043335 2.18800711631774902 182 175 168
0.558600008487701416 -0.019378000870347023 2.74386501312255859 178 170 167
0.563951015472412109 -0.0154489995911717415 2.77015304565429688 178 170 167
0.56661301851272583 -0.0134549997746944427 2.78322792053222656 178 170 167
0.584760010242462158 0.0650539994239807129 2.87236404418945312 177 169 166
0.584702014923095703 0.0671809986233711243 2.87208008766174316 177 169 166
0.583985984325408936 0.0692289993166923523 2.86856508255004883 177 169 166
0.583481013774871826 0.0712980031967163086 2.86608099937438965 177 169 166
0.584712982177734375 0.0735820010304450989 2.87213492393493652 177 169 166
0.583706974983215332 0.075585000216960907 2.86719107627868652 177 169 166
0.583243012428283691 0.0776529982686042786 2.86491608619689941 177 169 166
0.606849014759063721 0.0962949991226196289 2.98086690902709961 177 169 166
0.608229994773864746 0.0987330004572868347 2.98765110969543457 177 169 166
0.608878016471862793 0.1277180016040802 2.99083495140075684 177 170 160
0.609492003917694092 0.130070000886917114 2.99385309219360352 177 170 161
0.608878016471862793 0.132161006331443787 2.99083495140075684 177 170 162
0.419708997011184692 -0.460025995969772339 2.05413603782653809 182 175 169
0.609826028347015381 -0.663971006870269775 2.98460102081298828 182 175 169
0.608893990516662598 -0.660741984844207764 2.98003792762756348 182 175 169
0.608075976371765137 -0.657643973827362061 2.97603511810302734 182 175 169
0.49476701021194458 -0.373225003480911255 2.4214789867401123 184 177 169
0.498802989721298218 -0.37445598840713501 2.44123411178588867 184 177 168
0.500059008598327637 -0.36449199914932251 2.44738197326660156 183 176 168
0.444227010011672974 -0.310878008604049683 2.17413210868835449 182 175 167
0.563942015171051025 -0.0153930000960826874 2.76003599166870117 178 170 167
0.561930000782012939 -0.0132950004190206528 2.75018692016601562 178 170 167
0.560312986373901367 -0.0112199997529387474 2.74227309226989746 178 170 167
0.603139996528625488 0.126054003834724426 2.95187902450561523 177 170 160
0.602954983711242676 0.128207996487617493 2.95097494125366211 177 170 161
0.421162992715835571 -0.45994800329208374 2.05378508567810059 182 174 169
0.612043023109436035 -0.663971006870269775 2.98460102081298828 182 174 169
0.611106991767883301 -0.660741984844207764 2.98003792762756348 182 174 169
0.61028599739074707 -0.657643973827362061 2.97603511810302734 182 174 169
0.493990987539291382 -0.371289998292922974 2.40892601013183594 184 177 169
0.501783013343811035 -0.373510986566543579 2.44692206382751465 184 177 167
0.503682971000671387 -0.367628008127212524 2.45618796348571777 184 177 169
0.500154972076416016 -0.363240987062454224 2.43898391723632812 183 176 168
0.493802011013031006 -0.351473003625869751 2.4080049991607666 182 175 167
0.431432008743286133 -0.303954988718032837 2.10385894775390625 182 175 165
0.429224997758865356 -0.30084499716758728 2.09309601783752441 182 175 166
0.522399008274078369 -0.362367004156112671 2.5474550724029541 182 174 169
0.564974009990692139 -0.0194579996168613434 2.75507307052612305 178 170 167
0.564759016036987305 -0.0174049995839595795 2.75402188301086426 178 170 167
0.564651012420654297 -0.015355999581515789 2.75349593162536621 178 170 167
0.562730014324188232 -0.0132659999653697014 2.74412894248962402 178 170 167
0.560710012912750244 -0.0111870002001523972 2.73428010940551758 178 170 167
0.597173988819122314 0.126517996191978455 2.91209292411804199 177 170 161
0.49258500337600708 -0.368896991014480591 2.39340090751647949 184 177 169
0.504523992538452148 -0.365092009305953979 2.45141005516052246 183 176 168
0.422904998064041138 -0.296871989965438843 2.05483794212341309 182 175 165
0.423774003982543945 -0.29595300555229187 2.05905890464782715 182 175 166
0.502175986766815186 -0.107850000262260437 2.4400019645690918 180 172 169
0.501938998699188232 -0.105988003313541412 2.43884801864624023 180 172 169
0.564040005207061768 -0.0193550009280443192 2.74058890342712402 178 170 168
0.562753021717071533 -0.0152489999309182167 2.73433995246887207 178 170 167
0.560757994651794434 -0.0131710004061460495 2.72464394569396973 178 170 167
0.50362098217010498 -0.372182995080947876 2.43822288513183594 184 177 167
0.50480198860168457 -0.369424998760223389 2.4439389705657959 184 177 169
0.505930006504058838 -0.368431985378265381 2.44940090179443359 184 177 169
0.506184995174407959 -0.366797000169754028 2.45063495635986328 184 177 169
0.505280971527099609 -0.364324986934661865 2.4462590217590332 183 176 168
0.416568011045455933 -0.289873987436294556 2.01676797866821289 182 175 166
0.563650012016296387 -0.0192719995975494385 2.72884607315063477 178 169 169
0.563154995441436768 -0.0152049995958805084 2.72645092010498047 178 170 167
0.552576005458831787 0.0665509998798370361 2.67523407936096191 178 170 167
