ply
format ascii 1.0
element vertex 684
property float x
property float y
property float z
property uchar red
property uchar green
property uchar blue
end_header
0.279541999101638794 -0.0578510016202926636 2.39585494995117188 0 0 9
0.277873009443283081 -0.0521989986300468445 2.38155102729797363 0 0 8
0.277561008930206299 -0.0468389987945556641 2.3788759708404541 0 0 7
0.27182498574256897 -0.0389490015804767609 2.32972002029418945 0 1 3
0.269106000661849976 -0.0317069999873638153 2.30641388893127441 0 1 3
0.267704993486404419 -0.0281339995563030243 2.29440808296203613 1 0 3
0.265527993440628052 -0.0262150000780820847 2.27574992179870605 1 0 3
0.300790011882781982 0.0124310003593564034 2.57796502113342285 0 1 5
0.296317011117935181 0.0160179995000362396 2.53963208198547363 0 1 3
0.295150995254516602 0.017834000289440155 2.52963900566101074 0 1 3
0.294972002506256104 0.019701000303030014 2.52809810638427734 0 1 3
0.271894007921218872 0.0268140006810426712 2.33030891418457031 0 1 6
0.254301995038986206 0.0768840014934539795 2.17952990531921387 0 1 6
0.254029989242553711 0.0897390022873878479 2.1772010326385498 0 1 6
0.253381013870239258 0.0911229997873306274 2.17164206504821777 0 1 6
0.253843009471893311 0.092904999852180481 2.17560291290283203 0 1 6
0.254909992218017578 0.0949179977178573608 2.18474292755126953 0 1 6
0.257999002933502197 0.102637998759746552 2.21122097969055176 0 1 6
0.257431000471115112 0.104051001369953156 2.20635294914245605 0 1 6
0.255176007747650146 0.104763999581336975 2.18702507019042969 0 1 6
0.253578007221221924 0.105722002685070038 2.17332291603088379 0 1 6
0.254245996475219727 0.107619002461433411 2.17905402183532715 0 1 6
0.269493013620376587 0.120935000479221344 2.30972599983215332 0 1 5
0.268734008073806763 0.122305996716022491 2.30322599411010742 0 1 5
0.266256988048553467 0.131347998976707458 2.28199505805969238 0 1 5
0.244855999946594238 0.128583997488021851 2.09857392311096191 0 1 6
0.244700998067855835 0.13006100058555603 2.09724307060241699 0 1 6
0.244927003979682922 0.13330000638961792 2.09918403625488281 0 1 6
0.245250999927520752 0.135037004947662354 2.1019589900970459 0 1 6
0.245945006608963013 0.13698500394821167 2.10790896415710449 0 1 6
0.245370000600814819 0.13822600245475769 2.10297703742980957 0 1 6
0.263323992490768433 0.156721994280815125 2.25685596466064453 0 1 6
0.266694009304046631 0.172309994697570801 2.28574204444885254 0 1 6
0.24905000627040863 0.17835099995136261 2.13451790809631348 0 1 2
0.249630004167556763 0.180354997515678406 2.13948893547058105 0 2 1
0.270155996084213257 -0.267462998628616333 2.30076694488525391 178 169 172
0.275676995515823364 -0.16132199764251709 2.34778404235839844 182 175 169
0.276399999856948853 -0.159996002912521362 2.35394001007080078 182 175 169
0.277633011341094971 -0.158953994512557983 2.36444211006164551 182 175 169
0.280137985944747925 -0.155072003602981567 2.3857719898223877 179 172 166
0.279529005289077759 -0.15296599268913269 2.38058900833129883 177 170 164
0.279307007789611816 -0.151078000664710999 2.37869501113891602 176 169 163
0.279092013835906982 -0.149195998907089233 2.37686705589294434 174 167 161
0.278905987739562988 -0.147332996129989624 2.37528610229492188 173 166 160
0.278975993394851685 -0.145604997873306274 2.37587594985961914 173 165 161
0.278082013130187988 -0.143379002809524536 2.36826395988464355 168 160 158
0.277043998241424561 -0.141091004014015198 2.35942506790161133 167 159 159
0.276764005422592163 -0.139198005199432373 2.35704207420349121 166 157 158
0.276115000247955322 -0.137125000357627869 2.3515160083770752 165 156 155
0.274967014789581299 -0.131337001919746399 2.34174108505249023 161 153 148
0.275968998670578003 -0.130070000886917114 2.35027289390563965 158 153 147
0.276405990123748779 -0.128527000546455383 2.35399293899536133 155 151 143
0.276787012815475464 -0.126954004168510437 2.35723590850830078 159 159 151
0.276998013257980347 -0.125297993421554565 2.35903501510620117 158 159 154
0.276991009712219238 -0.123543001711368561 2.35897493362426758 123 125 123
0.277186989784240723 -0.121876999735832214 2.36064696311950684 61 62 68
0.27786099910736084 -0.120416000485420227 2.36638593673706055 13 15 26
0.279547005891799927 -0.119378000497817993 2.38074493408203125 1 2 18
0.279951989650726318 -0.117779999971389771 2.38419604301452637 0 3 21
0.281219989061355591 -0.116535000503063202 2.39499306678771973 4 11 30
0.281417995691299438 -0.11483599990606308 2.39667701721191406 5 17 35
0.281100988388061523 -0.112929001450538635 2.39397311210632324 12 25 42
0.282411009073257446 -0.111668996512889862 2.40513300895690918 25 39 53
0.282397001981735229 -0.109876997768878937 2.40501689910888672 34 48 59
0.28115999698638916 -0.107616998255252838 2.39447903633117676 34 49 57
0.281183004379272461 -0.105847001075744629 2.39467692375183105 31 46 52
0.2804889976978302 -0.103811003267765045 2.3887639045715332 29 44 50
0.283796012401580811 -0.1032399982213974 2.4169309139251709 28 43 48
0.283755004405975342 -0.101429998874664307 2.41658401489257812 25 39 44
0.28916400671005249 -0.0978759974241256714 2.46264505386352539 19 34 37
0.283123999834060669 -0.0707580000162124634 2.41120505332946777 0 2 15
0.283407986164093018 -0.0690359994769096375 2.41362404823303223 1 3 16
0.282050013542175293 -0.0669210031628608704 2.40205907821655273 1 3 16
0.282660007476806641 -0.0652780011296272278 2.407257080078125 1 3 16
0.282321006059646606 -0.0634139999747276306 2.40437006950378418 0 3 15
0.280191004276275635 -0.061163000762462616 2.3862299919128418 0 2 14
0.280997008085250854 -0.0595620013773441315 2.39309501647949219 0 1 12
0.281015008687973022 -0.0577879995107650757 2.39324808120727539 0 0 11
0.281028002500534058 -0.0560129992663860321 2.39335489273071289 0 0 10
0.280873000621795654 -0.0542050004005432129 2.39203405380249023 0 0 11
0.279130011796951294 -0.0521030016243457794 2.37719202041625977 0 0 11
0.279036998748779297 -0.0485550016164779663 2.37639808654785156 0 0 9
0.27955201268196106 -0.046877000480890274 2.38078403472900391 0 0 8
0.273570001125335693 -0.0406819991767406464 2.32984209060668945 5 6 10
0.272044003009796143 -0.03873400017619133 2.31684398651123047 3 4 6
0.272482991218566895 -0.0370730012655258179 2.32058596611022949 0 1 3
0.271017998456954956 -0.0334450006484985352 2.3081059455871582 1 2 5
0.270792007446289062 -0.0317040011286735535 2.3061830997467041 1 2 6
0.27316400408744812 0.000850000011269003153 2.32638406753540039 0 0 7
0.298774987459182739 0.0122689995914697647 2.54450011253356934 0 1 5
0.294342994689941406 0.0158110000193119049 2.50675392150878906 0 1 3
0.293570011854171753 0.0176270008087158203 2.50016593933105469 0 1 2
0.293799012899398804 0.0194990001618862152 2.50211906433105469 0 1 1
0.272832006216049194 0.0250109992921352386 2.32355690002441406 0 1 5
0.253973007202148438 0.0746920034289360046 2.16294598579406738 0 1 6
0.253376990556716919 0.0889419987797737122 2.1578679084777832 0 1 6
0.252828985452651978 0.0903490036725997925 2.15320301055908203 0 1 6
0.255921006202697754 0.0946919992566108704 2.17952990531921387 0 1 6
0.259680002927780151 0.101010002195835114 2.21154594421386719 0 1 6
0.258372008800506592 0.102136000990867615 2.20040607452392578 0 1 6
0.257652014493942261 0.103482000529766083 2.19427895545959473 0 1 6
0.253744006156921387 0.103517003357410431 2.16098999977111816 0 1 6
0.252875000238418579 0.104762002825737 2.153594970703125 0 1 6
0.253244012594223022 0.106517001986503601 2.15673589706420898 0 1 6
0.262091994285583496 0.111896000802516937 2.23208808898925781 0 1 6
0.264063000679016113 0.114408001303672791 2.24887204170227051 0 1 6
0.265336006879806519 0.116637997329235077 2.25971794128417969 0 1 6
0.266903012990951538 0.119015000760555267 2.27306294441223145 0 1 6
0.267538994550704956 0.120990999042987823 2.27847504615783691 0 1 6
0.265184998512268066 0.131668999791145325 2.25843000411987305 0 1 6
0.264999985694885254 0.133254006505012512 2.25685596466064453 0 1 6
0.265091985464096069 0.134976997971534729 2.25763797760009766 0 1 6
0.265278011560440063 0.136749997735023499 2.25922489166259766 0 1 6
0.252696990966796875 0.14465099573135376 2.15207695960998535 0 1 6
0.261741012334823608 0.154795005917549133 2.22909688949584961 0 1 6
0.264452993869781494 0.17312699556350708 2.25219488143920898 0 1 6
0.264405012130737305 0.174768000841140747 2.25178694725036621 0 1 6
0.262477010488510132 0.175154998898506165 2.23536992073059082 0 1 6
0.250584989786148071 0.173558995127677917 2.13408708572387695 0 1 6
0.250768005847930908 0.180031001567840576 2.1356511116027832 0 1 1
0.240115001797676086 0.227063998579978943 2.04492402076721191 1 0 5
0.239491000771522522 0.231018006801605225 2.03960704803466797 0 0 5
0.239975005388259888 0.233003005385398865 2.04372906684875488 0 0 5
0.241362005472183228 0.235877007246017456 2.05554008483886719 0 0 5
0.282258987426757812 -0.157038003206253052 2.38873291015625 180 172 168
0.282283008098602295 -0.15527699887752533 2.3889310359954834 179 171 167
0.2819100022315979 -0.153299003839492798 2.3857719898223877 177 169 166
0.281414002180099487 -0.151261001825332642 2.38158106803894043 176 168 164
0.281810998916625977 -0.149702996015548706 2.38493704795837402 174 166 163
0.281471997499465942 -0.147753000259399414 2.3820650577545166 173 165 161
0.280833005905151367 -0.145652994513511658 2.37665796279907227 173 165 161
0.280997991561889648 -0.143971994519233704 2.37805390357971191 169 161 159
0.279971987009048462 -0.141686007380485535 2.36937189102172852 168 159 159
0.278863996267318726 -0.13937300443649292 2.35999798774719238 167 158 157
0.278032004833221436 -0.137208998203277588 2.35295796394348145 166 157 156
0.277289986610412598 -0.131613999605178833 2.34667491912841797 162 154 149
0.27822500467300415 -0.130309000611305237 2.35458803176879883 159 154 146
0.278614997863769531 -0.128739997744560242 2.35788989067077637 153 150 141
0.27888798713684082 -0.127112999558448792 2.36019802093505859 160 159 151
0.279323995113372803 -0.125556007027626038 2.3638920783996582 171 171 165
0.278878986835479736 -0.123603001236915588 2.36012005805969238 156 156 155
0.279536992311477661 -0.122137002646923065 2.36568999290466309 106 106 110
0.280827999114990234 -0.120935998857021332 2.37662100791931152 53 52 62
0.281558990478515625 -0.119480997323989868 2.38280391693115234 20 19 33
0.282451003789901733 -0.118083998560905457 2.39035201072692871 3 3 19
0.283257991075515747 -0.116640999913215637 2.39718294143676758 3 8 26
0.283715993165969849 -0.115046001970767975 2.40106105804443359 3 12 30
0.283596992492675781 -0.113214999437332153 2.40005302429199219 9 19 35
0.284215986728668213 -0.11167600005865097 2.4052879810333252 24 35 48
0.284134000539779663 -0.109857998788356781 2.40459799766540527 38 49 59
0.284305989742279053 -0.108136996626853943 2.40605401992797852 41 53 60
0.283809006214141846 -0.106164000928401947 2.40184998512268066 37 49 55
0.283455997705459595 -0.102467998862266541 2.39885592460632324 32 44 49
0.292326003313064575 -0.100161999464035034 2.47392797470092773 19 31 36
0.291945993900299072 -0.0981969982385635376 2.47071194648742676 13 25 29
0.284303992986679077 -0.0884779989719390869 2.40603804588317871 14 25 33
0.281282007694244385 -0.0857689976692199707 2.38046097755432129 4 13 23
0.285878986120223999 -0.0727950036525726318 2.41936206817626953 0 2 15
0.286181986331939697 -0.0710730031132698059 2.42192506790161133 0 2 15
0.286379992961883545 -0.0693219974637031555 2.4235999584197998 0 2 15
0.286861985921859741 -0.0676349997520446777 2.42768597602844238 0 2 15
0.286716997623443604 -0.0657989978790283203 2.42646002769470215 1 3 15
0.285394996404647827 -0.0637020021677017212 2.41527104377746582 0 3 16
0.285528987646102905 -0.0619370006024837494 2.41640305519104004 0 3 15
0.28553500771522522 -0.06014300137758255 2.41645503044128418 0 2 14
0.285342991352081299 -0.0583089999854564667 2.41482806205749512 1 1 12
0.285382002592086792 -0.0565229989588260651 2.41515588760375977 1 1 12
0.285019010305404663 -0.0546590015292167664 2.41208410263061523 1 1 13
0.284072995185852051 -0.0491209998726844788 2.40408205986022949 1 1 12
0.284285992383956909 -0.0473710000514984131 2.40588593482971191 1 1 10
0.284619003534317017 -0.0456370003521442413 2.40870308876037598 0 0 6
0.272911995649337769 -0.0386129990220069885 2.30962991714477539 0 1 4
0.286444008350372314 -0.0369269996881484985 2.42414498329162598 0 0 2
0.271719992160797119 -0.0316129997372627258 2.29953908920288086 0 0 4
0.274639993906021118 -0.000877999991644173861 2.32425308227539062 0 1 6
0.275128006935119629 0.000850000011269003153 2.32837605476379395 0 0 7
0.296864986419677734 0.0121139995753765106 2.51233911514282227 0 1 4
0.293554008007049561 0.0138240000233054161 2.48431897163391113 0 1 3
0.292847007513046265 0.0156319998204708099 2.47832989692687988 0 1 2
0.29213300347328186 0.0174300000071525574 2.4722900390625 0 1 1
0.292245000600814819 0.0192740000784397125 2.473236083984375 0 2 1
0.291379004716873169 0.0210480000823736191 2.46590590476989746 0 1 1
0.271411985158920288 0.0247239992022514343 2.29693508148193359 0 1 4
0.254312008619308472 0.07272300124168396 2.15221405029296875 0 1 6
0.268034011125564575 0.086755998432636261 2.26834797859191895 0 1 6
0.260845988988876343 0.100826002657413483 2.20750999450683594 0 1 6
0.259440004825592041 0.101914003491401672 2.19561409950256348 0 1 6
0.258004993200302124 0.10297200083732605 2.18346810340881348 0 1 6
0.252815991640090942 0.104079000651836395 2.13955497741699219 0 1 6
0.269100010395050049 0.112475000321865082 2.27736592292785645 0 1 6
0.26890099048614502 0.114082001149654388 2.2756800651550293 0 1 6
0.267935991287231445 0.115356996655464172 2.26751804351806641 0 1 6
0.267700999975204468 0.116938002407550812 2.26552796363830566 0 1 6
0.266997009515762329 0.118308998644351959 2.25956392288208008 0 1 6
0.267158001661300659 0.120059996843338013 2.26092910766601562 0 1 6
0.268471986055374146 0.122337996959686279 2.27205300331115723 0 1 6
0.265352010726928711 0.132591992616653442 2.24564290046691895 0 1 6
0.265058994293212891 0.134112000465393066 2.24316692352294922 0 1 6
0.264775991439819336 0.135633006691932678 2.24077606201171875 0 1 6
0.264492988586425781 0.137151002883911133 2.23837804794311523 0 1 6
0.263229012489318848 0.141459003090858459 2.22768092155456543 0 1 6
0.25327599048614502 0.142479002475738525 2.1434481143951416 0 1 6
0.252813011407852173 0.143806993961334229 2.1395270824432373 0 1 6
0.260948002338409424 0.153356000781059265 2.20837903022766113 0 1 6
0.262881994247436523 0.171017006039619446 2.22474193572998047 0 1 6
0.262160986661911011 0.172196000814437866 2.21863889694213867 0 1 6
0.254743009805679321 0.180133998394012451 2.15585899353027344 0 1 3
0.25327599048614502 0.180689007043838501 2.1434481143951416 0 1 2
0.252600997686386108 0.181795001029968262 2.13773393630981445 0 2 1
0.263015002012252808 0.209130004048347473 2.22587108612060547 0 1 4
0.254637002944946289 0.210471004247665405 2.1549680233001709 0 1 2
0.240659996867179871 0.22614799439907074 2.03667902946472168 0 0 4
0.240472003817558289 0.227484002709388733 2.03509092330932617 1 0 5
0.238874003291130066 0.228975996375083923 2.02156996726989746 1 0 5
0.239959999918937683 0.231524005532264709 2.03075194358825684 1 0 5
0.242167994379997253 0.235176995396614075 2.0494389533996582 1 0 5
0.284500986337661743 -0.148411005735397339 2.39266109466552734 173 165 162
0.283470988273620605 -0.142561003565788269 2.38399910926818848 168 159 160
0.280135989189147949 -0.137383997440338135 2.35595107078552246 166 158 155
0.278364002704620361 -0.134775996208190918 2.34105110168457031 165 156 152
0.279971003532409668 -0.13205699622631073 2.35456705093383789 162 155 147
0.280505001544952393 -0.128803998231887817 2.35905694961547852 155 152 143
0.281130999326705933 -0.127334997057914734 2.36431789398193359 153 150 143
0.287167012691497803 -0.12289399653673172 2.41508698463439941 113 111 118
0.288520008325576782 -0.12167000025510788 2.42646002769470215 69 65 75
0.288073986768722534 -0.117882996797561646 2.42271208763122559 3 6 22
0.287654995918273926 -0.115915000438690186 2.41918802261352539 0 4 21
0.287544995546340942 -0.114073999226093292 2.41826295852661133 5 12 27
0.288224995136260986 -0.112544000148773193 2.4239799976348877 22 31 43
0.289572000503540039 -0.111261002719402313 2.43530893325805664 40 49 58
0.290850996971130371 -0.109935000538825989 2.44606900215148926 45 55 61
0.293343991041183472 -0.10904499888420105 2.46703195571899414 40 49 55
0.295291990041732788 -0.107924997806549072 2.4834139347076416 32 42 47
0.295094996690750122 -0.106008999049663544 2.48175692558288574 34 44 49
0.294095009565353394 -0.101975999772548676 2.47334909439086914 19 29 33
0.294227004051208496 -0.100183002650737762 2.47445511817932129 12 21 26
0.29431501030921936 -0.0983750000596046448 2.47520208358764648 9 18 23
0.294427007436752319 -0.0965730026364326477 2.47613692283630371 12 20 26
0.289714992046356201 -0.0914079993963241577 2.43651390075683594 30 39 45
0.287510007619857788 -0.0763449966907501221 2.41797208786010742 0 3 13
0.287737011909484863 -0.0746069997549057007 2.41987395286560059 0 3 13
0.288246989250183105 -0.0729390010237693787 2.42416906356811523 0 2 13
0.289016008377075195 -0.0713279992341995239 2.43063092231750488 0 2 13
0.289007991552352905 -0.069521002471446991 2.43056511878967285 0 2 13
0.289043992757797241 -0.0677239969372749329 2.43086600303649902 0 2 13
0.288329005241394043 -0.0657550022006034851 2.42485404014587402 1 2 13
0.288035005331039429 -0.0638889968395233154 2.42238593101501465 1 2 13
0.287418991327285767 -0.0619570016860961914 2.41720104217529297 1 3 14
0.287339985370635986 -0.0601450018584728241 2.41653609275817871 0 1 13
0.28741300106048584 -0.0583649985492229462 2.41715192794799805 0 0 12
0.287149012088775635 -0.0565179996192455292 2.4149329662322998 0 0 12
0.287010014057159424 -0.0546969994902610779 2.41376590728759766 0 0 12
0.285452008247375488 -0.052616998553276062 2.40066409111022949 0 0 13
0.285434991121292114 -0.0508310012519359589 2.40051603317260742 0 0 12
0.285079985857009888 -0.0489870011806488037 2.39753508567810059 0 0 11
0.284988999366760254 -0.0471910014748573303 2.39676499366760254 0 0 9
0.28475499153137207 -0.0453739985823631287 2.39479589462280273 0 1 7
0.277375012636184692 -0.0390000008046627045 2.33273005485534668 0 0 4
0.276495009660720825 -0.0319669991731643677 2.32533001899719238 0 0 5
0.276574999094009399 -0.028520999476313591 2.32600808143615723 1 0 6
0.290850996971130371 0.00634399987757205963 2.44606900215148926 0 0 8
0.295239001512527466 0.011971999891102314 2.48296999931335449 0 1 4
0.292591005563735962 0.0136930001899600029 2.46070194244384766 0 1 3
0.290910989046096802 0.0172489993274211884 2.44657111167907715 0 2 1
0.290228009223937988 0.0190210007131099701 2.44082498550415039 0 2 1
0.289871007204055786 0.0208080001175403595 2.4378209114074707 0 2 1
0.270352989435195923 0.024474000558257103 2.27367591857910156 0 1 4
0.25369301438331604 0.0720930024981498718 2.13356304168701172 0 1 6
0.267690002918243408 0.0961370021104812622 2.2512810230255127 0 1 6
0.260912001132965088 0.0985919982194900513 2.19427895545959473 0 1 6
0.262100011110305786 0.100677996873855591 2.20426702499389648 0 1 6
0.255154997110366821 0.102792002260684967 2.14586305618286133 0 1 6
0.267250001430511475 0.111002996563911438 2.24757909774780273 0 1 6
0.267850011587142944 0.112925998866558075 2.25262999534606934 0 1 6
0.26850399374961853 0.114878997206687927 2.25812792778015137 0 1 6
0.266562998294830322 0.115713998675346375 2.24180197715759277 0 1 6
0.26581999659538269 0.117051996290683746 2.23555707931518555 0 1 6
0.265985012054443359 0.118785999715328217 2.23693990707397461 0 1 6
0.267033010721206665 0.120921999216079712 2.24575495719909668 0 1 6
0.262259989976882935 0.126952007412910461 2.20561790466308594 0 1 6
0.264517009258270264 0.131348997354507446 2.22459506988525391 0 1 6
0.264517009258270264 0.133000999689102173 2.22459506988525391 0 1 6
0.264178007841110229 0.134480997920036316 2.22174906730651855 0 1 6
0.263844013214111328 0.135958999395370483 2.21893405914306641 0 1 6
0.253028005361557007 0.141450002789497375 2.12797689437866211 0 1 6
0.253351002931594849 0.143213003873825073 2.1306910514831543 0 1 6
0.262329012155532837 0.166314005851745605 2.2061920166015625 0 1 6
0.263314008712768555 0.168583005666732788 2.2144770622253418 0 1 6
0.261281013488769531 0.168914005160331726 2.19738411903381348 0 1 6
0.261036992073059082 0.170386999845504761 2.19533300399780273 0 1 6
0.260809004306793213 0.171866998076438904 2.19340896606445312 0 1 6
0.253634989261627197 0.176645994186401367 2.13308191299438477 0 1 5
0.255171000957489014 0.179309993982315063 2.14599800109863281 0 1 4
0.255863010883331299 0.181393995881080627 2.15181398391723633 0 1 2
0.259921014308929443 0.194012999534606934 2.18594098091125488 0 1 3
0.260246992111206055 0.19588199257850647 2.18868899345397949 0 1 5
0.262320011854171753 0.205635994672775269 2.20612192153930664 0 1 5
0.261801987886428833 0.206864997744560242 2.20176410675048828 0 1 5
0.261593997478485107 0.208333998918533325 2.2000119686126709 0 1 4
0.256112992763519287 0.208768993616104126 2.1539158821105957 0 1 3
0.255414009094238281 0.209794998168945312 2.1480410099029541 0 1 3
0.238784000277519226 0.228951007127761841 2.00818300247192383 0 0 2
0.286085993051528931 -0.148311004042625427 2.39105606079101562 173 164 164
0.28480800986289978 -0.142343997955322266 2.38037610054016113 169 160 161
0.282247990369796753 -0.137559995055198669 2.35897493362426758 166 158 156
0.281998991966247559 -0.132186993956565857 2.35689902305603027 162 155 147
0.289050012826919556 -0.122932001948356628 2.41582798957824707 156 151 154
0.288832008838653564 -0.119253002107143402 2.41400408744812012 71 66 75
0.289846986532211304 -0.114274002611637115 2.42248702049255371 5 12 24
0.290250986814498901 -0.112631000578403473 2.42586708068847656 14 21 31
0.291566997766494751 -0.1113319993019104 2.43686604499816895 28 35 42
0.29306599497795105 -0.110085003077983856 2.44938993453979492 35 43 47
0.294627994298934937 -0.108842998743057251 2.46245098114013672 33 42 46
0.29688599705696106 -0.107833996415138245 2.48132205009460449 30 38 42
0.298359006643295288 -0.106516003608703613 2.49362897872924805 31 39 43
0.296696990728378296 -0.104080997407436371 2.4797370433807373 26 33 37
0.296202987432479858 -0.102068997919559479 2.47561001777648926 19 26 31
0.296458989381790161 -0.100317001342773438 2.47775602340698242 20 26 32
0.295989006757736206 -0.0983199998736381531 2.47382211685180664 29 35 41
0.295601010322570801 -0.096357002854347229 2.47058200836181641 39 44 51
0.289557009935379028 -0.0853990018367767334 2.42006993293762207 1 5 12
0.290068000555038452 -0.0837490037083625793 2.42433691024780273 0 3 10
0.289894014596939087 -0.0818990021944046021 2.42288708686828613 0 4 12
0.289997011423110962 -0.0765269994735717773 2.42373895645141602 0 2 11
0.288980990648269653 -0.0744649991393089294 2.41525101661682129 0 1 10
0.289979994297027588 -0.0729219987988471985 2.4235999584197998 0 1 10
0.290964990854263306 -0.0713640004396438599 2.43183588981628418 0 0 9
0.289884001016616821 -0.0692989975214004517 2.42280101776123047 0 0 9
0.290183007717132568 -0.0675690025091171265 2.42529988288879395 0 0 9
0.290412992238998413 -0.0658200010657310486 2.42722296714782715 0 1 9
0.290006011724472046 -0.0639270022511482239 2.42382192611694336 1 1 10
0.289447993040084839 -0.0620069988071918488 2.41915488243103027 1 2 11
0.289483010768890381 -0.0602170005440711975 2.41944408416748047 0 1 11
0.289115995168685913 -0.0583459995687007904 2.41637802124023438 0 0 11
0.28910401463508606 -0.0565490014851093292 2.41628003120422363 0 0 12
0.288782000541687012 -0.0546929985284805298 2.41358494758605957 0 0 13
0.288289010524749756 -0.0528099983930587769 2.40947198867797852 0 0 13
0.288482993841171265 -0.0510549992322921753 2.41108894348144531 0 0 13
0.286971986293792725 -0.0490060001611709595 2.39845800399780273 1 0 13
0.286713004112243652 -0.0471820011734962463 2.39629602432250977 0 0 11
0.287793993949890137 -0.0455729998648166656 2.40533208847045898 1 1 9
0.287941008806228638 -0.0438090004026889801 2.40655803680419922 0 0 6
0.291124999523162842 -0.0388719998300075531 2.43317198753356934 2 3 8
0.278930008411407471 -0.0320490002632141113 2.33124399185180664 0 1 6
0.276116997003555298 -0.0282969996333122253 2.30773711204528809 1 0 6
0.292196005582809448 -0.0118060000240802765 2.4421238899230957 0 0 8
0.293756008148193359 0.0118380002677440643 2.45516300201416016 0 1 4
0.29276999831199646 0.0136160003021359444 2.44692206382751465 0 1 2
0.291034013032913208 0.0153419999405741692 2.43240809440612793 0 1 1
0.289938986301422119 0.0170840006321668625 2.42326092720031738 0 2 1
0.289220988750457764 0.01883699931204319 2.41725897789001465 0 2 1
0.288103014230728149 0.020553000271320343 2.4079139232635498 0 2 1
0.272013008594512939 0.0227830000221729279 2.27343606948852539 0 1 2
0.269517004489898682 0.0242469999939203262 2.25257706642150879 0 1 4
0.265711009502410889 0.0898849964141845703 2.22076702117919922 0 1 6
0.267585992813110352 0.0938419997692108154 2.23643589019775391 0 1 6
0.265897989273071289 0.0965510010719299316 2.22233200073242188 0 1 6
0.262829989194869995 0.100331999361515045 2.19668292999267578 0 1 6
0.265886008739471436 0.106449998915195465 2.22222900390625 0 1 6
0.264490991830825806 0.107533998787403107 2.21057009696960449 0 1 6
0.26528400182723999 0.109503000974655151 2.21719789505004883 0 1 6
0.266885995864868164 0.111821003258228302 2.23058700561523438 0 1 6
0.267439991235733032 0.113713003695011139 2.23521709442138672 0 1 6
0.266429990530014038 0.114937998354434967 2.2267758846282959 0 1 6
0.265459001064300537 0.11616700142621994 2.21866106986999512 0 0 6
0.264104992151260376 0.117214001715183258 2.20734095573425293 0 0 6
0.264611005783081055 0.119080998003482819 2.21156907081604004 0 0 6
0.261938989162445068 0.124383002519607544 2.18924307823181152 0 0 6
0.261655986309051514 0.125872999429702759 2.18687009811401367 0 0 6
0.263588011264801025 0.131712004542350769 2.20302605628967285 0 1 6
0.263502985239028931 0.133304998278617859 2.20231389999389648 0 1 6
0.261056989431381226 0.13854999840259552 2.1818699836730957 0 1 6
0.25279998779296875 0.14044499397277832 2.11285805702209473 0 1 6
0.253904998302459717 0.142635002732276917 2.12209391593933105 0 1 6
0.258533000946044922 0.150049999356269836 2.16077494621276855 0 1 6
0.257209986448287964 0.154072999954223633 2.14971709251403809 0 1 6
0.25824698805809021 0.159502997994422913 2.15838003158569336 0 1 6
0.260105013847351074 0.16710999608039856 2.17391490936279297 0 1 6
0.259972989559173584 0.168639004230499268 2.17280888557434082 0 1 6
0.25975799560546875 0.170111998915672302 2.17101192474365234 0 1 6
0.260280013084411621 0.173684999346733093 2.17537093162536621 0 1 6
0.252802997827529907 0.171835005283355713 2.1128849983215332 0 1 6
0.254317998886108398 0.17444300651550293 2.12554311752319336 0 1 6
0.255133002996444702 0.176586002111434937 2.13235688209533691 0 1 5
0.255679011344909668 0.178551003336906433 2.13691997528076172 0 1 5
0.256134003400802612 0.180458992719650269 2.14072394371032715 0 1 4
0.257838010787963867 0.183261007070541382 2.1549680233001709 0 1 3
0.258859008550643921 0.188806995749473572 2.16349506378173828 0 1 3
0.258964985609054565 0.192100003361701965 2.16438508033752441 0 1 5
0.261442989110946655 0.203676000237464905 2.18509411811828613 0 0 7
0.260639995336532593 0.204668000340461731 2.17838406562805176 0 1 5
0.260540992021560669 0.206208005547523499 2.17755889892578125 0 1 5
0.260057985782623291 0.207440003752708435 2.17352199554443359 0 1 4
0.256260007619857788 0.207591995596885681 2.14177298545837402 0 1 4
0.255811989307403564 0.208818003535270691 2.13803410530090332 0 1 4
0.287521004676818848 -0.148135006427764893 2.38822197914123535 173 164 165
0.287705004215240479 -0.146455004811286926 2.38975310325622559 173 164 165
0.28585401177406311 -0.141985997557640076 2.37437796592712402 169 161 160
0.284940987825393677 -0.13977399468421936 2.3667910099029541 168 160 158
0.283419013023376465 -0.132033005356788635 2.35415506362915039 162 157 147
0.291036009788513184 -0.1230119988322258 2.41741704940795898 162 154 154
0.289687991142272949 -0.120655998587608337 2.40622496604919434 151 141 143
0.290827006101608276 -0.119336001574993134 2.41568493843078613 124 116 121
0.293702006340026855 -0.113266997039318085 2.43956589698791504 14 20 27
0.294470995664596558 -0.111746996641159058 2.4459540843963623 16 22 27
0.294643014669418335 -0.109994001686573029 2.44738197326660156 22 28 31
0.298397988080978394 -0.109554998576641083 2.47856998443603516 29 35 38
0.300298005342483521 -0.108400002121925354 2.49435091018676758 34 40 43
0.300352007150650024 -0.106565997004508972 2.49480199813842773 31 36 39
0.29970899224281311 -0.104488998651504517 2.48946094512939453 32 36 40
0.299205005168914795 -0.102467998862266541 2.4852759838104248 39 43 49
0.299540013074874878 -0.100734002888202667 2.48805594444274902 56 58 65
0.299279987812042236 -0.0988000035285949707 2.48589897155761719 76 77 85
0.29121100902557373 -0.0853570029139518738 2.41887497901916504 1 7 12
0.291545987129211426 -0.0836559981107711792 2.42165398597717285 0 3 8
0.291651010513305664 -0.0818869993090629578 2.42252898216247559 0 3 9
0.293745994567871094 -0.0788500010967254639 2.43992996215820312 1 2 9
0.292488008737564087 -0.0767079964280128479 2.42947888374328613 1 1 8
0.291516989469528198 -0.074654996395111084 2.42141199111938477 0 1 8
0.293184995651245117 -0.073273003101348877 2.43526792526245117 1 1 8
0.292309999465942383 -0.0712509974837303162 2.42800211906433105 0 0 7
0.29179498553276062 -0.0693250000476837158 2.42372798919677734 0 0 7
0.292232006788253784 -0.0676259994506835938 2.42735004425048828 0 0 7
0.292189985513687134 -0.0658140033483505249 2.427001953125 1 1 8
0.291819006204605103 -0.0639299973845481873 2.42392611503601074 3 3 10
0.29179498553276062 -0.0621239989995956421 2.42372298240661621 5 5 14
0.291312992572784424 -0.0602240003645420074 2.41971898078918457 2 2 13
0.291269987821578979 -0.0584179982542991638 2.41936206817626953 0 0 12
0.291036009788513184 -0.0565759986639022827 2.41741704940795898 0 0 13
0.290919005870819092 -0.0547580011188983917 2.41644501686096191 0 0 13
0.28929099440574646 -0.0526669993996620178 2.40292906761169434 0 0 13
0.289407014846801758 -0.0509029999375343323 2.40388989448547363 0 0 13
0.288643002510070801 -0.0489870011806488037 2.39754104614257812 0 0 13
0.288538992404937744 -0.0471899993717670441 2.39667701721191406 0 0 11
0.287946999073028564 -0.0453159995377063751 2.39176392555236816 1 1 9
0.285820990800857544 -0.0396910011768341064 2.37410306930541992 2 3 8
0.278793007135391235 -0.0318350009620189667 2.31572890281677246 0 0 5
0.27687498927116394 -0.028200000524520874 2.29979395866394043 1 0 8
0.276955008506774902 -0.0264989994466304779 2.30045604705810547 1 0 6
0.277386993169784546 -0.0248290002346038818 2.30404901504516602 1 0 6
0.291592985391616821 0.0134779997169971466 2.42204999923706055 0 1 1
0.289871007204055786 0.0151869999244809151 2.40773892402648926 0 2 1
0.288399994373321533 0.0168890003114938736 2.39552402496337891 0 2 0
0.287449002265930176 0.0186069998890161514 2.38762497901916504 0 2 0
0.270722001791000366 0.0225349999964237213 2.24868893623352051 0 1 1
0.268420994281768799 0.0239989999681711197 2.22957205772399902 0 1 3
0.266016006469726562 0.0877920016646385193 2.20959591865539551 0 1 6
0.265381991863250732 0.089220002293586731 2.20433211326599121 0 1 6
0.267408996820449829 0.0915509983897209167 2.22116899490356445 0 1 6
0.266871005296707153 0.0930140018463134766 2.21670293807983398 0 1 6
0.265693008899688721 0.0958810001611709595 2.20691204071044922 0 1 6
0.266602993011474609 0.104433998465538025 2.2144770622253418 0 1 6
0.266092002391815186 0.105875998735427856 2.21023201942443848 0 1 6
0.264732003211975098 0.106968000531196594 2.19893193244934082 0 1 6
0.265625 0.108966998755931854 2.20635294914245605 0 1 6
0.26734200119972229 0.111321002244949341 2.22060894966125488 0 1 6
0.267589002847671509 0.113075003027915955 2.22266101837158203 0 1 6
0.266602993011474609 0.114303000271320343 2.2144770622253418 0 1 6
0.264847993850708008 0.115185000002384186 2.19989705085754395 0 0 6
0.263570994138717651 0.116255000233650208 2.18928694725036621 0 0 8
0.264903992414474487 0.118478000164031982 2.20036506652832031 0 0 8
0.265765011310577393 0.120502002537250519 2.20750999450683594 0 0 8
0.261110007762908936 0.12322399765253067 2.16884493827819824 0 0 8
0.26168900728225708 0.12995600700378418 2.1736600399017334 0 1 6
0.258944988250732422 0.138179004192352295 2.15086603164672852 0 1 6
0.254381000995635986 0.140450999140739441 2.11295008659362793 0 1 6
0.254671990871429443 0.142184004187583923 2.1153719425201416 0 1 6
0.258347988128662109 0.149018004536628723 2.14590597152709961 0 1 6
0.2593039870262146 0.151169002056121826 2.15384793281555176 0 1 6
0.257535994052886963 0.151727005839347839 2.1391599178314209 0 1 6
0.258365005254745483 0.153808996081352234 2.14604592323303223 0 1 6
0.257611989974975586 0.154949992895126343 2.13978791236877441 0 1 6
0.257501989603042603 0.15647299587726593 2.13887500762939453 0 1 6
0.259090989828109741 0.165430992841720581 2.15207695960998535 0 1 6
0.258987993001937866 0.166962996125221252 2.15121793746948242 0 1 6
0.258702993392944336 0.168375998735427856 2.14885401725769043 0 1 6
0.258724004030227661 0.169985994696617126 2.14902806282043457 0 1 6
0.25941699743270874 0.172040998935699463 2.15478396415710449 0 1 6
0.259752988815307617 0.173866003751754761 2.15757107734680176 0 1 6
0.256476014852523804 0.176420003175735474 2.13035202026367188 0 1 5
0.256655991077423096 0.17812800407409668 2.1318519115447998 0 1 5
0.256931006908416748 0.179903998970985413 2.13413500785827637 0 1 4
0.257990986108779907 0.182237997651100159 2.14293909072875977 0 1 3
0.258724987506866455 0.185948997735977173 2.14903688430786133 0 1 3
0.258671998977661133 0.192294001579284668 2.14859700202941895 0 1 6
0.260116010904312134 0.20139099657535553 2.16058707237243652 0 0 7
0.259276986122131348 0.202342003583908081 2.15362310409545898 0 1 6
0.259438991546630859 0.204069003462791443 2.1549680233001709 0 1 5
0.258974999189376831 0.205302000045776367 2.15111398696899414 0 1 5
0.258228003978729248 0.206303000450134277 2.1449120044708252 0 1 5
0.256898999214172363 0.206825003027915955 2.1338660717010498 0 1 5
0.256953001022338867 0.208454996347427368 2.13432002067565918 0 1 5
0.26231500506401062 0.2516460120677948 2.17885708808898926 0 0 2
0.288807004690170288 -0.147884994745254517 2.38419604301452637 173 164 168
0.288397014141082764 -0.145906999707221985 2.3808140754699707 173 164 166
0.288426011800765991 -0.144152998924255371 2.38104891777038574 171 162 163
0.287584006786346436 -0.141968995332717896 2.37410306930541992 170 162 160
0.287146985530853271 -0.138231992721557617 2.37049198150634766 167 160 155
0.284817993640899658 -0.131870999932289124 2.35126209259033203 162 158 147
0.292919009923934937 -0.126642003655433655 2.41814589500427246 157 151 146
0.292398005723953247 -0.122831001877784729 2.41384506225585938 158 148 146
0.292412996292114258 -0.12104400247335434 2.41396689414978027 162 150 148
0.292919009923934937 -0.119456999003887177 2.41814589500427246 152 142 144
0.294115990400314331 -0.112731002271175385 2.42802309989929199 44 48 54
0.296617001295089722 -0.111870996654033661 2.44867205619812012 35 39 43
0.297298014163970947 -0.110304996371269226 2.45429611206054688 36 39 41
0.297360002994537354 -0.108505003154277802 2.4548029899597168 43 46 48
0.300516992807388306 -0.107813999056816101 2.48086404800415039 52 55 58
0.300429999828338623 -0.10594099760055542 2.48014998435974121 50 52 56
0.300314992666244507 -0.104059003293514252 2.47919893264770508 60 62 67
0.301183998584747314 -0.10251300036907196 2.48637294769287109 79 81 88
0.300983011722564697 -0.100598998367786407 2.48471403121948242 102 102 110
0.300089985132217407 -0.0984599962830543518 2.47734189033508301 122 121 129
0.292450994253158569 -0.0869870036840438843 2.41427493095397949 17 23 27
0.29264599084854126 -0.0852510035037994385 2.41589093208312988 6 11 14
0.293217003345489502 -0.0836199969053268433 2.42060089111328125 1 4 7
0.293487995862960815 -0.0818969979882240295 2.42284202575683594 0 2 6
0.295726001262664795 -0.0807079970836639404 2.44131302833557129 0 1 6
0.295323997735977173 -0.0787879973649978638 2.43799495697021484 0 2 6
0.295480996370315552 -0.0770180001854896545 2.43929290771484375 1 2 6
0.294874012470245361 -0.0750520005822181702 2.43428301811218262 1 1 6
0.294459998607635498 -0.0731410011649131775 2.43086600303649902 2 2 7
0.293751001358032227 -0.0711629986763000488 2.42501401901245117 4 4 9
0.293269991874694824 -0.0692489966750144958 2.42104101181030273 6 6 11
0.293545991182327271 -0.0675140023231506348 2.42331409454345703 8 8 13
0.293532013893127441 -0.065710999071598053 2.42320394515991211 11 11 16
0.293754011392593384 -0.0639590024948120117 2.4250330924987793 14 15 20
0.293229997158050537 -0.0620470009744167328 2.42070794105529785 17 17 23
0.293123006820678711 -0.0602269992232322693 2.4198300838470459 15 17 27
0.29299500584602356 -0.0584039986133575439 2.41876792907714844 14 16 28
0.293083012104034424 -0.0566239990293979645 2.4194951057434082 12 14 27
0.293067008256912231 -0.054823998361825943 2.41936206817626953 10 11 25
0.29297301173210144 -0.0530100017786026001 2.41858291625976562 9 9 23
0.291114985942840576 -0.0508890002965927124 2.40324997901916504 8 9 22
0.289988994598388672 -0.048914000391960144 2.39395499229431152 8 9 21
0.290069013833999634 -0.0471489988267421722 2.39461588859558105 8 8 19
0.288397014141082764 -0.0415720008313655853 2.3808140754699707 2 2 8
0.278715997934341431 -0.0316310003399848938 2.30088996887207031 2 2 8
0.287395000457763672 0.00439100014045834541 2.37253689765930176 0 0 8
0.287126988172531128 0.00614799978211522102 2.37032508850097656 0 0 7
0.290897995233535767 0.0133630000054836273 2.40145492553710938 0 1 1
0.28865399956703186 0.0150300003588199615 2.38293600082397461 0 2 0
0.28692200779914856 0.0166989993304014206 2.36863088607788086 0 2 0
0.286038011312484741 0.0184020008891820908 2.36133599281311035 0 2 0
0.269737988710403442 0.0223149992525577545 2.2267758846282959 0 2 0
0.277303993701934814 0.0501470007002353668 2.28923797607421875 0 0 6
0.263356000185012817 0.0766920000314712524 2.17408895492553711 0 1 6
0.262652993202209473 0.078097999095916748 2.16828703880310059 0 1 6
0.262894004583358765 0.0813930034637451172 2.17027807235717773 0 1 6
0.266227006912231445 0.0873219966888427734 2.19778704643249512 0 1 6
0.267535001039505005 0.0910329967737197876 2.20858907699584961 0 1 6
0.267067998647689819 0.0925109982490539551 2.20473599433898926 0 1 6
0.266957998275756836 0.0941099971532821655 2.203826904296875 0 1 6
0.266102999448776245 0.0954409986734390259 2.19676995277404785 0 1 6
0.266436994075775146 0.103729002177715302 2.19952607154846191 0 1 6
0.266649007797241211 0.105447001755237579 2.20127701759338379 0 1 6
0.266043990850448608 0.106839001178741455 2.19628190994262695 0 1 6
0.267264008522033691 0.108966998755931854 2.20635294914245605 0 1 6
0.267839998006820679 0.110844999551773071 2.21110796928405762 0 1 6
0.267298996448516846 0.112259998917579651 2.20664310455322266 0 0 6
0.267129004001617432 0.113825999200344086 2.20523810386657715 0 0 6
0.264955997467041016 0.117774002254009247 2.18729591369628906 0 0 8
0.263590008020401001 0.118782997131347656 2.17601895332336426 0 0 8
0.260414004325866699 0.122143000364303589 2.14980602264404297 0 0 8
0.260690003633499146 0.123870000243186951 2.15207695960998535 0 0 8
0.260883986949920654 0.125561997294425964 2.15368199348449707 0 0 7
0.260931998491287231 0.127185001969337463 2.15407800674438477 0 1 6
0.260728001594543457 0.12868499755859375 2.15239691734313965 0 1 6
0.258657008409500122 0.137179002165794373 2.13529491424560547 0 1 6
0.258424997329711914 0.138640999794006348 2.13338494300842285 0 1 6
0.25795900821685791 0.143135994672775269 2.12953400611877441 0 1 6
0.258296996355056763 0.148074999451637268 2.13232707977294922 0 1 6
0.258607000112533569 0.149838000535964966 2.13488888740539551 0 1 6
0.257970988750457764 0.151051998138427734 2.12963700294494629 0 1 6
0.258363008499145508 0.152864992618560791 2.1328730583190918 0 1 6
0.257856011390686035 0.154146000742912292 2.12868499755859375 0 1 6
0.257456004619598389 0.155486002564430237 2.12538599967956543 0 1 6
0.257757008075714111 0.157248005270957947 2.12786602973937988 0 1 6
0.257806986570358276 0.158858999609947205 2.12827801704406738 0 1 6
0.258556991815567017 0.160907000303268433 2.13446998596191406 0 1 6
0.258341997861862183 0.16235700249671936 2.13269901275634766 0 1 6
0.258455008268356323 0.164012998342514038 2.13363003730773926 0 1 6
0.258305013179779053 0.165501996874809265 2.13239407539367676 0 1 6
0.257851988077163696 0.166793003678321838 2.12865495681762695 0 1 6
0.257732987403869629 0.168295994400978088 2.1276710033416748 0 1 6
0.258635014295578003 0.17047099769115448 2.13511395454406738 0 1 6
0.258985012769699097 0.172289997339248657 2.13800597190856934 0 1 6
0.258406013250350952 0.173489004373550415 2.1332240104675293 0 1 6
0.256810009479522705 0.175567001104354858 2.12004995346069336 0 1 6
0.257548004388809204 0.177651003003120422 2.12614107131958008 0 1 6
0.257737010717391968 0.179361000657081604 2.12769889831542969 0 1 5
0.257892996072769165 0.181051000952720642 2.12898802757263184 0 1 5
0.258134007453918457 0.18280300498008728 2.1309819221496582 0 1 4
0.25829198956489563 0.184498995542526245 2.13228201866149902 0 1 4
0.257988989353179932 0.185864999890327454 2.12978601455688477 0 1 5
0.257427006959915161 0.187038004398345947 2.12514495849609375 0 1 5
0.257860004901885986 0.188933998346328735 2.12872195243835449 0 0 6
0.257806986570358276 0.190476000308990479 2.12827801704406738 0 0 7
0.258498013019561768 0.19257199764251709 2.1339879035949707 0 0 8
0.259351998567581177 0.199569001793861389 2.14103889465332031 0 0 7
0.258634001016616821 0.20060199499130249 2.13510799407958984 0 0 7
0.258619993925094604 0.202177003026008606 2.1349940299987793 0 0 6
0.258423000574111938 0.203608006238937378 2.13336992263793945 0 1 5
0.257716000080108643 0.204631000757217407 2.12752604484558105 0 1 5
0.257111012935638428 0.205726996064186096 2.12253499031066895 0 1 5
0.257474988698959351 0.207598000764846802 2.12554311752319336 0 1 5
0.262046009302139282 0.249845996499061584 2.16327309608459473 0 0 2
0.289772003889083862 -0.151006996631622314 2.37758088111877441 176 167 170
0.28953900933265686 -0.149121999740600586 2.37567496299743652 174 165 168
0.289160013198852539 -0.147164002060890198 2.37256598472595215 173 164 167
0.288423001766204834 -0.145031005144119263 2.36651802062988281 173 164 167
0.288787007331848145 -0.143454000353813171 2.36950397491455078 171 162 163
0.289160013198852539 -0.14187699556350708 2.37256598472595215 170 162 160
0.288468986749649048 -0.139779999852180481 2.36689400672912598 169 161 158
0.2879599928855896 -0.137777999043464661 2.3627159595489502 168 161 155
0.28476300835609436 -0.134513005614280701 2.33648109436035156 166 159 151
0.295866012573242188 -0.128939002752304077 2.42758488655090332 156 150 144
0.293810009956359863 -0.124462001025676727 2.41071796417236328 158 149 144
0.294171988964080811 -0.122822001576423645 2.41368198394775391 164 153 150
0.294779002666473389 -0.121279001235961914 2.41866707801818848 166 152 149
0.294688999652862549 -0.119447000324726105 2.41793107986450195 152 141 140
0.295524001121520996 -0.117983996868133545 2.42478108406066895 144 141 145
0.295213013887405396 -0.116061002016067505 2.42222690582275391 128 129 135
0.294863998889923096 -0.114125996828079224 2.41936206817626953 109 111 116
0.29680401086807251 -0.113067999482154846 2.43528103828430176 94 95 99
0.297529995441436768 -0.111530996859073639 2.44123411178588867 81 83 84
0.298373997211456299 -0.110030002892017365 2.44816303253173828 73 73 74
0.299450993537902832 -0.106776997447013855 2.45700407028198242 75 75 77
0.30062401294708252 -0.105362996459007263 2.46662807464599609 84 83 85
0.299948990345001221 -0.103298000991344452 2.46108293533325195 101 100 104
0.301311999559402466 -0.101930998265743256 2.47226905822753906 121 120 125
0.30209699273109436 -0.100355997681617737 2.47871208190917969 135 134 139
0.301984995603561401 -0.0984779968857765198 2.47779011726379395 146 143 149
0.294414013624191284 -0.0852430015802383423 2.41566896438598633 47 50 52
0.296297997236251831 -0.0821769982576370239 2.43112993240356445 31 33 36
0.295661985874176025 -0.0801990032196044922 2.42591190338134766 29 30 33
0.297019988298416138 -0.0787570029497146606 2.43705606460571289 29 30 33
0.297004014253616333 -0.0769430026412010193 2.4369199275970459 31 32 35
0.295650005340576172 -0.0747909992933273315 2.42581510543823242 31 30 34
0.295691013336181641 -0.0729990005493164062 2.42615103721618652 34 32 37
0.295304000377655029 -0.0711029991507530212 2.42297101020812988 41 39 44
0.294901013374328613 -0.0692090019583702087 2.41966605186462402 48 47 52
0.29499700665473938 -0.0674339979887008667 2.42045402526855469 56 55 60
0.295525997877120972 -0.0657539963722229004 2.42479300498962402 64 62 67
0.295125007629394531 -0.0638659968972206116 2.42150402069091797 69 68 73
0.295055001974105835 -0.0620529986917972565 2.42093205451965332 72 71 77
0.294688999652862549 -0.0601800009608268738 2.41792392730712891 74 75 84
0.295044004917144775 -0.0584539994597434998 2.42084407806396484 72 74 86
0.295641005039215088 -0.0567709989845752716 2.42574191093444824 67 69 82
0.295033007860183716 -0.0548559986054897308 2.42075300216674805 62 63 77
0.293476998805999756 -0.052777998149394989 2.40797996520996094 58 60 74
0.292802989482879639 -0.0508720017969608307 2.40244889259338379 57 58 71
0.291368991136550903 -0.0488470010459423065 2.39068603515625 58 58 70
0.292180001735687256 -0.0472030006349086761 2.39734506607055664 58 58 70
0.292856007814407349 -0.0455269999802112579 2.40288901329040527 71 71 81
0.291619002819061279 -0.0435569994151592255 2.39273905754089355 48 48 57
0.28953900933265686 -0.0414820015430450439 2.37567496299743652 13 13 20
0.290603011846542358 -0.0398639999330043793 2.3843989372253418 0 1 6
0.294126987457275391 -0.0367619991302490234 2.4133141040802002 0 1 6
0.286076009273529053 0.00434400001540780067 2.34725809097290039 0 0 8
0.285254001617431641 0.0165010001510381699 2.34051108360290527 0 2 0
0.28459399938583374 0.0181970000267028809 2.3350989818572998 0 2 0
0.268442004919052124 0.0220720004290342331 2.20257091522216797 0 2 0
0.277323007583618164 0.0430839993059635162 2.27544093132019043 0 1 6
0.277323007583618164 0.0498449988663196564 2.27544093132019043 0 0 6
0.259876996278762817 0.0546279996633529663 2.13229203224182129 1 1 14
0.26469498872756958 0.0766120031476020813 2.1718289852142334 0 1 6
0.263653010129928589 0.0779170021414756775 2.16327309608459473 0 1 6
0.263765007257461548 0.0795579999685287476 2.16419291496276855 0 1 6
0.26243901252746582 0.0807569995522499084 2.15331506729125977 0 1 6
0.264993011951446533 0.0831580013036727905 2.17427492141723633 0 1 6
0.265868991613388062 0.0850529968738555908 2.1814570426940918 0 1 6
0.268312990665435791 0.0907410010695457458 2.2015080451965332 0 1 6
0.266259998083114624 0.104650996625423431 2.18466806411743164 0 1 6
0.266945004463195801 0.106546998023986816 2.19028401374816895 0 1 6
0.266528993844985962 0.10800500214099884 2.18687009811401367 0 1 6
0.267919987440109253 0.110201999545097351 2.19828891754150391 0 1 6
0.266865998506546021 0.111395001411437988 2.1896369457244873 0 0 6
0.268474996089935303 0.113701999187469482 2.20284008979797363 0 0 8
0.263348013162612915 0.116346001625061035 2.16077494621276855 0 0 8
0.259649991989135742 0.121041998267173767 2.1304318904876709 0 0 10
0.260480999946594238 0.123016998171806335 2.13725090026855469 0 0 9
0.260572999715805054 0.124647997319698334 2.13800597190856934 0 0 7
0.257041990756988525 0.144889995455741882 2.10903096199035645 0 1 6
