ply
format ascii 1.0
element vertex 651
property float x
property float y
property float z
property uchar red
property uchar green
property uchar blue
end_header
0.0168389994651079178 0.149628996849060059 2.04532289505004883 1 2 7
0.0169079992920160294 0.151766002178192139 2.05368208885192871 1 2 7
0.0167769994586706161 0.161185994744300842 2.0377800464630127 0 3 8
0.0167219992727041245 0.162164002656936646 2.03107094764709473 0 4 8
0.0166330002248287201 0.210819005966186523 2.02025008201599121 1 7 12
0.0206380002200603485 -0.279255002737045288 2.29936099052429199 172 171 169
0.0204729996621608734 -0.275319010019302368 2.2808990478515625 163 161 159
0.0205240007489919662 -0.274313986301422119 2.28664302825927734 156 155 153
0.0204690005630254745 -0.271887004375457764 2.28053188323974609 152 152 152
0.0205090008676052094 -0.270707994699478149 2.28487896919250488 143 147 152
0.0206359997391700745 -0.268981009721755981 2.29913091659545898 116 123 129
0.0205400008708238602 -0.266029000282287598 2.28842806816101074 122 129 135
0.0204980000853538513 -0.263778001070022583 2.28365492820739746 131 138 144
0.0206199996173381805 -0.263653010129928589 2.29734706878662109 131 138 144
0.0205450002104043961 -0.260991990566253662 2.28898000717163086 127 134 140
0.0205920003354549408 -0.259880006313323975 2.29416894912719727 127 132 138
0.020571000874042511 -0.257910013198852539 2.29180288314819336 120 125 129
0.020541999489068985 -0.255849003791809082 2.28859210014343262 111 117 121
0.0206419993191957474 -0.255394011735916138 2.29980707168579102 101 108 113
0.0203670002520084381 -0.248620003461837769 2.26916408538818359 90 100 108
0.0200989991426467896 -0.243674993515014648 2.23921108245849609 87 98 107
0.020391000434756279 -0.243851006031036377 2.2718360424041748 77 90 102
0.0204850006848573685 -0.241576001048088074 2.2822270393371582 70 80 96
0.0203879997134208679 -0.238749995827674866 2.27146792411804199 60 72 89
0.020370999351143837 -0.236857995390892029 2.26950597763061523 59 73 89
0.0204019993543624878 -0.235540002584457397 2.27306294441223145 61 76 94
0.0203690007328987122 -0.23346400260925293 2.26929306983947754 60 77 97
0.0204130001366138458 -0.232280001044273376 2.27420306205749512 56 75 96
0.0204160008579492569 -0.230627000331878662 2.27455806732177734 53 73 96
0.0204060003161430359 -0.228823006153106689 2.27341794967651367 52 72 96
0.0203200001269578934 -0.226182997226715088 2.26390290260314941 53 73 96
0.0203089993447065353 -0.224380999803543091 2.26267910003662109 53 73 95
0.0202890001237392426 -0.222481995820999146 2.26046204566955566 51 72 92
0.0203479994088411331 -0.221439003944396973 2.26697206497192383 49 70 88
0.0204080007970333099 -0.220403000712394714 2.27366399765014648 46 67 83
0.0204739999026060104 -0.219419002532958984 2.28098201751708984 42 64 79
0.0204879995435476303 -0.217874005436897278 2.28255200386047363 41 61 75
0.0205010008066892624 -0.216317996382713318 2.28401899337768555 38 54 68
0.0205310005694627762 -0.214934006333351135 2.28734898567199707 37 50 64
0.0204920005053281784 -0.212835997343063354 2.28307199478149414 39 51 65
0.0204029995948076248 -0.210222005844116211 2.27314305305480957 41 53 67
0.0204259995371103287 -0.208768993616104126 2.27570104598999023 41 53 67
0.0204319991171360016 -0.207136005163192749 2.27633190155029297 41 53 67
0.0204460006207227707 -0.205593004822731018 2.27796792984008789 39 51 65
0.0204249992966651917 -0.203690007328987122 2.27561593055725098 38 50 64
0.0204349998384714127 -0.202098995447158813 2.27672791481018066 35 47 61
0.0203959997743368149 -0.200023993849754333 2.2723701000213623 32 44 58
0.020372999832034111 -0.198109999299049377 2.26978302001953125 29 41 54
0.0203760005533695221 -0.196449995040893555 2.27007889747619629 25 38 48
0.0198560003191232681 -0.189799994230270386 2.21222710609436035 22 35 43
0.0198539998382329941 -0.188137993216514587 2.21200299263000488 19 32 38
0.0198110006749629974 -0.186086997389793396 2.20716309547424316 16 30 33
0.0198270007967948914 -0.184597000479698181 2.20895290374755859 15 29 30
0.0197979994118213654 -0.182693004608154297 2.20577597618103027 16 29 32
0.0202810000628232956 -0.183788999915122986 2.25953197479248047 27 36 41
0.0203699991106987 -0.182913005352020264 2.26948904991149902 29 38 43
0.0204039998352527618 -0.181529000401496887 2.27326798439025879 28 37 42
0.0203970000147819519 -0.179778993129730225 2.27249002456665039 25 35 40
0.0203419998288154602 -0.17760699987411499 2.26631593704223633 26 37 41
0.0202730000019073486 -0.175331994891166687 2.2586829662322998 29 40 44
0.0203040000051259995 -0.173919007182121277 2.26213288307189941 30 41 45
0.0202779993414878845 -0.172018006443977356 2.25923800468444824 28 39 43
0.0203179996460676193 -0.170672997832298279 2.26365208625793457 27 38 42
0.0203889999538660049 -0.169584006071090698 2.27158904075622559 25 35 39
0.0204140003770589828 -0.168101996183395386 2.27436399459838867 20 27 33
0.0204210001975297928 -0.166470006108283997 2.27514290809631348 14 20 26
0.0204109996557235718 -0.164701998233795166 2.27406191825866699 10 14 21
0.0203889999538660049 -0.162832006812095642 2.2715449333190918 9 12 18
0.0203370004892349243 -0.160732999444007874 2.26573491096496582 11 15 19
0.0203399993479251862 -0.159076005220413208 2.26610398292541504 14 21 24
0.0203559994697570801 -0.157517001032829285 2.26789498329162598 17 25 26
0.0203779991716146469 -0.156003996729850769 2.27039003372192383 28 35 36
0.0204189997166395187 -0.154621005058288574 2.27485895156860352 50 55 55
0.0203840006142854691 -0.152674004435539246 2.27103400230407715 83 86 85
0.0204450003802776337 -0.151436999440193176 2.27779698371887207 120 122 120
0.0204939991235733032 -0.150107994675636292 2.2833099365234375 151 153 150
0.0204140003770589828 -0.102219000458717346 2.27438497543334961 146 166 193
0.0192120000720024109 -0.0914300009608268738 2.14043688774108887 130 155 186
0.0191389992833137512 -0.0895000025629997253 2.13234090805053711 118 145 175
0.0191259998828172684 -0.0878539979457855225 2.13084506988525391 108 136 165
0.0190409999340772629 -0.0858889967203140259 2.12138009071350098 101 128 155
0.0189980007708072662 -0.0841239988803863525 2.11662697792053223 92 119 142
0.0189660005271434784 -0.0824109986424446106 2.11301302909851074 85 112 132
0.0189880002290010452 -0.0809350013732910156 2.11547398567199707 84 109 127
0.0190099999308586121 -0.0794560015201568604 2.11792898178100586 83 108 123
0.0190570000559091568 -0.0780740007758140564 2.12313199043273926 83 106 121
0.0190210007131099701 -0.0763539969921112061 2.11914896965026855 82 105 119
0.0189609993249177933 -0.0745450034737586975 2.1124880313873291 84 109 123
0.0188929997384548187 -0.0727119967341423035 2.10484409332275391 90 117 134
0.0188730005174875259 -0.0710749998688697815 2.10267305374145508 99 126 145
0.0188939999788999557 -0.0695889964699745178 2.10497403144836426 111 138 158
0.0188859999179840088 -0.0679989978671073914 2.10415196418762207 120 147 168
0.0188219994306564331 -0.0662110000848770142 2.09702396392822266 124 151 172
0.0187849998474121094 -0.0645240023732185364 2.09281706809997559 121 148 170
0.0188699997961521149 -0.0632570013403892517 2.10237789154052734 115 142 163
0.0188960004597902298 -0.0617789998650550842 2.10522699356079102 111 138 159
0.0188190005719661713 -0.059969000518321991 2.09660792350769043 113 141 161
0.0187940001487731934 -0.0583340004086494446 2.09383511543273926 116 144 162
0.0187909994274377823 -0.0567709989845752716 2.0935521125793457 106 133 152
0.0187369994819164276 -0.0550559982657432556 2.08749008178710938 89 114 133
0.0186480004340410233 -0.0532509982585906982 2.07755088806152344 79 100 122
0.0187539998441934586 -0.0520039983093738556 2.08946108818054199 72 91 115
0.0187950003892183304 -0.0505620017647743225 2.09397792816162109 60 78 102
0.0187470000237226486 -0.0488810017704963684 2.08861088752746582 48 68 90
0.0187379997223615646 -0.0473069995641708374 2.0876469612121582 43 65 86
0.0186989996582269669 -0.045660998672246933 2.08326292037963867 39 60 82
0.0187350008636713028 -0.0441990010440349579 2.08729696273803711 39 61 84
0.0187369994819164276 -0.0426519997417926788 2.08748507499694824 45 67 91
0.0186790004372596741 -0.0409750007092952728 2.08105206489562988 54 76 99
0.0186999998986721039 -0.0394730009138584137 2.0833430290222168 58 80 104
0.0187010001391172409 -0.0379289984703063965 2.0835568904876709 57 79 103
0.0186449997127056122 -0.0362709984183311462 2.07721209526062012 59 81 104
0.018504999577999115 -0.0344690009951591492 2.0617060661315918 60 82 106
0.0185870006680488586 -0.0330829992890357971 2.07082700729370117 56 77 100
0.0185519997030496597 -0.0314860008656978607 2.06695199012756348 50 70 94
0.0186000000685453415 -0.0300270002335309982 2.07223391532897949 45 65 89
0.0185950007289648056 -0.0284809991717338562 2.07172393798828125 40 61 84
0.0184819996356964111 -0.0267789997160434723 2.05915999412536621 35 56 79
0.0183889996260404587 -0.025120999664068222 2.04871296882629395 30 51 75
0.0183840002864599228 -0.023592999204993248 2.04816198348999023 27 50 74
0.018512999638915062 -0.0222270004451274872 2.06258893013000488 28 53 79
0.0184729993343353271 -0.0206499993801116943 2.05811905860900879 39 65 91
0.0184059999883174896 -0.0190520007163286209 2.05059289932250977 55 80 107
0.0183819998055696487 -0.0175059996545314789 2.04798102378845215 61 85 113
0.0182780008763074875 -0.0158949997276067734 2.03640103340148926 59 82 109
0.0182460006326436996 -0.0143569996580481529 2.03284406661987305 51 71 97
0.0182099994271993637 -0.0128210000693798065 2.02879500389099121 32 50 75
0.0180939994752407074 -0.0112429996952414513 2.01592397689819336 14 30 52
0.0180259998887777328 -0.00970800034701824188 2.0083010196685791 8 21 39
0.0181290004402399063 -0.00826300028711557388 2.01972007751464844 5 15 29
0.0181099995970726013 -0.00675699999555945396 2.01769709587097168 1 9 20
0.0180350001901388168 -0.00523599982261657715 2.00934100151062012 0 7 16
0.0180549994111061096 -0.00374799990095198154 2.01148009300231934 2 9 17
0.0181779991835355759 -0.00226900004781782627 2.02525711059570312 2 9 15
0.0181879997253417969 -0.000765000004321336746 2.02634096145629883 0 5 11
0.0181900002062320709 0.000739999988581985235 2.02654695510864258 0 4 11
0.0181889999657869339 0.00224500009790062904 2.02648091316223145 0 4 13
0.0182339996099472046 0.00375999999232590199 2.03144407272338867 0 5 14
0.0182009991258382797 0.00525900023058056831 2.02781796455383301 2 9 17
0.018162999302148819 0.00675099994987249374 2.02360391616821289 2 10 17
0.0181910004466772079 0.00826700031757354736 2.02673602104187012 0 8 15
0.0182310007512569427 0.00979399960488080978 2.03118395805358887 0 7 14
0.0181399993598461151 0.0112460004165768623 2.02100396156311035 0 9 18
0.0182109996676445007 0.0127969998866319656 2.02887797355651855 0 9 19
0.0182009991258382797 0.0142959998920559883 2.02781796455383301 0 9 20
0.0182169992476701736 0.0158169995993375778 2.02961301803588867 0 12 21
0.0182409994304180145 0.0173470005393028259 2.03226494789123535 1 16 24
0.0182160008698701859 0.0188299994915723801 2.02944493293762207 3 20 26
0.0182029996067285538 0.0203230008482933044 2.02799797058105469 5 23 25
0.0181779991835355759 0.0218000002205371857 2.02523994445800781 4 22 23
0.0181900002062320709 0.0233200006186962128 2.02659797668457031 3 21 21
0.0181350000202655792 0.0247499998658895493 2.02048206329345703 3 19 23
0.0181440003216266632 0.0262640006840229034 2.0214691162109375 4 17 26
0.0180959999561309814 0.0276919994503259659 2.01614689826965332 3 15 24
0.0180830005556344986 0.0291680004447698593 2.01467609405517578 2 13 22
0.0180789995938539505 0.0306579992175102234 2.01423501968383789 0 10 20
0.0183409992605447769 0.149490997195243835 2.04343509674072266 1 2 7
0.0183400008827447891 0.150999993085861206 2.0433189868927002 1 2 7
0.0182499997317790985 0.162338003516197205 2.03325510025024414 0 4 8
0.0182830002158880234 0.164148002862930298 2.03697490692138672 0 4 8
0.0179890003055334091 0.162992998957633972 2.00416803359985352 0 6 9
0.0179730001837015152 0.207469001412391663 2.00240111351013184 2 11 15
0.0180510003119707108 0.209867000579833984 2.01112699508666992 1 7 13
0.0230160001665353775 -0.285867989063262939 2.36829805374145508 151 151 150
0.0221369992941617966 -0.273259997367858887 2.27786397933959961 146 146 146
0.0223549995571374893 -0.274235010147094727 2.30023002624511719 142 143 145
0.0223179999738931656 -0.272076010704040527 2.29642891883850098 139 144 150
0.0223830007016658783 -0.269454002380371094 2.30317592620849609 120 129 135
0.0224419999867677689 -0.268445998430252075 2.3092188835144043 124 132 139
0.0223559997975826263 -0.265704989433288574 2.30034303665161133 127 135 142
0.0223190002143383026 -0.263565987348556519 2.29658889770507812 125 132 139
0.0223559997975826263 -0.262288004159927368 2.30034303665161133 121 128 136
0.0222520008683204651 -0.259362995624542236 2.28960609436035156 121 127 134
0.0222929995507001877 -0.258145987987518311 2.29390311241149902 107 113 119
0.0223660003393888474 -0.257277995347976685 2.30138111114501953 99 106 111
0.0223409999161958694 -0.255282998085021973 2.29880809783935547 92 99 106
0.0221260003745555878 -0.251132994890213013 2.27666807174682617 86 95 102
0.0217320006340742111 -0.245006993412971497 2.23618388175964355 84 94 103
0.0216850005090236664 -0.24281899631023407 2.23134088516235352 81 93 102
0.0218729991465806961 -0.243247002363204956 2.25063800811767578 75 88 99
0.022075999528169632 -0.243815004825592041 2.27150201797485352 69 83 96
0.0220309998840093613 -0.241641998291015625 2.26694297790527344 71 84 97
0.0220030006021261215 -0.239645004272460938 2.2639930248260498 65 77 92
0.0219829995185136795 -0.237748995423316956 2.26194906234741211 58 71 87
0.0220529995858669281 -0.236827000975608826 2.26921200752258301 58 73 89
0.0221260003745555878 -0.235919997096061707 2.27673006057739258 60 77 94
0.0221749991178512573 -0.234739005565643311 2.28168606758117676 60 77 97
0.0222020000219345093 -0.233336001634597778 2.28454089164733887 56 76 97
0.0221420004963874817 -0.231010004878044128 2.27834010124206543 54 75 97
0.0220570005476474762 -0.228441998362541199 2.26963210105895996 54 73 97
0.0220030006021261215 -0.226191997528076172 2.26398801803588867 54 73 97
0.0220049992203712463 -0.224535003304481506 2.26423811912536621 53 73 95
0.0220350008457899094 -0.223156005144119263 2.26731109619140625 53 72 93
0.0220630001276731491 -0.221751004457473755 2.27016496658325195 51 71 90
0.0220929998904466629 -0.220366999506950378 2.27328801155090332 48 68 86
0.0221309997141361237 -0.219058007001876831 2.27723598480224609 45 66 82
0.0221849996596574783 -0.217896997928619385 2.28279399871826172 44 64 78
0.0221740007400512695 -0.216088995337486267 2.28159999847412109 40 57 71
0.0222950000315904617 -0.21556699275970459 2.29407811164855957 40 54 67
0.0222919993102550507 -0.213837996125221252 2.29381608963012695 43 56 69
0.0221820008009672165 -0.211079001426696777 2.28240203857421875 44 57 70
0.0221829991787672043 -0.20939299464225769 2.28250694274902344 44 56 70
0.0221660006791353226 -0.207542002201080322 2.28079891204833984 42 54 68
0.0221640001982450485 -0.205827996134757996 2.2805790901184082 39 51 65
0.0221280008554458618 -0.203801006078720093 2.27685689926147461 36 48 62
0.0220749992877244949 -0.201626002788543701 2.27140092849731445 31 43 57
0.0220539998263120651 -0.19975300133228302 2.26929497718811035 25 37 51
0.0220160000026226044 -0.197723999619483948 2.26535701751708984 21 34 46
0.021925000473856926 -0.195232003927230835 2.25601005554199219 18 30 41
0.0215080007910728455 -0.189871996641159058 2.21306705474853516 15 29 37
0.0214649997651576996 -0.187851995229721069 2.20863604545593262 15 28 35
0.0214600004255771637 -0.184526994824409485 2.2081139087677002 19 33 36
0.0215969998389482498 -0.184061005711555481 2.22228789329528809 18 32 35
0.0219730008393526077 -0.18390500545501709 2.26095700263977051 20 34 38
0.022066999226808548 -0.183001995086669922 2.27059602737426758 22 36 40
0.0221040006726980209 -0.18162199854850769 2.27443504333496094 22 36 39
0.0221059992909431458 -0.179945006966590881 2.27458906173706055 21 35 38
0.022068999707698822 -0.177956998348236084 2.27078008651733398 22 36 39
0.0219989996403455734 -0.175715997815132141 2.26363801956176758 25 39 42
0.0219410005956888199 -0.173570007085800171 2.25759792327880859 26 40 44
0.0219739992171525955 -0.172158002853393555 2.26107406616210938 27 40 43
0.0219919998198747635 -0.170616999268531799 2.26290702819824219 26 40 43
0.022086000069975853 -0.169657006859779358 2.2725679874420166 25 37 41
0.022095000371336937 -0.168038994073867798 2.27350997924804688 22 32 36
0.0220749992877244949 -0.166198000311851501 2.27142691612243652 18 26 32
0.022067999467253685 -0.16446000337600708 2.2707219123840332 17 23 29
0.0220630001276731491 -0.162736997008323669 2.27022194862365723 18 23 29
0.022058999165892601 -0.161021992564201355 2.26980900764465332 15 22 27
0.0220129992812871933 -0.158998996019363403 2.26501107215881348 11 21 24
0.0220079999417066574 -0.157280996441841125 2.26450395584106445 13 23 24
0.022066999226808548 -0.156017005443572998 2.27058601379394531 16 25 27
0.0220929998904466629 -0.154513001441955566 2.27326488494873047 26 33 34
0.022086000069975853 -0.152779996395111084 2.27261090278625488 45 50 50
0.0221170000731945038 -0.151300996541976929 2.27574992179870605 75 79 77
0.0222229994833469391 -0.150326997041702271 2.28664302825927734 106 110 106
0.0221800003200769424 -0.148341000080108643 2.2822270393371582 138 140 137
0.0207649990916252136 -0.0928530022501945496 2.13659501075744629 138 162 193
0.0207359995692968369 -0.0911390036344528198 2.1336219310760498 137 163 195
0.0206540003418922424 -0.0891999974846839905 2.12519001960754395 136 164 197
0.0206279996782541275 -0.0875120013952255249 2.12254595756530762 135 163 197
0.0205559991300106049 -0.0856370031833648682 2.11518001556396484 133 161 194
0.0204869993031024933 -0.0837809965014457703 2.10800004005432129 131 159 190
0.0204869993031024933 -0.0822189971804618835 2.10808610916137695 127 154 184
0.0204879995435476303 -0.0806550011038780212 2.10814189910888672 124 149 177
0.0204910002648830414 -0.0791010037064552307 2.10845208168029785 123 146 172
0.0204809997230768204 -0.0774959996342658997 2.10739803314208984 122 144 168
0.0204809997230768204 -0.0759330019354820251 2.10746598243713379 117 138 160
0.0204520002007484436 -0.0742599964141845703 2.10440492630004883 112 136 157
0.0203499998897314072 -0.0723370015621185303 2.09399104118347168 116 143 163
0.0203280001878738403 -0.0707039982080459595 2.09168791770935059 124 152 173
0.0204789992421865463 -0.06966400146484375 2.1072239875793457 131 159 181
0.0204780008643865585 -0.0680959969758987427 2.10715198516845703 128 156 178
0.0204470008611679077 -0.0664289966225624084 2.10391998291015625 118 146 169
0.0204269997775554657 -0.064802996814250946 2.10188603401184082 107 135 159
0.0204009991139173508 -0.0631610006093978882 2.09920191764831543 99 127 150
0.0204470008611679077 -0.0617409981787204742 2.10394501686096191 86 114 136
0.0204700008034706116 -0.0602440014481544495 2.10624289512634277 67 95 117
0.0203389991074800491 -0.0583049990236759186 2.09278702735900879 58 86 107
0.0203099995851516724 -0.0566699989140033722 2.08982300758361816 45 73 94
0.0202350001782178879 -0.0549140013754367828 2.0821070671081543 38 64 86
0.020199999213218689 -0.0532759986817836761 2.07850909233093262 36 60 83
0.020212000235915184 -0.0517619997262954712 2.07970595359802246 40 62 86
0.0202559996396303177 -0.0503269992768764496 2.08427906036376953 44 66 90
0.0202740002423524857 -0.0488220006227493286 2.08612298965454102 48 70 93
0.0203079991042613983 -0.0473509989678859711 2.0895850658416748 50 73 96
0.0202649999409914017 -0.0457039996981620789 2.0852210521697998 48 73 95
0.0202360004186630249 -0.0440910011529922485 2.08222699165344238 48 72 97
0.0202559996396303177 -0.0425859987735748291 2.08423709869384766 48 72 98
0.020230000838637352 -0.0409860014915466309 2.08159089088439941 47 71 97
0.020221000537276268 -0.0394220016896724701 2.080657958984375 46 69 96
0.0201869998127222061 -0.0378130003809928894 2.07720494270324707 45 66 93
0.0202040001749992371 -0.0362999998033046722 2.07890510559082031 44 66 92
0.020028999075293541 -0.0344559997320175171 2.06094598770141602 43 64 91
0.0200890004634857178 -0.0330229997634887695 2.06710100173950195 39 60 86
0.0199480000883340836 -0.0312660001218318939 2.05253410339355469 38 58 82
0.0199989993125200272 -0.0298180002719163895 2.0578010082244873 36 56 80
0.0199710000306367874 -0.0282509997487068176 2.05497097969055176 31 51 76
0.0198759995400905609 -0.0265970006585121155 2.04521608352661133 26 46 70
0.0199040006846189499 -0.0251119993627071381 2.04801201820373535 23 44 68
0.0199059993028640747 -0.023593999445438385 2.04822111129760742 23 46 71
0.0200009997934103012 -0.0221779998391866684 2.05802202224731445 31 57 85
0.0198630001395940781 -0.0205070003867149353 2.04384899139404297 49 74 103
0.0197509992867708206 -0.0188820008188486099 2.03235411643981934 61 86 115
0.0198069997131824493 -0.0174209997057914734 2.03803300857543945 64 87 115
0.0197790004312992096 -0.0158859994262456894 2.03523588180541992 57 79 107
0.0197500009089708328 -0.014352000318467617 2.03217792510986328 43 61 88
0.0197240002453327179 -0.012826000340282917 2.02952909469604492 23 39 64
0.0195569992065429688 -0.00972799956798553467 2.01235508918762207 8 19 37
0.0195749998092651367 -0.00824099965393543243 2.01423501968383789 4 13 27
0.0194940008223056793 -0.00671700015664100647 2.00583910942077637 1 9 20
0.0195610001683235168 -0.00524500012397766113 2.01279091835021973 0 8 17
0.0196679998189210892 -0.00377000006847083569 2.02376699447631836 0 8 16
0.0196870006620883942 -0.00226900004781782627 2.02572488784790039 0 8 14
0.0196860004216432571 -0.000765000004321336746 2.02561306953430176 0 8 13
0.0196720007807016373 0.000738999980967491865 2.02415204048156738 0 6 12
0.0196659993380308151 0.00224200007505714893 2.02358293533325195 0 6 12
0.0196649990975856781 0.00374500011093914509 2.02347588539123535 1 8 16
0.0196780003607273102 0.00525100016966462135 2.02479410171508789 4 12 19
0.0196250006556510925 0.00673699984326958656 2.01930809020996094 3 14 20
0.0196739993989467621 0.00825800001621246338 2.02440500259399414 1 12 19
0.0197149999439716339 0.00978200044482946396 2.028594970703125 2 11 20
0.019700000062584877 0.0112800002098083496 2.02709007263183594 3 14 24
0.0196930002421140671 0.0127809997648000717 2.02630496025085449 3 14 25
0.0197149999439716339 0.0143020004034042358 2.02858901023864746 2 13 24
0.0197899993509054184 0.0158680006861686707 2.03626799583435059 0 13 23
0.0197199992835521698 0.017319999635219574 2.02907705307006836 0 13 21
0.0197160001844167709 0.0188229996711015701 2.02867293357849121 0 15 20
0.0196729991585016251 0.0202849991619586945 2.02423810958862305 0 17 20
0.0196729991585016251 0.0217899996787309647 2.02433109283447266 0 18 19
0.0196700002998113632 0.023290000855922699 2.02400898933410645 3 20 20
0.0196310002356767654 0.0247440002858638763 2.01996588706970215 4 18 23
0.0195870008319616318 0.0261850003153085709 2.01544094085693359 5 16 25
0.0195870008319616318 0.0276820007711648941 2.01544499397277832 4 14 24
0.0195879992097616196 0.0291809998452663422 2.01556301116943359 3 11 22
0.0195870008319616318 0.0306759998202323914 2.01544499397277832 1 9 20
0.0194479990750551224 0.0319450013339519501 2.00116705894470215 0 8 19
0.0194780007004737854 0.0349709987640380859 2.00416803359985352 0 7 18
0.0194409992545843124 0.0393630005419254303 2.0004429817199707 0 10 19
0.0194610003381967545 0.0408900007605552673 2.00246810913085938 0 11 19
0.0194579996168613434 0.0423710010945796967 2.0021660327911377 0 12 20
0.0194439999759197235 0.045311998575925827 2.00069808959960938 1 13 21
0.0198190007358789444 0.149186998605728149 2.03927803039550781 1 2 7
0.0198950003832578659 0.151282995939254761 2.04714393615722656 1 2 7
0.0196940004825592041 0.160290002822875977 2.02645206451416016 0 3 8
0.0197340007871389389 0.162122994661331177 2.03055691719055176 0 4 8
0.0198410004377365112 0.164519995450973511 2.04158496856689453 0 4 8
0.0238690003752708435 -0.272024005651473999 2.28168606758117676 142 143 145
0.0241669993847608566 -0.273703992366790771 2.31016898155212402 127 134 140
0.0238760001957416534 -0.268705010414123535 2.28228306770324707 120 129 136
0.0240470003336668015 -0.26721501350402832 2.29862809181213379 116 125 132
0.023956000804901123 -0.264503985643386841 2.28993892669677734 115 124 131
0.0239300001412630081 -0.262519001960754395 2.28747200965881348 111 120 127
0.0239649992436170578 -0.261207014322280884 2.29085993766784668 107 115 123
0.0239039994776248932 -0.258845001459121704 2.2850348949432373 106 113 121
0.0239170007407665253 -0.257279008626937866 2.28619599342346191 96 103 109
0.0239909999072551727 -0.256375998258590698 2.29331302642822266 91 98 104
0.0238240007311105728 -0.252902001142501831 2.27736592292785645 86 94 101
0.0236450005322694778 -0.249321997165679932 2.26024889945983887 83 92 100
0.0235380008816719055 -0.244846999645233154 2.24998211860656738 78 91 101
0.0235370006412267685 -0.243167996406555176 2.24990510940551758 70 85 96
0.0236319992691278458 -0.242467999458312988 2.2589569091796875 64 79 92
0.0237029995769262314 -0.241514995694160461 2.26575303077697754 61 74 88
0.0235879998654127121 -0.238666996359825134 2.25475001335144043 55 68 82
0.0236489996314048767 -0.237610995769500732 2.2606348991394043 50 64 78
0.0236680004745721817 -0.236119002103805542 2.26243209838867188 51 68 82
0.0237130001187324524 -0.234881997108459473 2.26671099662780762 54 72 88
0.0238669998943805695 -0.234717994928359985 2.28147506713867188 54 72 90
0.0238450001925230026 -0.23281000554561615 2.27939391136169434 51 71 91
0.0237990003079175949 -0.230663001537322998 2.27491307258605957 51 72 92
0.0238140001893043518 -0.229123994708061218 2.2764129638671875 54 73 95
0.0237700007855892181 -0.227008998394012451 2.27216601371765137 55 73 96
0.0237980000674724579 -0.225593000650405884 2.27490496635437012 54 72 95
0.0237709991633892059 -0.223645001649856567 2.27228188514709473 52 70 92
0.02377299964427948 -0.221976995468139648 2.27248191833496094 50 68 88
0.0238019991666078568 -0.220559999346733093 2.27528190612792969 47 66 83
0.0238760001957416534 -0.219546005129814148 2.28230500221252441 44 64 79
0.0238589998334646225 -0.217697992920875549 2.28070306777954102 42 62 76
0.0238639991730451584 -0.216043993830680847 2.2811279296875 40 57 70
0.0239090006798505783 -0.214756995439529419 2.28545999526977539 40 55 66
0.0239189993590116501 -0.213154003024101257 2.28647589683532715 42 56 67
0.0237900000065565109 -0.210314005613327026 2.27413702011108398 44 58 68
0.0237879995256662369 -0.208600997924804688 2.27387809753417969 42 56 67
0.0237499997019767761 -0.206579998135566711 2.27022790908813477 38 52 63
0.0237370003014802933 -0.204787001013755798 2.26904106140136719 33 47 59
0.0237119998782873154 -0.202886000275611877 2.26663804054260254 29 43 55
0.0237050000578165054 -0.201144993305206299 2.26598501205444336 23 37 50
0.0236060004681348801 -0.198625996708869934 2.25649404525756836 17 31 44
0.0234880000352859497 -0.195967003703117371 2.24522995948791504 14 28 40
0.0233740005642175674 -0.193359002470970154 2.2343590259552002 12 26 36
0.0231250002980232239 -0.189658001065254211 2.21057009696960449 11 25 34
0.0231979992240667343 -0.188609004020690918 2.21753907203674316 13 28 34
0.0231870003044605255 -0.186873003840446472 2.21649003028869629 17 32 36
0.0231570005416870117 -0.184983000159263611 2.21357202529907227 21 36 39
0.023101000115275383 -0.182899996638298035 2.20827603340148926 20 35 39
0.023273000493645668 -0.182610005140304565 2.2247159481048584 18 32 39
0.0235750004649162292 -0.183301001787185669 2.25353193283081055 21 34 42
0.0237249992787837982 -0.182785004377365112 2.26789999008178711 22 35 43
0.0237199999392032623 -0.181060999631881714 2.26740407943725586 22 35 43
0.0237099993973970413 -0.179303005337715149 2.26647305488586426 22 36 43
0.0237160008400678635 -0.177665993571281433 2.26706504821777344 23 38 45
0.0236389990895986557 -0.175410002470016479 2.25969505310058594 26 41 48
0.0235840007662773132 -0.173325002193450928 2.25440597534179688 25 40 47
0.0235569998621940613 -0.171451002359390259 2.25178694725036621 22 37 44
0.0236789993941783905 -0.170658007264137268 2.26345300674438477 23 38 44
0.0237440001219511032 -0.169440999627113342 2.2696681022644043 22 36 44
0.023775000125169754 -0.167977005243301392 2.27267193794250488 21 33 41
0.0237670000642538071 -0.166229993104934692 2.27186107635498047 20 30 39
0.0237419996410608292 -0.164372995495796204 2.26952004432678223 21 29 38
0.0237300004810094833 -0.162603005766868591 2.26834797859191895 23 30 39
0.0237050000578165054 -0.16074700653553009 2.26593589782714844 21 29 36
0.0236789993941783905 -0.158892005681991577 2.26348090171813965 16 26 30
0.0237509999424219131 -0.157689005136489868 2.27037191390991211 16 27 30
0.0237280000001192093 -0.155851006507873535 2.26816391944885254 12 22 24
0.0237869992852210999 -0.154548004269599915 2.27378511428833008 7 16 17
0.0237670000642538071 -0.152734994888305664 2.27193307876586914 10 18 17
0.0238240007311105728 -0.151408001780509949 2.27736592292785645 28 33 32
0.0238910000771284103 -0.150135993957519531 2.28374195098876953 52 57 55
0.0238949991762638092 -0.148468002676963806 2.28418302536010742 85 89 86
0.0238290000706911087 -0.146365001797676086 2.27784490585327148 129 133 129
0.0238739997148513794 -0.144945994019508362 2.28214192390441895 162 164 160
0.0222909990698099136 -0.0926000028848648071 2.13079190254211426 140 166 198
0.0222890004515647888 -0.0910080000758171082 2.13057303428649902 137 165 198
0.0222440008074045181 -0.0892470031976699829 2.12631511688232422 134 163 198
0.0221330001950263977 -0.0872310027480125427 2.11572003364562988 134 162 200
0.0221309997141361237 -0.0856499969959259033 2.11548399925231934 135 164 201
0.0220999997109174728 -0.0839620009064674377 2.11255097389221191 132 160 197
0.0220609996467828751 -0.0822459980845451355 2.1087958812713623 128 156 190
0.0220839995890855789 -0.0807650014758110046 2.11102700233459473 126 151 184
0.0220849998295307159 -0.0792009979486465454 2.11111998558044434 124 148 180
0.0220829993486404419 -0.0776249989867210388 2.11090993881225586 122 145 175
0.022096000611782074 -0.0761030018329620361 2.11219692230224609 118 139 168
0.0221059992909431458 -0.0745669975876808167 2.1131129264831543 114 137 162
0.0220500007271766663 -0.0728140026330947876 2.10781002044677734 111 138 160
0.0220139995217323303 -0.0711319968104362488 2.10437107086181641 109 137 159
0.0220069997012615204 -0.0695459991693496704 2.10365605354309082 104 132 154
0.0220160000026226044 -0.0680119991302490234 2.10456395149230957 95 122 145
0.0220219995826482773 -0.0664660036563873291 2.1051030158996582 82 110 134
0.0220110006630420685 -0.0648709982633590698 2.1040799617767334 71 99 123
0.0219539999961853027 -0.0631430000066757202 2.09857392311096191 63 91 114
0.0219819992780685425 -0.0616640001535415649 2.10129189491271973 54 82 104
0.0219839997589588165 -0.0601060017943382263 2.10141801834106445 45 73 94
0.0218770001083612442 -0.058263000100851059 2.09127688407897949 41 69 90
0.0217969994992017746 -0.0565019994974136353 2.08361101150512695 38 65 86
0.021747000515460968 -0.0548279993236064911 2.0788118839263916 37 63 84
0.0217129997909069061 -0.0531990006566047668 2.07551789283752441 37 61 84
0.0217719990760087967 -0.0517980009317398071 2.08118391036987305 39 62 86
0.0217889994382858276 -0.0502920001745223999 2.08281302452087402 42 64 88
0.0217920001596212387 -0.048751000314950943 2.08308100700378418 45 68 91
0.0218240004032850266 -0.0472729988396167755 2.08612704277038574 47 72 94
0.0217669997364282608 -0.0456059984862804413 2.08075308799743652 48 72 95
0.021747000515460968 -0.0440189987421035767 2.07879209518432617 48 72 97
0.0218119993805885315 -0.042601998895406723 2.08501601219177246 47 71 97
0.0217860005795955658 -0.0410039983689785004 2.08252692222595215 44 68 95
0.021734999492764473 -0.0393639989197254181 2.07763099670410156 43 65 94
0.0217059999704360962 -0.0377710014581680298 2.07485008239746094 42 63 91
0.021736999973654747 -0.0362810008227825165 2.07781195640563965 38 59 86
0.0216060001403093338 -0.0345299988985061646 2.06537199020385742 34 56 82
0.0215789992362260818 -0.0329549983143806458 2.06279206275939941 32 53 78
0.0214920006692409515 -0.0312950015068054199 2.05440092086791992 32 52 77
0.0214489996433258057 -0.0297090001404285431 2.05028390884399414 30 50 75
0.0213600005954504013 -0.0280699990689754486 2.04183197021484375 23 43 68
0.0213920008391141891 -0.0265929996967315674 2.04490494728088379 16 36 61
0.021415000781416893 -0.0251000002026557922 2.04703092575073242 15 36 60
0.0214269999414682388 -0.023593999445438385 2.04822111129760742 24 48 74
0.0214360002428293228 -0.0220810007303953171 2.04904603958129883 42 67 96
0.0212650001049041748 -0.0203959997743368149 2.03277802467346191 56 80 111
0.0212580002844333649 -0.0188790000975131989 2.03205299377441406 61 84 114
0.0212459992617368698 -0.0173599999397993088 2.03089308738708496 58 79 107
0.0212699994444847107 -0.0158699993044137955 2.03325510025024414 50 69 96
0.0212409999221563339 -0.0143400002270936966 2.03040099143981934 37 54 80
0.0212639998644590378 -0.0128459995612502098 2.03261494636535645 23 37 61
0.0212880000472068787 -0.0113479997962713242 2.03489589691162109 13 24 45
0.021056000143289566 -0.00973000004887580872 2.01279091835021973 5 14 33
0.0209999997168779373 -0.00821300037205219269 2.00744795799255371 0 8 23
0.0209749992936849594 -0.00671399990096688271 2.00498008728027344 0 7 19
0.0210779998451471329 -0.00524999992921948433 2.01486802101135254 0 9 18
0.0210989993065595627 -0.00375799997709691525 2.01690196990966797 0 8 16
0.0212200004607439041 -0.00227200007066130638 2.02838802337646484 0 7 13
0.0211670007556676865 -0.000763999996706843376 2.02332401275634766 1 10 14
0.0211580004543066025 0.000738999980967491865 2.02252101898193359 1 9 14
0.0211510006338357925 0.00224000005982816219 2.02185297012329102 1 10 15
0.0211629997938871384 0.00374400010332465172 2.02298688888549805 5 14 20
0.021064000204205513 0.00522200018167495728 2.01353788375854492 6 17 24
0.0211149994283914566 0.00673400005325675011 2.01840305328369141 4 17 25
0.0211580004543066025 0.00824999995529651642 2.02245998382568359 3 18 27
0.0211909990757703781 0.00976699963212013245 2.02561497688293457 7 22 33
0.0211740005761384964 0.0112629998475313187 2.02400708198547363 13 29 42
0.0211459994316101074 0.0127499997615814209 2.02138710021972656 14 31 44
0.0211510006338357925 0.0142540000379085541 2.02182292938232422 10 27 40
0.021226000040769577 0.0158120002597570419 2.02902889251708984 4 22 33
0.0212270002812147141 0.017319999635219574 2.02913403511047363 1 15 24
0.0212179999798536301 0.0188190005719661713 2.0281980037689209 0 13 20
0.0212030000984668732 0.0203109998255968094 2.02684211730957031 0 16 20
0.0211040005087852478 0.0217150002717971802 2.01738095283508301 0 17 18
0.0211389996111392975 0.0232510007917881012 2.02065801620483398 0 15 17
0.0210950002074241638 0.0247009992599487305 2.016510009765625 1 13 18
0.021052999421954155 0.0261460002511739731 2.0124518871307373 2 12 20
0.0210829991847276688 0.0276810005307197571 2.01534795761108398 2 11 20
0.0210839994251728058 0.0291789993643760681 2.01544499397277832 0 7 17
0.021044999361038208 0.0306189991533756256 2.01170897483825684 0 5 15
0.0210480000823736191 0.0321180000901222229 2.01199007034301758 1 7 17
0.0210430007427930832 0.0336039997637271881 2.0115048885345459 1 9 19
0.0209710001945495605 0.0349779985845088959 2.00460290908813477 1 10 19
0.0211599990725517273 0.147973999381065369 2.02270293235778809 1 2 7
0.0214389991015195847 0.15144599974155426 2.04936003684997559 1 2 7
0.0212050005793571472 0.161835998296737671 2.02696394920349121 0 4 8
0.0212849993258714676 0.163963004946708679 2.03467798233032227 0 4 8
0.0253909993916749954 -0.278595000505447388 2.26621103286743164 164 165 165
0.0263899993151426315 -0.284316003322601318 2.35543990135192871 152 152 154
0.0263659991323947906 -0.282305985689163208 2.35326695442199707 148 149 150
0.0258729998022317886 -0.27016100287437439 2.3092188835144043 110 120 128
0.0257239993661642075 -0.265197008848190308 2.29593896865844727 104 113 122
0.025629999116063118 -0.262528002262115479 2.28754901885986328 100 109 118
0.0255769994109869003 -0.260291010141372681 2.28282499313354492 95 104 112
0.0257200002670288086 -0.260044008493423462 2.29561996459960938 91 100 108
0.0257319994270801544 -0.258455991744995117 2.29665803909301758 91 99 106
0.0254829991608858109 -0.25426599383354187 2.27443790435791016 87 96 102
0.025307999923825264 -0.250844001770019531 2.25883388519287109 85 94 102
0.02565000019967556 -0.250833988189697266 2.28936910629272461 84 96 105
0.0254410002380609512 -0.247100993990898132 2.27069497108459473 79 93 104
0.0251729991286993027 -0.242834001779556274 2.24681591987609863 69 85 98
0.0252340007573366165 -0.2417449951171875 2.25222301483154297 61 77 90
0.0252180006355047226 -0.239915996789932251 2.25075101852416992 52 66 78
0.0252599995583295822 -0.238645002245903015 2.25453901290893555 46 60 72
0.0252539999783039093 -0.236916005611419678 2.25401997566223145 43 59 70
0.0252650007605552673 -0.235339000821113586 2.25495290756225586 46 63 76
0.0253279991447925568 -0.234251007437705994 2.26061892509460449 48 67 82
0.0254129990935325623 -0.233347997069358826 2.26816391944885254 48 67 83
0.0253609996289014816 -0.231187999248504639 2.26351094245910645 46 66 84
0.0253790002316236496 -0.22967800498008728 2.26519608497619629 47 66 86
0.0253650005906820297 -0.227870002388954163 2.26394796371459961 53 71 92
0.0253570005297660828 -0.226114004850387573 2.26320409774780273 54 72 93
0.0253570005297660828 -0.224429994821548462 2.26318192481994629 52 69 90
0.0253829993307590485 -0.222977995872497559 2.26550793647766113 48 65 86
0.0254510007798671722 -0.221893996000289917 2.27163195610046387 44 61 80
0.0254999995231628418 -0.220629006624221802 2.27599096298217773 39 57 74
0.0255180001258850098 -0.219092994928359985 2.27760100364685059 36 54 69
0.0254539996385574341 -0.216857001185417175 2.27189898490905762 34 52 66
0.0254650004208087921 -0.215256005525588989 2.27280998229980469 33 50 61
0.0255970004945993423 -0.214673995971679688 2.28457498550415039 34 50 59
0.0254570003598928452 -0.211817994713783264 2.27214908599853516 36 51 60
0.0253480002284049988 -0.209226995706558228 2.2623751163482666 37 52 60
0.025317000225186348 -0.207293003797531128 2.25961709022521973 35 49 58
0.0252800006419420242 -0.205313995480537415 2.25631308555603027 30 45 54
0.0252700001001358032 -0.203558996319770813 2.25543594360351562 24 38 49
0.0251989997923374176 -0.201316997408866882 2.24910688400268555 19 33 45
0.0251460000872612 -0.199221998453140259 2.24432706832885742 15 30 43
0.0250470004975795746 -0.196778997778892517 2.23551201820373535 14 29 42
0.0249170009046792984 -0.194104000926017761 2.22388505935668945 14 29 41
0.0248719993978738785 -0.192104995250701904 2.21987199783325195 14 28 39
0.0247360002249479294 -0.189419999718666077 2.20779109001159668 14 28 38
0.0247220005840063095 -0.187674000859260559 2.20654201507568359 15 30 38
0.0247430000454187393 -0.186189994215965271 2.20837903022766113 16 31 37
0.0247440002858638763 -0.184556007385253906 2.20845794677734375 18 33 38
0.0249029994010925293 -0.184092000126838684 2.22266101837158203 20 35 41
0.0249380003660917282 -0.18269599974155426 2.22577309608459473 22 37 44
0.0249290000647306442 -0.180980995297431946 2.22500991821289062 23 38 45
0.0251260008662939072 -0.180744007229804993 2.24257588386535645 23 38 45
0.0251260008662939072 -0.179079994559288025 2.24259591102600098 24 39 46
0.0251100007444620132 -0.177303001284599304 2.24118804931640625 26 41 49
0.025136999785900116 -0.175821006298065186 2.24352192878723145 29 44 51
0.0250460002571344376 -0.173524007201194763 2.23540306091308594 30 46 53
0.0250179991126060486 -0.171676993370056152 2.23297595977783203 24 41 48
0.024960000067949295 -0.169624000787734985 2.22779011726379395 18 35 42
0.0250049997121095657 -0.168272003531455994 2.2318110466003418 20 37 44
0.0251180008053779602 -0.167364001274108887 2.24184703826904297 22 38 45
0.0253040008246898651 -0.166930004954338074 2.25850200653076172 22 36 43
0.025299999862909317 -0.165224999189376831 2.25812792778015137 20 32 40
0.0252470001578330994 -0.163203001022338867 2.25336909294128418 20 29 38
0.0252940002828836441 -0.161831006407737732 2.2575829029083252 20 29 38
0.025289999321103096 -0.160128995776176453 2.25722002983093262 20 31 38
0.0252870004624128342 -0.158433005213737488 2.25695109367370605 20 34 38
0.0252509992569684982 -0.156532004475593567 2.25371694564819336 19 32 34
0.0253240000456571579 -0.155306994915008545 2.26024889945983887 13 25 27
0.0254079997539520264 -0.154137000441551208 2.26773500442504883 5 15 16
0.0254289992153644562 -0.152579993009567261 2.26963210105895996 0 7 7
0.0254149995744228363 -0.150809004902839661 2.26834797859191895 4 10 9
0.0255469996482133865 -0.149902001023292542 2.280181884765625 13 20 18
0.0254629999399185181 -0.147719994187355042 2.27267193794250488 34 40 37
0.0254089999943971634 -0.145722001791000366 2.26784491539001465 70 76 72
0.025467999279499054 -0.144369006156921387 2.27306294441223145 112 116 112
0.0254309996962547302 -0.142472997307777405 2.26976299285888672 154 157 152
0.025118999183177948 -0.107423000037670135 2.24195003509521484 166 181 199
0.024969000369310379 -0.105125002562999725 2.22854399681091309 154 176 198
0.0237700007855892181 -0.0921989977359771729 2.12154793739318848 136 164 195
0.0238320007920265198 -0.0908600017428398132 2.12710189819335938 130 159 192
0.0237060002982616425 -0.0888060033321380615 2.11579990386962891 126 154 189
0.0237610004842281342 -0.0874390006065368652 2.1207740306854248 123 152 190
0.0236850008368492126 -0.0855899974703788757 2.11399698257446289 123 152 191
0.0236460007727146149 -0.0838780030608177185 2.11044788360595703 118 146 185
0.0236380007117986679 -0.0822840034961700439 2.10976600646972656 113 140 178
0.0236269999295473099 -0.0806810036301612854 2.10881400108337402 109 135 172
0.0236419998109340668 -0.0791629999876022339 2.11010503768920898 106 130 165
0.0236239992082118988 -0.0775379985570907593 2.10854911804199219 103 125 159
0.0236409995704889297 -0.0760250017046928406 2.11001491546630859 99 120 151
0.0236269999295473099 -0.074413001537322998 2.10876202583312988 94 118 145
0.0235990006476640701 -0.0727619975805282593 2.10630989074707031 87 113 137
0.0235590003430843353 -0.0710759982466697693 2.10270094871520996 77 103 126
0.0235619992017745972 -0.0695229992270469666 2.10297703742980957 65 91 114
0.0235610008239746094 -0.067960001528263092 2.10293102264404297 54 80 104
0.0235670004040002823 -0.066413000226020813 2.10342192649841309 46 72 97
0.0235479995608329773 -0.0648000016808509827 2.10176491737365723 38 64 88
0.0235060006380081177 -0.0631249994039535522 2.09798002243041992 32 58 81
0.0234949998557567596 -0.0615370012819766998 2.09698295593261719 29 55 77
0.0234719999134540558 -0.059921998530626297 2.09496903419494629 28 55 75
0.023424999788403511 -0.0582490004599094391 2.09077596664428711 31 58 77
0.0234030000865459442 -0.0566419996321201324 2.08879709243774414 36 63 82
0.0233410000801086426 -0.0549449995160102844 2.08328008651733398 40 66 86
0.0232779998332262039 -0.0532540008425712585 2.0776679515838623 43 68 89
0.0232769995927810669 -0.0517069995403289795 2.07751202583312988 45 70 92
0.0233340002596378326 -0.050287000834941864 2.0826270580291748 45 70 92
0.0233420003205537796 -0.0487570017576217651 2.08330893516540527 46 69 91
0.0233859997242689133 -0.0472999997437000275 2.08731794357299805 47 69 90
0.0233290009200572968 -0.0456379987299442291 2.08222699165344238 47 69 91
0.0233709998428821564 -0.0441699996590614319 2.08596491813659668 48 70 93
0.0233410000801086426 -0.0425649993121623993 2.08322906494140625 47 69 93
0.0233079995959997177 -0.0409599989652633667 2.08028197288513184 44 66 92
0.0233130007982254028 -0.0394239984452724457 2.08075308799743652 42 63 91
0.0232880003750324249 -0.0378380008041858673 2.07857108116149902 40 61 88
0.0232740007340908051 -0.0362709984183311462 2.0772559642791748 36 57 84
0.0231069996953010559 -0.0344789996743202209 2.06233692169189453 32 53 78
0.0231430009007453918 -0.0329999998211860657 2.06562495231628418 32 52 77
0.0229640007019042969 -0.0312220007181167603 2.04965591430664062 30 50 75
0.0228780005127191544 -0.0295880008488893509 2.04193210601806641 26 46 70
0.0228679999709129333 -0.0280600003898143768 2.04108095169067383 17 37 62
0.0229470003396272659 -0.0266350004822015762 2.04808902740478516 12 32 56
0.0229519996792078018 -0.025118999183177948 2.0485389232635498 13 34 58
0.0228509996086359024 -0.0234939996153116226 2.03956198692321777 29 53 79
0.0228179991245269775 -0.0219470001757144928 2.03660988807678223 51 77 105
0.0226419996470212936 -0.0202760007232427597 2.02083396911621094 63 88 116
0.0227359998971223831 -0.0188539996743202209 2.02930498123168945 64 85 114
0.0227819997817277908 -0.0173809994012117386 2.03333306312561035 53 72 99
0.0227429997175931931 -0.0158440005034208298 2.02987098693847656 40 57 83
0.022761000320315361 -0.0143470000475645065 2.03150606155395508 31 45 70
0.0228410009294748306 -0.0128830000758171082 2.03861904144287109 25 36 58
0.0226850006729364395 -0.0112920003011822701 2.02470588684082031 12 20 41
0.0225399993360042572 -0.00972499977797269821 2.0118100643157959 1 8 27
0.0225070007145404816 -0.0082189999520778656 2.00882911682128906 0 7 22
0.022407999262213707 -0.00669700000435113907 2.0000309944152832 1 9 21
0.0224929992109537125 -0.00523199979215860367 2.00760388374328613 1 10 20
0.0226509999483823776 -0.00376700004562735558 2.02164697647094727 0 8 16
0.0226530004292726517 -0.00226500001735985279 2.02187800407409668 0 8 14
0.0226399991661310196 -0.000762999989092350006 2.02074098587036133 0 10 15
0.0225820001214742661 0.000736000016331672668 2.01551699638366699 2 14 18
0.0225850008428096771 0.0022330000065267086 2.01577901840209961 5 18 21
0.0225479993969202042 0.00372499995864927769 2.01247692108154297 8 20 25
0.0224959999322891235 0.00520699983462691307 2.00783896446228027 6 19 26
0.0225859992206096649 0.00672599999234080315 2.0158998966217041 3 17 26
0.0226610004901885986 0.00824999995529651642 2.02254891395568848 3 18 29
0.0226930007338523865 0.00976600032299757004 2.02541708946228027 9 26 38
0.0226489994674921036 0.0112490002065896988 2.02150392532348633 18 36 50
0.0226240009069442749 0.012737000361084938 2.01930809020996094 22 40 54
0.0226169992238283157 0.0142320003360509872 2.01868796348571777 20 39 52
0.0226540006697177887 0.0157570000737905502 2.02195000648498535 16 34 47
0.0226869992911815643 0.0172840002924203873 2.02488088607788086 8 26 37
0.0227189995348453522 0.0188139993697404861 2.02774810791015625 2 20 28
0.0226319991052150726 0.0202419999986886978 2.01994991302490234 1 19 25
0.0226089991629123688 0.0217209998518228531 2.01797103881835938 1 19 23
0.0225549992173910141 0.0231640003621578217 2.01308608055114746 1 17 20
0.0225060004740953445 0.0246060006320476532 2.00870203971862793 0 12 18
0.0224849991500377655 0.0260739997029304504 2.00685906410217285 0 10 18
0.0224699992686510086 0.0275459997355937958 2.00550389289855957 0 8 17
0.0224920008331537247 0.0290639996528625488 2.00751304626464844 0 5 14
0.0224149990826845169 0.0304509997367858887 2.00063800811767578 0 3 13
0.0224140007048845291 0.0334220007061958313 2.00056791305541992 0 7 16
0.0224549993872642517 0.146617993712425232 2.00416803359985352 1 2 7
0.0229380000382661819 0.151291996240615845 2.0472710132598877 1 2 7
0.0228840000927448273 0.155487000942230225 2.04245209693908691 1 2 7
0.0227010007947683334 0.161768004298210144 2.02610993385314941 0 5 9
0.0226499997079372406 0.162907004356384277 2.02156996726989746 0 5 9
0.0272569991648197174 -0.280479997396469116 2.28153896331787109 154 156 155
