ply
format ascii 1.0
element vertex 672
property float x
property float y
property float z
property uchar red
property uchar green
property uchar blue
end_header
0.136430993676185608 0.0410320013761520386 2.08526396751403809 1 3 24
0.136015996336936951 0.0424520000815391541 2.07892799377441406 1 6 31
0.135994002223014832 0.0439880006015300751 2.07857990264892578 0 5 31
0.135544002056121826 0.0453820005059242249 2.07170200347900391 0 4 25
0.135878995060920715 0.0470370016992092133 2.07683396339416504 0 4 21
0.135968998074531555 0.0486110001802444458 2.07819700241088867 3 12 29
0.135527998208999634 0.0499930009245872498 2.07146906852722168 1 12 29
0.135527998208999634 0.0515309982001781464 2.07146906852722168 0 8 26
0.135921001434326172 0.0532229989767074585 2.07746696472167969 0 4 22
0.135369002819061279 0.0545440018177032471 2.06904006004333496 4 9 25
0.136225998401641846 0.0579820014536380768 2.08212494850158691 4 8 23
0.136175006628036499 0.0595070011913776398 2.08135509490966797 8 14 27
0.135645002126693726 0.0608149990439414978 2.07325410842895508 5 14 25
0.135527998208999634 0.0638400018215179443 2.07146906852722168 0 13 22
0.132660999894142151 0.0639950037002563477 2.02763795852661133 0 14 24
0.13269999623298645 0.0655210018157958984 2.02824497222900391 0 15 27
0.132514998316764832 0.0669339969754219055 2.02540802955627441 0 15 28
0.132467001676559448 0.0684140026569366455 2.02468204498291016 2 16 31
0.132322996854782104 0.0698409974575042725 2.02247309684753418 3 16 32
0.13235899806022644 0.0713630020618438721 2.0230250358581543 2 16 31
0.132057994604110718 0.0727000012993812561 2.01843094825744629 1 16 29
0.132027998566627502 0.0741819962859153748 2.01797103881835938 1 16 29
0.132030993700027466 0.0756829977035522461 2.01800799369812012 0 15 28
0.131852000951766968 0.0770770013332366943 2.0152740478515625 0 15 28
0.131886005401611328 0.0785939991474151611 2.01579403877258301 0 15 28
0.131934002041816711 0.0801210030913352966 2.01653790473937988 0 15 26
0.131841003894805908 0.0815609991550445557 2.01511597633361816 0 15 25
0.131862998008728027 0.0830719992518424988 2.01545000076293945 0 16 25
0.131473004817962646 0.0843190029263496399 2.00948500633239746 0 17 25
0.131520003080368042 0.0858419984579086304 2.01019597053527832 0 17 25
0.131831005215644836 0.0875419974327087402 2.01495909690856934 0 17 25
0.131822004914283752 0.089032001793384552 2.01481389999389648 2 18 26
0.132146000862121582 0.0907509997487068176 2.01976990699768066 4 18 27
0.132146000862121582 0.0922510027885437012 2.01976990699768066 5 18 29
0.13186199963092804 0.0935499966144561768 2.0154271125793457 6 19 30
0.131916001439094543 0.0950860008597373962 2.01626110076904297 6 19 30
0.132330998778343201 0.0968879982829093933 2.02260303497314453 5 19 30
0.132354006171226501 0.0984070003032684326 2.02294588088989258 4 20 29
0.13142000138759613 0.0992039963603019714 2.00866794586181641 3 20 28
0.13085600733757019 0.100263997912406921 2.00005102157592773 1 18 25
0.130921006202697754 0.101800002157688141 2.00104188919067383 0 15 22
0.131125003099441528 0.103448003530502319 2.00416803359985352 0 13 19
0.130894005298614502 0.109209999442100525 2.00063800811767578 0 3 7
0.131000995635986328 0.110785998404026031 2.0022740364074707 0 2 5
0.131160005927085876 0.122832000255584717 2.00469493865966797 0 1 5
0.131365001201629639 0.126008003950119019 2.00783896446228027 0 2 6
0.131433993577957153 0.12756599485874176 2.00889301300048828 0 1 4
0.131125003099441528 0.128755003213882446 2.00416803359985352 0 1 3
0.130866006016731262 0.131472006440162659 2.00021505355834961 0 1 1
0.130897998809814453 0.132990002632141113 2.00069808959960938 0 1 1
0.130921006202697754 0.141930997371673584 2.00105190277099609 0 1 1
0.131156995892524719 0.143675997853279114 2.00465989112854004 1 1 1
0.131317004561424255 0.145340994000434875 2.00709390640258789 1 1 1
0.131598994135856628 0.147147998213768005 2.01141595840454102 1 1 1
0.131665006279945374 0.148717001080513 2.01242494583129883 0 1 0
0.131623998284339905 0.150165006518363953 2.01179599761962891 0 2 0
0.131391003727912903 0.151390001177787781 2.0082249641418457 0 2 0
0.130873993039131165 0.176052004098892212 2.00032210350036621 0 1 5
0.131052002310752869 0.177781000733375549 2.00305509567260742 0 1 5
0.131354004144668579 0.179681003093719482 2.00766801834106445 0 1 5
0.131255999207496643 0.181038007140159607 2.00617289543151855 0 1 4
0.131220996379852295 0.182478994131088257 2.00563788414001465 0 1 4
0.131084993481636047 0.183778002858161926 2.00356101989746094 0 1 3
0.131165996193885803 0.185380995273590088 2.00479388236999512 0 1 2
0.130888000130653381 0.208763003349304199 2.00055098533630371 0 3 4
0.154469996690750122 -0.396230012178421021 2.33448410034179688 164 165 160
0.153883993625640869 -0.391268998384475708 2.32561397552490234 175 170 169
0.153854995965957642 -0.389470010995864868 2.32518291473388672 162 157 157
0.154388993978500366 -0.389088988304138184 2.33325695991516113 160 155 157
0.15445999801158905 -0.387533009052276611 2.33432102203369141 151 148 151
0.155007004737854004 -0.38542601466178894 2.34259605407714844 104 104 110
0.154333993792533875 -0.382019013166427612 2.33241701126098633 103 107 114
0.154428005218505859 -0.380519986152648926 2.3338470458984375 108 116 123
0.154225006699562073 -0.378288000822067261 2.33077597618103027 110 121 130
0.154205992817878723 -0.37651100754737854 2.33049511909484863 95 109 119
0.154015004634857178 -0.374314993619918823 2.32760310173034668 80 97 108
0.154293999075889587 -0.373259991407394409 2.33181500434875488 72 88 101
0.151286005973815918 -0.359191000461578369 2.28635597229003906 27 42 59
0.150948002934455872 -0.356694996356964111 2.28125309944152832 20 37 52
0.149928003549575806 -0.352600008249282837 2.26582789421081543 14 31 45
0.150022998452186584 -0.351141005754470825 2.26727294921875 18 34 48
0.14962199330329895 -0.348522007465362549 2.26120901107788086 27 44 58
0.150196999311447144 -0.348176002502441406 2.26990199089050293 30 47 60
0.150111004710197449 -0.346291989088058472 2.26860404014587402 27 44 58
0.149508997797966003 -0.343223989009857178 2.25950002670288086 28 45 59
0.150119006633758545 -0.342938989400863647 2.26871705055236816 27 46 59
0.149908006191253662 -0.340773999691009521 2.26552796363830566 25 44 57
0.149545997381210327 -0.338272988796234131 2.26006507873535156 25 44 58
0.148886993527412415 -0.335110992193222046 2.25010204315185547 26 45 60
0.149202004075050354 -0.334145992994308472 2.2548670768737793 27 46 61
0.149994000792503357 -0.334235012531280518 2.26683211326599121 27 46 61
0.15029500424861908 -0.333220005035400391 2.27138805389404297 24 44 59
0.14974600076675415 -0.330321013927459717 2.26308393478393555 23 44 58
0.149947002530097961 -0.329082012176513672 2.2661290168762207 25 45 60
0.149235993623733521 -0.325845003128051758 2.25537896156311035 26 47 64
0.149431005120277405 -0.324593007564544678 2.25832009315490723 25 48 66
0.150001004338264465 -0.324149012565612793 2.26694297790527344 37 59 77
0.149134993553161621 -0.320601999759674072 2.25384688377380371 40 62 80
0.148719996213912964 -0.318040996789932251 2.24757909774780273 26 48 65
0.149256005883216858 -0.317512005567550659 2.25568509101867676 9 30 44
0.149207994341850281 -0.315733999013900757 2.25495290756225586 1 20 35
0.150446996092796326 -0.316666990518569946 2.27367591857910156 4 22 34
0.150511994957923889 -0.315115004777908325 2.27466201782226562 8 24 37
0.150415003299713135 -0.313223987817764282 2.27320098876953125 4 18 29
0.149839997291564941 -0.310344010591506958 2.26450395584106445 4 17 27
0.149379998445510864 -0.307713985443115234 2.25755000114440918 6 16 26
0.149839997291564941 -0.306980013847351074 2.26450395584106445 5 15 25
0.149706006050109863 -0.305025994777679443 2.26248598098754883 3 15 24
0.150861993432044983 -0.305687010288238525 2.27995610237121582 2 15 24
0.150321006774902344 -0.302902013063430786 2.27176690101623535 1 14 23
0.148430004715919495 -0.297426998615264893 2.24319696426391602 1 14 23
0.147633999586105347 -0.294173002243041992 2.23115992546081543 0 10 18
0.147369995713233948 -0.291994005441665649 2.22717499732971191 0 9 15
0.147421002388000488 -0.290439993143081665 2.22794294357299805 0 9 15
0.147328004240989685 -0.288603007793426514 2.22654199600219727 0 9 15
0.147548004984855652 -0.287378013134002686 2.22987198829650879 0 9 14
0.148096993565559387 -0.286785006523132324 2.23816990852355957 0 9 14
0.147101998329162598 -0.2832069993019104 2.22312808036804199 0 9 14
0.14672599732875824 -0.280835986137390137 2.21744608879089355 0 9 14
0.146090000867843628 -0.277978003025054932 2.20782589912414551 0 7 13
0.14620700478553772 -0.276558995246887207 2.20959591865539551 0 7 13
0.14636799693107605 -0.275220990180969238 2.21203398704528809 0 7 13
0.146567001938819885 -0.27395099401473999 2.21504592895507812 0 7 13
0.146659001708030701 -0.272475987672805786 2.21643590927124023 0 7 13
0.146939992904663086 -0.271349012851715088 2.22068309783935547 0 7 13
0.146191999316215515 -0.268326014280319214 2.20936894416809082 0 7 13
0.146724000573158264 -0.267655998468399048 2.21741700172424316 0 7 13
0.146033003926277161 -0.264755994081497192 2.20697593688964844 0 8 12
0.146757006645202637 -0.264420986175537109 2.21791601181030273 0 10 12
0.147155001759529114 -0.263485997915267944 2.22392511367797852 0 10 12
0.147704005241394043 -0.262811988592147827 2.23222994804382324 0 10 12
0.150104999542236328 -0.265397995710372925 2.26850795745849609 0 10 12
0.149904996156692505 -0.263361990451812744 2.26548910140991211 0 10 12
0.149293005466461182 -0.260610997676849365 2.25623893737792969 0 9 12
0.14843200147151947 -0.257441014051437378 2.24322009086608887 0 9 12
0.147446006536483765 -0.254076004028320312 2.22832298278808594 0 9 11
0.146638005971908569 -0.251038014888763428 2.21610903739929199 0 7 10
0.147036999464035034 -0.25007098913192749 2.22214794158935547 0 6 9
0.146474003791809082 -0.247468993067741394 2.21363401412963867 0 5 10
0.146138995885848999 -0.245262995362281799 2.20857906341552734 0 5 10
0.145912006497383118 -0.243244007229804993 2.20514893531799316 0 4 10
0.146304994821548462 -0.242256999015808105 2.21108508110046387 0 4 10
0.146485999226570129 -0.240912005305290222 2.21381592750549316 0 4 10
0.146560996770858765 -0.23939099907875061 2.21495699882507324 0 4 10
0.146787002682685852 -0.238111004233360291 2.21836709976196289 1 5 11
0.146501004695892334 -0.23600199818611145 2.21404099464416504 0 5 11
0.14649200439453125 -0.234343007206916809 2.21390199661254883 0 4 10
0.146457001566886902 -0.232644006609916687 2.21337795257568359 0 3 12
0.146917998790740967 -0.231727004051208496 2.22034192085266113 0 4 13
0.146530002355575562 -0.229469999670982361 2.2144770622253418 1 5 14
0.146243005990982056 -0.227379992604255676 2.21015095710754395 3 7 16
0.146079003810882568 -0.225483998656272888 2.20766711235046387 4 8 17
0.146325007081031799 -0.224222004413604736 2.21138906478881836 5 10 18
0.145809993147850037 -0.221796005964279175 2.20360207557678223 12 16 24
0.146011993288993835 -0.220464006066322327 2.20665311813354492 20 24 31
0.145878002047538757 -0.218623995780944824 2.20462703704833984 27 32 38
0.145751997828483582 -0.21679900586605072 2.20272397994995117 36 41 47
0.145358994603157043 -0.214581996202468872 2.1967780590057373 51 56 62
0.145218998193740845 -0.212745994329452515 2.19466996192932129 71 76 82
0.145142003893852234 -0.211003005504608154 2.19349789619445801 87 92 98
0.145218998193740845 -0.209484994411468506 2.19466590881347656 101 106 110
0.145573005080223083 -0.208361998200416565 2.2000119686126709 112 117 122
0.145530998706817627 -0.206669002771377563 2.19938898086547852 123 128 132
0.145380005240440369 -0.204822003841400146 2.19709897041320801 127 132 135
0.145318999886512756 -0.203105002641677856 2.19618391990661621 128 133 136
0.145557999610900879 -0.201804995536804199 2.19979095458984375 128 133 136
0.14569699764251709 -0.20036199688911438 2.20189094543457031 125 130 133
0.145383000373840332 -0.198298007249832153 2.19714188575744629 119 125 125
0.144989997148513794 -0.196134001016616821 2.19120407104492188 117 121 122
0.144929006695747375 -0.194425001740455627 2.19028401374816895 120 124 123
0.145179003477096558 -0.193130999803543091 2.19406795501708984 124 129 126
0.144777998328208923 -0.190972998738288879 2.18800711631774902 130 135 131
0.144527003169059753 -0.189018994569778442 2.18421602249145508 134 139 135
0.144676998257637024 -0.187591001391410828 2.18647503852844238 136 141 137
0.144575998187065125 -0.185837000608444214 2.1849510669708252 137 142 138
0.144770994782447815 -0.184461995959281921 2.18789291381835938 137 141 139
0.145096004009246826 -0.183247998356819153 2.19280600547790527 135 141 140
0.144665002822875977 -0.18107999861240387 2.18630290031433105 134 139 141
0.144442006945610046 -0.179178997874259949 2.1829230785369873 133 138 141
0.144347995519638062 -0.177441999316215515 2.1815030574798584 131 136 139
0.144378006458282471 -0.175859004259109497 2.18196296691894531 129 134 137
0.144673004746437073 -0.1745930016040802 2.18640995025634766 127 132 135
0.144688993692398071 -0.172988995909690857 2.18666410446166992 125 130 133
0.145023003220558167 -0.171761006116867065 2.19171309471130371 124 129 132
0.144415006041526794 -0.169419005513191223 2.18251395225524902 122 127 129
0.145269006490707397 -0.168789997696876526 2.19542288780212402 121 127 127
0.14510500431060791 -0.166970998048782349 2.19294500350952148 121 127 125
0.144492000341415405 -0.164644002914428711 2.1836850643157959 119 126 123
0.144308000802993774 -0.162814006209373474 2.18089699745178223 118 126 120
0.144345000386238098 -0.161235004663467407 2.1814570426940918 117 126 118
0.144394993782043457 -0.159669995307922363 2.18220806121826172 116 125 117
0.144371002912521362 -0.15802299976348877 2.18185305595397949 117 125 117
0.145124003291130066 -0.157217994332313538 2.19322609901428223 116 122 114
0.145368993282318115 -0.155852004885673523 2.196929931640625 114 119 112
0.145078003406524658 -0.153911992907524109 2.19254302978515625 113 118 111
0.144629999995231628 -0.151813000440597534 2.18576598167419434 112 117 110
0.144795000553131104 -0.150360003113746643 2.18825697898864746 111 116 109
0.145055994391441345 -0.149002999067306519 2.1921999454498291 109 114 107
0.145154997706413269 -0.14747600257396698 2.19370698928833008 108 112 105
0.145113006234169006 -0.14580400288105011 2.19306206703186035 109 112 105
0.144402995705604553 -0.143470004200935364 2.18233609199523926 108 111 104
0.143759995698928833 -0.14121699333190918 2.17262601852416992 107 110 103
0.144097998738288879 -0.139930993318557739 2.17772698402404785 105 107 100
0.144152000546455383 -0.138365998864173889 2.17854189872741699 103 104 98
0.143993005156517029 -0.136596992611885071 2.1761469841003418 101 102 96
0.143937006592750549 -0.134928002953529358 2.17529296875 100 101 95
0.144743993878364563 -0.134059995412826538 2.18749499320983887 100 101 95
0.144510999321937561 -0.132220998406410217 2.18396806716918945 100 102 95
0.14432699978351593 -0.130432993173599243 2.18119001388549805 97 101 92
0.144446998834609985 -0.128920003771781921 2.18299603462219238 94 101 89
0.144467994570732117 -0.127316996455192566 2.18331503868103027 94 101 89
0.144428998231887817 -0.125661000609397888 2.18272209167480469 94 100 88
0.145035997033119202 -0.124560996890068054 2.19190192222595215 93 99 87
0.145197004079818726 -0.123070001602172852 2.19433093070983887 92 98 86
0.144692003726959229 -0.121017001569271088 2.18670010566711426 93 98 85
0.144244000315666199 -0.119023002684116364 2.17992901802062988 94 98 84
0.14513300359249115 -0.118128001689910889 2.19336795806884766 91 94 82
0.144929006695747375 -0.116334997117519379 2.19028401374816895 90 93 82
0.145326003432273865 -0.115022003650665283 2.19628190994262695 93 96 86
0.145386993885040283 -0.113439001142978668 2.19720792770385742 94 97 89
0.14499799907207489 -0.111506998538970947 2.19132399559020996 71 75 70
0.145513996481895447 -0.110270999372005463 2.19912099838256836 29 34 32
0.145897999405860901 -0.108924001455307007 2.20493292808532715 3 6 7
0.14572499692440033 -0.107159003615379333 2.20231389999389648 1 4 6
0.145514994859695435 -0.105370998382568359 2.19913506507873535 2 4 8
0.14535599946975708 -0.103624999523162842 2.19674491882324219 1 2 7
0.145425006747245789 -0.102041997015476227 2.19778704643249512 1 2 7
0.143594995141029358 -0.0991460010409355164 2.17013096809387207 1 2 7
0.143472999334335327 -0.0974510014057159424 2.16828703880310059 1 2 7
0.144612997770309448 -0.0917320027947425842 2.18550801277160645 1 2 7
0.141919001936912537 -0.0868370011448860168 2.14479708671569824 1 2 7
0.141467005014419556 -0.0849720016121864319 2.13796210289001465 1 2 7
0.141409993171691895 -0.0833500027656555176 2.1371009349822998 1 2 7
0.141430005431175232 -0.0817750021815299988 2.13741207122802734 1 2 7
0.141423001885414124 -0.0801829993724822998 2.13729596138000488 1 2 7
0.145824998617172241 -0.0810419991612434387 2.203826904296875 1 2 6
0.141211003065109253 -0.0768930017948150635 2.13409709930419922 1 2 5
0.141020998358726501 -0.0752059966325759888 2.13122200965881348 0 1 3
0.140959993004798889 -0.0735910013318061829 2.13030791282653809 0 1 3
0.13983599841594696 -0.071434997022151947 2.11332201957702637 0 1 3
0.13846200704574585 -0.0676240026950836182 2.09255003929138184 0 1 3
0.140082001686096191 -0.0668430030345916748 2.11704111099243164 0 1 4
0.141075998544692993 -0.065733000636100769 2.13205099105834961 0 1 5
0.142168000340461731 -0.0646459981799125671 2.14855289459228516 1 2 6
0.143277004361152649 -0.063542000949382782 2.1653130054473877 0 1 6
0.144612997770309448 -0.0625120028853416443 2.18550801277160645 0 1 5
0.145192995667457581 -0.0611330009996891022 2.19427895545959473 0 1 5
0.145977005362510681 -0.0598240010440349579 2.20612192153930664 0 1 3
0.144815996289253235 -0.0577230006456375122 2.18857598304748535 0 0 2
0.143568992614746094 -0.0556139983236789703 2.1697390079498291 0 0 0
0.140863999724388123 -0.0529850013554096222 2.12885808944702148 0 0 0
0.140834003686904907 -0.0513929985463619232 2.12839388847351074 0 0 1
0.146328002214431763 -0.0501120015978813171 2.21142411231994629 0 0 1
0.146217003464698792 -0.0484329983592033386 2.20975303649902344 1 1 0
0.139946997165679932 -0.0416430011391639709 2.11500000953674316 0 2 2
0.140795007348060608 -0.0403149984776973724 2.1278080940246582 1 2 5
0.141242995858192444 -0.0388580001890659332 2.13457298278808594 0 2 7
0.141114994883537292 -0.0372390002012252808 2.13264799118041992 0 3 10
0.14032900333404541 -0.0354560017585754395 2.1207740306854248 0 3 12
0.145326003432273865 -0.0318240001797676086 2.19628190994262695 0 5 12
0.144602000713348389 -0.0300430003553628922 2.18534398078918457 0 6 10
0.141001001000404358 -0.0197979994118213654 2.13091802597045898 0 1 11
0.141148000955581665 -0.0182339996099472046 2.1331479549407959 1 1 11
0.142026007175445557 -0.0167529992759227753 2.14640998840332031 1 1 9
0.144430994987487793 -0.0137940002605319023 2.18275308609008789 1 2 6
0.142168000340461731 -0.011982000432908535 2.14855289459228516 0 1 4
0.143033996224403381 -0.0104499999433755875 2.16164207458496094 0 1 1
0.142501994967460632 -0.0088109998032450676 2.15360689163208008 0 2 0
0.142617002129554749 -0.00721699977293610573 2.15534210205078125 0 1 1
0.14295099675655365 -0.0056300000287592411 2.16038703918457031 0 1 2
0.145135998725891113 -0.00408700015395879745 2.19340896606445312 0 1 2
0.142560005187988281 -0.00241399998776614666 2.15448594093322754 0 1 3
0.14238700270652771 -0.000812000012956559658 2.15187311172485352 0 2 2
0.143052995204925537 0.00239500007592141628 2.16194009780883789 1 6 5
0.142417997121810913 0.00398299982771277428 2.15233898162841797 1 8 9
0.139877006411552429 0.00548300007358193398 2.11394095420837402 1 10 12
0.142180994153022766 0.00876499991863965988 2.14875006675720215 0 11 16
0.141249001026153564 0.0102930003777146339 2.13467001914978027 0 11 17
0.140977993607521057 0.0118559999391436577 2.13057303428649902 0 11 16
0.141244992613792419 0.0134640000760555267 2.13461399078369141 0 11 16
0.141075998544692993 0.015030999667942524 2.13205099105834961 0 11 16
0.140780001878738403 0.0165800005197525024 2.1275780200958252 0 11 15
0.140677005052566528 0.0197260007262229919 2.12602090835571289 0 11 15
0.140595003962516785 0.0212929993867874146 2.12478804588317871 0 11 16
0.140888005495071411 0.022918999195098877 2.12922000885009766 0 11 15
0.140533998608589172 0.0244389995932579041 2.12385702133178711 0 11 13
0.140487000346183777 0.0260080005973577499 2.12315607070922852 0 12 12
0.140467002987861633 0.0275810007005929947 2.12284708023071289 0 12 13
0.140046998858451843 0.0290699992328882217 2.11650896072387695 0 12 15
0.138920992612838745 0.030395999550819397 2.09948897361755371 1 11 17
0.138908997178077698 0.0319529995322227478 2.09930610656738281 2 12 18
0.138954997062683105 0.0335230007767677307 2.10000801086425781 1 13 19
0.139170005917549133 0.0351370014250278473 2.10325789451599121 1 14 22
0.138861000537872314 0.0366180017590522766 2.09857392311096191 0 7 18
0.138325005769729614 0.0380290001630783081 2.09048700332641602 0 1 16
0.138224005699157715 0.0395530015230178833 2.08895206451416016 5 10 30
0.137750998139381409 0.0409639999270439148 2.08181095123291016 36 46 69
0.137268006801605225 0.0423609986901283264 2.07451105117797852 84 98 121
0.137185007333755493 0.0438759997487068176 2.07325410842895508 129 144 166
0.136949002742767334 0.0453380011022090912 2.0696868896484375 159 175 192
0.136713996529579163 0.0483289994299411774 2.0661320686340332 144 160 175
0.136544004082679749 0.049802001565694809 2.06356501579284668 124 140 155
0.136914998292922974 0.0514740012586116791 2.06917905807495117 82 95 111
0.136847004294395447 0.0529850013554096222 2.06814789772033691 21 29 46
0.135530993342399597 0.0555180013179779053 2.04825997352600098 1 7 23
0.135874003171920776 0.0571830011904239655 2.05343508720397949 0 7 21
0.136013001203536987 0.0587689988315105438 2.05554008483886719 2 8 20
0.135564997792243958 0.0600970014929771423 2.04876399040222168 1 10 22
0.136362999677658081 0.0635119974613189697 2.0608220100402832 0 12 23
0.134523004293441772 0.0641650035977363586 2.03302788734436035 0 14 24
0.133953005075454712 0.0653970018029212952 2.02440500259399414 0 14 26
0.133524000644683838 0.066685996949672699 2.01792192459106445 0 14 27
0.133209004998207092 0.0680250003933906555 2.01317095756530762 1 15 30
0.133059993386268616 0.0694419965147972107 2.01091909408569336 2 15 31
0.133489996194839478 0.0711650028824806213 2.01740288734436035 0 15 29
0.133503004908561707 0.0726710036396980286 2.01761388778686523 0 15 28
0.133233994245529175 0.07401999831199646 2.01353788375854492 0 14 27
0.133349999785423279 0.0755809992551803589 2.01530098915100098 0 14 27
0.133157998323440552 0.0769670009613037109 2.01239800453186035 0 13 26
0.132945999503135681 0.0783369988203048706 2.00918889045715332 0 13 26
0.13283500075340271 0.079761996865272522 2.00751304626464844 0 13 24
0.132733002305030823 0.0811910033226013184 2.00597596168518066 0 13 23
0.132412001490592957 0.08248099684715271 2.00112295150756836 0 14 23
0.132460996508598328 0.0869719982147216797 2.00185799598693848 0 16 23
0.132783994078636169 0.0886749997735023499 2.00673294067382812 1 16 24
0.13284599781036377 0.090208001434803009 2.00767993927001953 2 16 25
0.132813006639480591 0.0916759967803955078 2.00717711448669434 3 17 27
0.132907003164291382 0.0932329967617988586 2.00860404968261719 3 17 28
0.132844001054763794 0.0946799963712692261 2.00764894485473633 4 18 29
0.133279994130134583 0.096487000584602356 2.01423501968383789 4 18 29
0.132926002144813538 0.0977229997515678406 2.00889301300048828 3 19 28
0.13240399956703186 0.100311003625392914 2.00099611282348633 0 17 25
0.132419005036354065 0.103295996785163879 2.00122594833374023 0 13 19
0.132346004247665405 0.104723997414112091 2.00011396408081055 0 11 17
0.132697001099586487 0.124366000294685364 2.00542092323303223 0 1 5
0.133352994918823242 0.126478999853134155 2.01534509658813477 0 1 5
0.132797002792358398 0.127442002296447754 2.0069420337677002 0 1 4
0.132519006729125977 0.128663003444671631 2.00273799896240234 0 1 3
0.132421001791954041 0.144917994737625122 2.00125002861022949 1 1 1
0.132678002119064331 0.146688997745513916 2.00513696670532227 1 1 1
0.132788002490997314 0.148302003741264343 2.00680708885192871 0 1 0
0.132801994681358337 0.14980800449848175 2.00701189041137695 0 2 0
0.132562994956970215 0.15102599561214447 2.00339698791503906 0 2 0
0.156198993325233459 -0.396214991807937622 2.33440089225769043 157 157 153
0.156008005142211914 -0.392266005277633667 2.33154106140136719 170 164 162
0.155772998929023743 -0.389946997165679932 2.3280339241027832 163 156 155
0.156178995966911316 -0.389230996370315552 2.3341069221496582 167 162 163
0.156450003385543823 -0.388168990612030029 2.33815598487854004 165 161 164
0.156405001878738403 -0.386321008205413818 2.3374791145324707 139 137 141
0.156990006566047668 -0.386022001504898071 2.34621810913085938 110 109 115
0.156902000308036804 -0.384065002202987671 2.34491109848022461 98 101 108
0.156000003218650818 -0.380124986171722412 2.33142495155334473 96 103 112
0.156791999936103821 -0.380315005779266357 2.34326291084289551 108 118 128
0.156491994857788086 -0.377849996089935303 2.33877897262573242 96 110 122
0.155763000249862671 -0.374361991882324219 2.32789301872253418 86 102 116
0.155876994132995605 -0.372904986143112183 2.32959699630737305 79 95 111
0.152259007096290588 -0.355798006057739258 2.27552008628845215 18 34 50
0.150796994566917419 -0.3507080078125 2.25367188453674316 14 30 44
0.151289001107215881 -0.350172996520996094 2.26102209091186523 18 34 46
0.151139006018638611 -0.348147988319396973 2.25878596305847168 27 43 55
0.151125997304916382 -0.346439003944396973 2.25858211517333984 28 44 56
0.15129399299621582 -0.345146000385284424 2.26109910011291504 24 41 52
0.151485994458198547 -0.343903005123138428 2.26397109031677246 24 41 52
0.151034995913505554 -0.34120100736618042 2.25722002983093262 22 40 51
0.15079200267791748 -0.338979005813598633 2.25359511375427246 23 41 53
0.150964006781578064 -0.337689995765686035 2.2561640739440918 26 44 57
0.15131300687789917 -0.336789995431900024 2.26137590408325195 24 43 57
0.150719001889228821 -0.333795011043548584 2.2525029182434082 24 43 58
0.150976002216339111 -0.332688987255096436 2.2563478946685791 22 41 56
0.151084005832672119 -0.331250011920928955 2.257965087890625 19 38 53
0.150744006037712097 -0.32883000373840332 2.25287103652954102 16 35 50
0.150998994708061218 -0.327710986137390137 2.25669288635253906 17 37 52
0.15062500536441803 -0.325228005647659302 2.25110292434692383 20 41 57
0.151022002100944519 -0.324407994747161865 2.25703191757202148 23 45 63
0.151007995009422302 -0.322701007127761841 2.25682210922241211 35 58 75
0.150920003652572632 -0.320838987827301025 2.25551199913024902 40 61 79
0.151243999600410461 -0.319848001003265381 2.26034808158874512 27 47 63
0.150671005249023438 -0.316964000463485718 2.25178694725036621 8 27 42
0.150942996144294739 -0.315860003232955933 2.25585007667541504 0 17 32
0.151095002889633179 -0.31450200080871582 2.25812792778015137 2 19 33
0.151427000761032104 -0.313511013984680176 2.26308393478393555 9 24 36
0.150953993201255798 -0.310855001211166382 2.25601005554199219 4 18 28
0.151359006762504578 -0.310009986162185669 2.26207089424133301 4 17 26
0.150897994637489319 -0.307390987873077393 2.25518488883972168 5 15 25
0.151730000972747803 -0.307401001453399658 2.2676088809967041 5 15 25
0.150846004486083984 -0.303936004638671875 2.25440597534179688 2 15 24
0.151649996638298035 -0.303873002529144287 2.26642394065856934 1 14 23
0.15136699378490448 -0.301624000072479248 2.26218104362487793 1 14 23
0.150085002183914185 -0.297405004501342773 2.24303293228149414 1 13 22
0.148859992623329163 -0.293323993682861328 2.2247159481048584 0 9 17
0.148809000849723816 -0.291572004556655884 2.22395801544189453 0 8 15
0.148666992783546448 -0.289644002914428711 2.22183990478515625 0 8 15
0.148996993899345398 -0.288632988929748535 2.2267758846282959 0 8 15
0.149215996265411377 -0.287398993968963623 2.23003506660461426 0 9 14
0.150030001997947693 -0.287301987409591675 2.24220108985900879 0 9 14
0.148384004831314087 -0.282503008842468262 2.21760392189025879 0 9 14
0.148096993565559387 -0.280312001705169678 2.21331310272216797 0 9 14
0.148331001400947571 -0.279109001159667969 2.21680903434753418 0 8 13
0.14780600368976593 -0.276481002569198608 2.20896697044372559 0 7 13
0.147207006812095642 -0.273725986480712891 2.2000119686126709 0 7 13
0.146434992551803589 -0.270664989948272705 2.18847894668579102 0 8 13
0.146877005696296692 -0.269850999116897583 2.19508004188537598 0 8 13
0.147360995411872864 -0.269104987382888794 2.20231389999389648 0 8 13
0.147276997566223145 -0.267316997051239014 2.20106291770935059 0 8 13
0.146108999848365784 -0.263574987649917603 2.18360400199890137 0 8 13
0.145835995674133301 -0.26146399974822998 2.17952990531921387 0 8 12
0.146556004881858826 -0.261126995086669922 2.19028401374816895 0 10 12
0.148491993546485901 -0.262928992509841919 2.21922206878662109 0 10 12
0.150671005249023438 -0.265114009380340576 2.25178694725036621 0 10 12
0.150527000427246094 -0.263188987970352173 2.24962997436523438 0 10 12
0.150583997368812561 -0.261619001626968384 2.25048995018005371 0 10 12
0.150347992777824402 -0.259539008140563965 2.24696207046508789 0 9 12
0.149412006139755249 -0.256265014410018921 2.23297595977783203 1 9 12
0.149690002202987671 -0.25508001446723938 2.23712897300720215 0 8 11
0.148721992969512939 -0.250129014253616333 2.22266101837158203 0 8 11
0.14769899845123291 -0.246767997741699219 2.20736598968505859 1 6 10
0.14681600034236908 -0.243662998080253601 2.19417095184326172 0 5 9
0.147000998258590698 -0.242338001728057861 2.19693398475646973 0 4 8
0.147350996732711792 -0.241280004382133484 2.20216798782348633 0 3 8
0.147581994533538818 -0.240018993616104126 2.20561790466308594 0 2 9
0.14777800440788269 -0.238697007298469543 2.20854306221008301 0 2 8
0.147727996110916138 -0.236976996064186096 2.20779609680175781 0 3 8
0.147506996989250183 -0.234986007213592529 2.20450210571289062 0 3 8
0.147807002067565918 -0.232180997729301453 2.20897889137268066 0 2 9
0.147584006190299988 -0.230193004012107849 2.20564603805541992 0 2 9
0.148239001631736755 -0.229569002985954285 2.21543693542480469 0 3 10
0.14747600257396698 -0.226750999689102173 2.20404291152954102 0 5 11
0.147641003131866455 -0.225364997982978821 2.20650100708007812 1 6 12
0.147533997893333435 -0.223564997315406799 2.20490908622741699 6 11 17
0.147837996482849121 -0.222385004162788391 2.20945310592651367 10 15 21
0.147612005472183228 -0.220405995845794678 2.20607399940490723 18 23 29
0.14719100296497345 -0.218143999576568604 2.19978499412536621 31 36 42
0.146846994757652283 -0.21600399911403656 2.19464302062988281 49 54 60
0.146588996052742004 -0.213995993137359619 2.19078207015991211 70 75 81
0.146412000060081482 -0.212111994624137878 2.18813490867614746 89 94 100
0.146479994058609009 -0.210583999752998352 2.18914508819580078 102 107 113
0.146773993968963623 -0.209379002451896667 2.19355201721191406 111 116 122
0.147008001804351807 -0.20808100700378418 2.19704508781433105 122 127 133
0.146800994873046875 -0.206156998872756958 2.19394588470458984 131 136 142
0.146804004907608032 -0.204532995820045471 2.19399690628051758 132 137 141
0.146711006760597229 -0.202774003148078918 2.19260191917419434 132 137 141
0.146869003772735596 -0.20136299729347229 2.19496893882751465 133 138 142
0.146969005465507507 -0.199867993593215942 2.19646096229553223 132 137 141
0.146674007177352905 -0.197839006781578064 2.19205808639526367 126 131 134
0.146429002285003662 -0.195883005857467651 2.18839597702026367 126 130 132
0.146296992897987366 -0.19408099353313446 2.18640995025634766 127 131 132
0.146956995129585266 -0.193325996398925781 2.19628190994262695 129 133 132
0.146385997533798218 -0.190948992967605591 2.18774104118347168 131 135 134
0.145612001419067383 -0.188324004411697388 2.17618393898010254 133 138 135
0.145778998732566833 -0.186921000480651855 2.17867207527160645 135 140 136
0.145864993333816528 -0.185413002967834473 2.17996311187744141 136 141 137
0.146236002445220947 -0.18426099419593811 2.18550801277160645 137 141 139
0.146843999624252319 -0.183396995067596436 2.19458699226379395 136 141 141
0.146007001399993896 -0.180730998516082764 2.18208909034729004 136 140 142
0.145928993821144104 -0.179014995694160461 2.1809229850769043 134 138 141
0.145850002765655518 -0.177297994494438171 2.17972898483276367 132 136 139
0.145907998085021973 -0.175749003887176514 2.18060493469238281 129 133 136
0.146129995584487915 -0.174394994974136353 2.18392109870910645 126 131 134
0.146263003349304199 -0.172930002212524414 2.18591499328613281 124 129 132
0.146330997347831726 -0.171386003494262695 2.18692994117736816 123 128 131
0.146868005394935608 -0.170384004712104797 2.1949460506439209 120 127 128
0.146969005465507507 -0.168870002031326294 2.19645404815673828 118 127 126
0.14624999463558197 -0.166420996189117432 2.18571805953979492 118 127 124
0.145836994051933289 -0.164332002401351929 2.17954492568969727 117 126 123
0.146024003624916077 -0.1629209965467453 2.18233609199523926 116 125 120
0.14580400288105011 -0.161057993769645691 2.17905402183532715 116 125 118
0.145906001329421997 -0.159550994634628296 2.18057799339294434 115 125 116
0.146437004208564758 -0.158506006002426147 2.18851304054260254 115 125 116
0.146556004881858826 -0.157006993889808655 2.19028401374816895 113 121 113
0.146688997745513916 -0.155522003769874573 2.19228005409240723 113 118 111
0.146556004881858826 -0.153752997517585754 2.19028401374816895 112 117 110
0.14668700098991394 -0.152262002229690552 2.19223904609680176 111 116 109
0.146148994565010071 -0.150082007050514221 2.18420910835266113 110 115 108
0.146935999393463135 -0.149259001016616821 2.19596600532531738 108 113 106
0.146996006369590759 -0.147688001394271851 2.19686508178710938 108 112 105
0.146660998463630676 -0.145723998546600342 2.19185900688171387 108 111 104
0.145942002534866333 -0.143389001488685608 2.18111801147460938 107 110 103
0.145380005240440369 -0.1412229984998703 2.17271804809570312 106 109 102
0.145540997385978699 -0.139763996005058289 2.17512392997741699 105 106 100
0.145495995879173279 -0.138105005025863647 2.17444610595703125 102 103 97
0.145329996943473816 -0.136335000395774841 2.1719660758972168 101 102 96
0.145420998334884644 -0.134806007146835327 2.17332291603088379 100 101 95
0.146439000964164734 -0.134123995900154114 2.18854498863220215 100 101 95
0.145972996950149536 -0.132076993584632874 2.18157505989074707 100 102 96
0.145855993032455444 -0.130351006984710693 2.17981910705566406 98 102 94
0.145781993865966797 -0.128666996955871582 2.17872190475463867 95 102 91
0.146060004830360413 -0.127292007207870483 2.18288207054138184 95 101 90
0.145840004086494446 -0.125479996204376221 2.1795809268951416 95 101 90
0.146694004535675049 -0.124586999416351318 2.19234800338745117 94 100 89
0.146686002612113953 -0.122951999306678772 2.19222497940063477 93 99 88
0.14563499391078949 -0.120453998446464539 2.17651700973510742 93 98 86
0.146250993013381958 -0.119341000914573669 2.18573498725891113 93 98 85
0.145887002348899841 -0.117422997951507568 2.18028497695922852 92 97 85
0.146316006779670715 -0.116144999861717224 2.18670010566711426 90 94 83
0.146667003631591797 -0.114794999361038208 2.19194698333740234 92 96 86
0.146432995796203613 -0.112985998392105103 2.18844509124755859 93 97 89
0.146404996514320374 -0.111340001225471497 2.18802905082702637 67 72 67
0.146532997488975525 -0.109810002148151398 2.1899418830871582 22 27 25
0.147259995341300964 -0.108719997107982635 2.20080304145812988 0 3 5
0.146831005811691284 -0.106774002313613892 2.19439291954040527 2 5 8
0.146908000111579895 -0.105199001729488373 2.19554901123046875 2 4 9
0.146316006779670715 -0.103151001036167145 2.18670010566711426 1 2 7
0.146187007427215576 -0.101437002420425415 2.18477511405944824 1 2 7
0.1448650062084198 -0.0989120006561279297 2.16501688957214355 1 2 7
0.147360995411872864 -0.0989800021052360535 2.20231389999389648 1 2 7
0.145151004195213318 -0.0958850011229515076 2.16929197311401367 1 2 7
0.145713001489639282 -0.093020997941493988 2.1776878833770752 1 2 7
0.143883004784584045 -0.0886579975485801697 2.15034604072570801 1 2 7
0.143298998475074768 -0.0867080017924308777 2.1416161060333252 1 2 7
0.143010005354881287 -0.0849450007081031799 2.13729596138000488 1 2 7
0.143088996410369873 -0.0834039971232414246 2.13847804069519043 1 2 7
0.142912998795509338 -0.0817150026559829712 2.13583588600158691 1 2 7
0.145570993423461914 -0.080003000795841217 2.17557001113891602 0 2 7
0.143613994121551514 -0.0773330032825469971 2.1463170051574707 0 2 6
0.142518997192382812 -0.0751610025763511658 2.12995290756225586 0 2 5
0.141871005296707153 -0.0732439979910850525 2.12026405334472656 0 2 4
0.142407000064849854 -0.0719399973750114441 2.12827801704406738 0 2 4
0.141157999634742737 -0.0697429999709129333 2.10961604118347168 0 2 4
0.141356006264686584 -0.0682710036635398865 2.1125791072845459 0 2 4
0.142778992652893066 -0.0673739984631538391 2.13384199142456055 0 2 5
0.142470002174377441 -0.0656460002064704895 2.12922000885009766 0 2 6
0.143797993659973145 -0.0646620020270347595 2.14906501770019531 0 2 6
0.144722998142242432 -0.0634709969162940979 2.16289401054382324 0 1 6
0.145503997802734375 -0.0621990002691745758 2.17457294464111328 0 1 5
0.146052002906799316 -0.060812000185251236 2.18275308609008789 0 1 5
0.14608900249004364 -0.0592049993574619293 2.18330192565917969 0 1 3
0.145569995045661926 -0.0573789998888969421 2.17554688453674316 0 0 1
0.144192993640899658 -0.0552360005676746368 2.1549680233001709 0 0 0
0.14717400074005127 -0.0498429983854293823 2.19952607154846191 0 0 1
0.147394001483917236 -0.0482809990644454956 2.20281791687011719 1 1 1
0.144971996545791626 -0.0458780005574226379 2.16661310195922852 0 1 0
0.141762003302574158 -0.0417149998247623444 2.11863899230957031 0 2 2
0.142912998795509338 -0.0404670014977455139 2.13583588600158691 1 2 5
0.142623007297515869 -0.0388020016252994537 2.13151097297668457 0 3 7
0.142438992857933044 -0.037170998752117157 2.12876391410827637 0 3 9
0.145861998200416565 -0.0348259992897510529 2.17991209030151367 0 4 10
0.145012006163597107 -0.0330130010843276978 2.16721296310424805 0 5 11
0.146024003624916077 -0.0316220000386238098 2.18233609199523926 0 5 11
0.145796999335289001 -0.0299549996852874756 2.17894792556762695 0 6 9
0.145601004362106323 -0.0282979998737573624 2.17601895332336426 0 6 9
0.145212993025779724 -0.0266110002994537354 2.17022109031677246 0 3 8
0.144617006182670593 -0.0248959995806217194 2.16130399703979492 0 2 8
0.144133001565933228 -0.0232129991054534912 2.15407800674438477 0 2 9
0.145325005054473877 -0.0217920001596212387 2.17189407348632812 0 2 9
0.144081994891166687 -0.0168069992214441299 2.15331506729125977 1 1 8
0.143793001770973206 -0.0151770003139972687 2.14899396896362305 1 1 7
0.14551900327205658 -0.0137440003454685211 2.17478799819946289 1 2 6
0.144971996545791626 -0.0120829995721578598 2.16661310195922852 1 2 5
0.144466996192932129 -0.01043699961155653 2.15907502174377441 0 2 3
0.144216001033782959 -0.00881799962371587753 2.1553189754486084 0 2 2
0.145527005195617676 -0.00728299980983138084 2.17490792274475098 0 1 3
0.144270002841949463 -0.00561900017783045769 2.15612697601318359 0 1 3
0.145781993865966797 -0.00405899994075298309 2.17872190475463867 0 1 3
0.144830003380775452 -0.00242500007152557373 2.16448593139648438 0 1 3
0.143981993198394775 -0.000812000012956559658 2.15181398391723633 0 3 3
0.144752994179725647 0.000790000020060688257 2.16334009170532227 0 4 4
0.144464001059532166 0.00239200005307793617 2.15902900695800781 0 7 7
0.14417499303817749 0.00398800009861588478 2.15469908714294434 1 9 10
0.142027005553245544 0.0102350004017353058 2.12259411811828613 0 11 17
0.14178900420665741 0.0117920003831386566 2.119049072265625 0 12 18
0.141929998993873596 0.0133790001273155212 2.12115693092346191 0 12 18
0.141973003745079041 0.0149590000510215759 2.12179398536682129 0 12 18
0.14190499484539032 0.0165270008146762848 2.1207740306854248 0 12 18
0.14190499484539032 0.0181019995361566544 2.1207740306854248 1 12 18
0.142312005162239075 0.0213140007108449936 2.1268620491027832 0 12 18
0.142051994800567627 0.0228519998490810394 2.1229710578918457 0 13 17
0.141264006495475769 0.0242929998785257339 2.11120200157165527 0 14 15
0.141464993357658386 0.0258980002254247665 2.1141960620880127 0 14 14
0.141405999660491943 0.0274570006877183914 2.11332201957702637 0 13 15
0.1407880038022995 0.0288999993354082108 2.1040799617767334 1 13 18
0.140737995505332947 0.0304519999772310257 2.10333395004272461 3 13 19
0.140272006392478943 0.0319080017507076263 2.09637904167175293 4 14 20
0.140490993857383728 0.0335169993340969086 2.09964609146118164 1 14 21
0.140708997845649719 0.0351309999823570251 2.10289788246154785 0 14 24
0.140104994177818298 0.036536000669002533 2.09387707710266113 0 7 26
0.139469996094703674 0.0379189997911453247 2.08439207077026367 0 2 27
0.139238998293876648 0.0394009985029697418 2.08094000816345215 21 29 56
0.139240995049476624 0.0409479998052120209 2.08096194267272949 81 96 121
0.13887999951839447 0.0423830002546310425 2.07556891441345215 147 164 187
0.138023003935813904 0.0436539985239505768 2.06276202201843262 194 213 232
0.137880995869636536 0.0451389998197555542 2.06064009666442871 220 239 250
0.137751996517181396 0.0466260015964508057 2.05870604515075684 226 246 252
0.137707993388175964 0.0481400005519390106 2.0580589771270752 228 247 250
0.137678995728492737 0.0496580004692077637 2.05761504173278809 228 244 247
0.138106003403663635 0.0528789982199668884 2.06400489807128906 60 73 87
0.137539997696876526 0.0541879981756210327 2.05554008483886719 4 10 25
0.137087002396583557 0.0555320009589195251 2.04877495765686035 3 10 25
0.137085005640983582 0.05705299973487854 2.04874992370605469 3 11 26
0.137057006359100342 0.0585619993507862091 2.04832100868225098 3 11 26
0.137038007378578186 0.0600759983062744141 2.04804110527038574 1 12 26
0.136021003127098083 0.0626500025391578674 2.03284406661987305 0 13 26
0.136143997311592102 0.0642179995775222778 2.03467798233032227 0 14 26
0.13628600537776947 0.0657970011234283447 2.03679800033569336 0 14 27
0.135163992643356323 0.0682569965720176697 2.0200340747833252 0 15 29
0.135201007127761841 0.069775998592376709 2.02058005332946777 0 15 29
0.135344997048377991 0.0713530033826828003 2.02273392677307129 0 16 29
0.135157003998756409 0.07275400310754776 2.01993203163146973 0 16 29
0.134986996650695801 0.0741610005497932434 2.01738905906677246 0 15 28
0.13502800464630127 0.0756829977035522461 2.01800799369812012 0 14 27
0.134820997714996338 0.0770630016922950745 2.01490998268127441 0 14 27
0.134620994329452515 0.0784429982304573059 2.01191592216491699 0 13 26
0.134661003947257996 0.0799610018730163574 2.01251506805419922 0 13 24
0.133935004472732544 0.0810170024633407593 2.00166606903076172 0 13 23
0.133961006999015808 0.0884680002927780151 2.00206089019775391 0 15 23
0.13417699933052063 0.0900999978184700012 2.00528097152709961 1 15 24
0.134129002690315247 0.0915570035576820374 2.00456809997558594 1 16 25
0.134073004126548767 0.0930069983005523682 2.00373196601867676 1 16 27
0.134512007236480713 0.0948050022125244141 2.01029491424560547 2 17 28
0.134635999798774719 0.0963869988918304443 2.01214408874511719 3 18 28
0.13399699330329895 0.0974159985780715942 2.00258708000183105 2 18 28
0.134068995714187622 0.124257996678352356 2.00366711616516113 0 1 5
0.134942993521690369 0.126565992832183838 2.01673698425292969 0 1 5
0.134857997298240662 0.127983003854751587 2.01546311378479004 0 1 4
0.134347006678581238 0.128988996148109436 2.00781702995300293 0 1 3
0.133879005908966064 0.13002699613571167 2.00083398818969727 0 1 2
0.134197995066642761 0.131825998425483704 2.00559902191162109 0 2 1
0.134102001786231995 0.133220002055168152 2.00416803359985352 0 2 0
0.134400993585586548 0.148436993360519409 2.00863003730773926 0 1 0
0.13435700535774231 0.149880006909370422 2.00797390937805176 0 2 0
0.136213004589080811 0.17160700261592865 2.03571105003356934 0 1 6
0.157500997185707092 -0.395132988691329956 2.32802510261535645 154 155 150
0.157947003841400146 -0.394517004489898682 2.33461093902587891 168 166 162
0.158108994364738464 -0.391449987888336182 2.33700394630432129 164 156 156
0.158464998006820679 -0.39059099555015564 2.34226202964782715 167 162 163
0.158142998814582825 -0.388063013553619385 2.33751511573791504 168 163 166
0.158386006951332092 -0.386918991804122925 2.34109997749328613 148 145 150
0.158996999263763428 -0.386664986610412598 2.35012698173522949 115 115 121
0.159214004874229431 -0.385446995496749878 2.35334396362304688 93 96 103
0.159879997372627258 -0.385304003953933716 2.3631889820098877 88 95 105
0.158492997288703918 -0.380221009254455566 2.34268593788146973 106 116 127
0.158956006169319153 -0.379586011171340942 2.34952688217163086 90 103 116
0.157952994108200073 -0.375456005334854126 2.33469891548156738 86 101 116
0.157943993806838989 -0.373701989650726318 2.33457303047180176 87 103 119
0.158492997288703918 -0.37152099609375 2.34268593788146973 47 62 82
0.157775998115539551 -0.36810600757598877 2.3320770263671875 27 42 63
0.153835996985435486 -0.355536013841629028 2.27384400367736816 19 33 50
0.15269799530506134 -0.351231008768081665 2.25703191757202148 19 34 48
0.152661994099617004 -0.349471002817153931 2.25649404525756836 22 38 49
0.152248993515968323 -0.346852988004684448 2.25038290023803711 27 43 53
0.152533993124961853 -0.345829010009765625 2.25460100173950195 27 42 52
0.15269799530506134 -0.344525009393692017 2.25703191757202148 24 39 49
0.152510002255439758 -0.342426002025604248 2.25424790382385254 22 39 48
0.152273997664451599 -0.340225011110305786 2.25076198577880859 21 38 48
0.152078002691268921 -0.338115990161895752 2.24785494804382324 20 37 49
0.152432993054389954 -0.337231993675231934 2.25310897827148438 19 36 50
0.152719005942344666 -0.336187988519668579 2.25733304023742676 17 34 49
0.152377992868423462 -0.333763986825942993 2.25229191780090332 16 34 49
0.15232500433921814 -0.331977009773254395 2.25151801109313965 15 33 49
0.152321994304656982 -0.330298006534576416 2.25147104263305664 12 30 46
0.152199998497962952 -0.328361004590988159 2.24965691566467285 10 28 44
0.152434006333351135 -0.327194005250930786 2.25312590599060059 12 30 45
0.152044996619224548 -0.324689000844955444 2.24737691879272461 16 36 51
0.152473002672195435 -0.32392999529838562 2.25370502471923828 24 45 62
0.152670994400978088 -0.322674006223678589 2.25663304328918457 32 54 70
0.152647003531455994 -0.320946991443634033 2.25626993179321289 38 58 75
0.152401000261306763 -0.318756014108657837 2.25262999534606934 26 45 60
0.152483001351356506 -0.317254006862640381 2.25384688377380371 3 21 36
0.152629002928733826 -0.315881997346878052 2.25601005554199219 0 14 28
0.152639999985694885 -0.31422799825668335 2.2561640739440918 4 20 33
0.15221799910068512 -0.311688989400863647 2.24992799758911133 7 21 32
0.152265995740890503 -0.310115009546279907 2.25063800811767578 3 16 25
0.152642995119094849 -0.309206992387771606 2.25620698928833008 3 16 25
0.153660997748374939 -0.309581995010375977 2.2712559700012207 4 14 23
0.153391003608703613 -0.307354986667633057 2.26727294921875 3 13 23
0.152404993772506714 -0.303705006837844849 2.25269007682800293 2 13 22
0.15217900276184082 -0.301584005355834961 2.24934911727905273 1 13 22
0.152140006422996521 -0.299836993217468262 2.2487800121307373 1 12 22
0.15108199417591095 -0.296094000339508057 2.23314404487609863 1 11 21
0.150426998734474182 -0.293157011270523071 2.22345089912414551 0 9 16
0.150123998522758484 -0.290919005870819092 2.2189788818359375 0 8 14
0.151049003005027771 -0.29105299711227417 2.23264908790588379 0 8 14
0.15062299370765686 -0.288578003644943237 2.2263491153717041 0 8 15
