ply
format ascii 1.0
element vertex 669
property float x
property float y
property float z
property uchar red
property uchar green
property uchar blue
end_header
0.28833499550819397 0.00541000021621584892 2.08609604835510254 1 11 20
0.293460994958877563 0.00708399992436170578 2.12317991256713867 1 11 20
0.29359900951385498 0.00866500008851289749 2.12417793273925781 1 11 20
0.29366600513458252 0.0102450000122189522 2.1246640682220459 0 10 19
0.29384198784828186 0.0118300002068281174 2.12594008445739746 0 9 18
0.294091999530792236 0.0134209999814629555 2.12774801254272461 0 9 18
0.279424011707305908 0.0187580008059740067 2.0216219425201416 0 9 19
0.288991987705230713 0.0318240001797676086 2.09084892272949219 0 11 16
0.288841009140014648 0.0333600006997585297 2.08975911140441895 0 11 17
0.288805007934570312 0.0349069982767105103 2.08949494361877441 0 11 17
0.276470988988876343 0.0363879986107349396 2.00025510787963867 0 10 18
0.279431998729705811 0.0487909987568855286 2.0216829776763916 0 9 19
0.282925009727478027 0.0539619997143745422 2.04695391654968262 0 8 18
0.290890008211135864 0.0586079992353916168 2.10458207130432129 0 8 18
0.291586011648178101 0.0603150017559528351 2.10961604118347168 0 7 15
0.287827998399734497 0.0610839985311031342 2.08242702484130859 0 6 14
0.285371989011764526 0.0636299997568130493 2.06465911865234375 0 5 11
0.279280006885528564 0.0682749971747398376 2.02058005332946777 0 3 10
0.27961200475692749 0.1570110023021698 2.02298688888549805 0 4 8
0.278656989336013794 0.157971993088722229 2.01607704162597656 0 4 9
0.277613013982772827 0.15887199342250824 2.00852394104003906 0 4 10
0.316872000694274902 0.200069993734359741 2.29255795478820801 111 127 113
0.315270006656646729 0.200752004981040955 2.28096508979797363 147 165 148
0.314199000597000122 0.201758995652198792 2.27321600914001465 151 170 149
0.31384199857711792 0.203216001391410828 2.27063798904418945 143 162 139
0.312288999557495117 0.203888997435569763 2.2593998908996582 143 162 139
0.313347995281219482 0.209631994366645813 2.26706504821777344 144 162 139
0.313069999217987061 0.211127996444702148 2.26504898071289062 144 161 138
0.313703000545501709 0.21324099600315094 2.26963210105895996 146 161 137
0.315849006175994873 0.216397002339363098 2.28515410423278809 146 161 138
0.314866006374359131 0.217416003346443176 2.27804708480834961 146 160 137
0.314415007829666138 0.218794003129005432 2.27478194236755371 142 157 132
0.313724011182785034 0.226742997765541077 2.26978302001953125 138 159 136
0.312380999326705933 0.22745099663734436 2.26006507873535156 143 164 143
0.309498012065887451 0.227015003561973572 2.23921108245849609 159 178 161
0.310761004686355591 0.229610994458198547 2.24834299087524414 152 171 156
0.313650012016296387 0.233431994915008545 2.26925110816955566 146 165 149
0.316269010305404663 0.237079992890357971 2.28819704055786133 144 163 146
0.31466299295425415 0.2375669926404953 2.27657508850097656 145 164 145
0.314134985208511353 0.238857001066207886 2.27275609970092773 145 164 142
0.315259993076324463 0.241407006978988647 2.2808990478515625 141 161 137
0.314857006072998047 0.242789998650550842 2.27798199653625488 137 157 131
0.313908994197845459 0.245433002710342407 2.27112507820129395 140 156 132
0.314354002475738525 0.247470006346702576 2.27434301376342773 142 158 134
0.289885014295578003 -0.0550200007855892181 2.08609604835510254 1 14 20
0.290201008319854736 -0.053529001772403717 2.08837199211120605 1 14 20
0.291853994131088257 -0.0460329987108707428 2.1002650260925293 0 10 19
0.292043000459671021 -0.0445020012557506561 2.10162901878356934 0 10 19
0.290661990642547607 -0.0427380017936229706 2.09169197082519531 0 10 19
0.288598001003265381 -0.0408920012414455414 2.07683396339416504 0 10 19
0.289820998907089233 -0.0395159982144832611 2.08563590049743652 0 10 19
0.288821995258331299 -0.0378360003232955933 2.07844901084899902 0 10 19
0.289402008056640625 -0.0363649986684322357 2.08262300491333008 0 10 19
0.288778990507125854 -0.0347429998219013214 2.07813906669616699 0 10 19
0.287111014127731323 -0.0330080017447471619 2.0661320686340332 0 9 18
0.286660999059677124 -0.0314240008592605591 2.0628969669342041 0 9 18
0.28848499059677124 -0.028540000319480896 2.07602310180664062 0 9 18
0.287696987390518188 -0.0269239991903305054 2.07034993171691895 1 10 19
0.287934988737106323 -0.0254069995135068893 2.07206392288208008 2 11 20
0.288075000047683716 -0.0238799992948770523 2.07307600975036621 1 11 20
0.288075000047683716 -0.0223399996757507324 2.07307600975036621 1 11 20
0.292434990406036377 -0.0211149994283914566 2.10444903373718262 1 11 20
0.29281499981880188 -0.0195770002901554108 2.10718202590942383 1 11 20
0.292724013328552246 -0.0180070009082555771 2.10652709007263184 1 11 20
0.293722003698348999 -0.0164979994297027588 2.11371302604675293 1 11 20
0.29486200213432312 -0.0149860000237822533 2.12191510200500488 0 11 20
0.293722003698348999 -0.0133579997345805168 2.11371302604675293 0 12 20
0.293516010046005249 -0.0117800002917647362 2.11223006248474121 0 12 20
0.294230014085769653 -0.0102359997108578682 2.11736488342285156 0 12 20
0.297987014055252075 -0.00718099996447563171 2.14440298080444336 0 12 20
0.296467989683151245 -0.00555999996140599251 2.1334691047668457 0 12 20
0.294164985418319702 -0.00394400022923946381 2.1168980598449707 0 12 20
0.285405993461608887 -0.000775000022258609533 2.05386900901794434 1 11 20
0.287209004163742065 0.000754999986384063959 2.06684207916259766 1 11 20
0.288325995206832886 0.00229900004342198372 2.07487988471984863 1 11 20
0.288816988468170166 0.00384699995629489422 2.07840895652770996 1 11 20
0.28977501392364502 0.00540800020098686218 2.08530592918395996 1 11 20
0.291974008083343506 0.0070099998265504837 2.10113096237182617 1 11 20
0.292982012033462524 0.0086000002920627594 2.1083829402923584 1 11 20
0.292607009410858154 0.0101530002430081367 2.10568404197692871 0 10 19
0.292905986309051514 0.011729000136256218 2.10784101486206055 0 9 18
0.292883992195129395 0.0132940001785755157 2.10767889022827148 0 9 18
0.290578007698059082 0.0147420000284910202 2.09108591079711914 0 9 18
0.284247994422912598 0.0220180004835128784 2.04553008079528809 1 10 17
0.28944098949432373 0.0317029990255832672 2.08290290832519531 0 10 16
0.290039986371994019 0.0333190001547336578 2.08721303939819336 0 10 17
0.280355989933013916 0.0352040007710456848 2.01752305030822754 0 10 17
0.278964996337890625 0.036520000547170639 2.00751304626464844 0 10 18
0.290324985980987549 0.039558999240398407 2.08926701545715332 0 10 19
0.291341006755828857 0.0412550009787082672 2.09657907485961914 0 10 19
0.280588001012802124 0.048730999231338501 2.0191950798034668 0 8 18
0.279525011777877808 0.0500399991869926453 2.01154088973999023 0 7 17
0.283820003271102905 0.0523260012269020081 2.04245209693908691 0 7 17
0.283410996198654175 0.0537660010159015656 2.03950810432434082 0 7 17
0.289552003145217896 0.0564789995551109314 2.08370208740234375 0 8 16
0.290217012166976929 0.0597110018134117126 2.08848404884338379 0 5 14
0.288078993558883667 0.0608110018074512482 2.07309889793395996 0 5 13
0.288123011589050293 0.0623599998652935028 2.07341694831848145 0 5 12
0.28661799430847168 0.0635659992694854736 2.06258893013000488 0 4 11
0.281287014484405518 0.0668950006365776062 2.02422595024108887 0 3 9
0.280934005975723267 0.0683119967579841614 2.0216829776763916 0 2 9
0.286134004592895508 0.0741650015115737915 2.05910110473632812 0 0 6
0.282137006521224976 0.0746370032429695129 2.03033995628356934 0 1 6
0.278530001640319824 0.0751719996333122253 2.00438094139099121 0 1 6
0.280443012714385986 0.156635001301765442 2.01814889907836914 0 4 8
0.279026001691818237 0.157334998250007629 2.00795197486877441 0 4 10
0.2813740074634552 0.166179001331329346 2.02484989166259766 0 4 10
0.31428799033164978 0.200737997889518738 2.26170992851257324 146 165 144
0.314514994621276855 0.202564001083374023 2.26334190368652344 143 162 139
0.312689989805221558 0.203059002757072449 2.25020694732666016 143 162 137
0.312469989061355591 0.204586997628211975 2.24863004684448242 144 162 137
0.313223004341125488 0.208428993821144104 2.25404691696166992 144 162 138
0.313349008560180664 0.210187003016471863 2.25495290756225586 144 161 138
0.31387600302696228 0.212218001484870911 2.2587430477142334 146 161 137
0.316644012928009033 0.215782001614570618 2.27866005897521973 146 161 135
0.314812988042831421 0.216217994689941406 2.26548910140991211 146 160 134
0.30997699499130249 0.219523996114730835 2.23068809509277344 137 157 132
0.31233900785446167 0.224535003304481506 2.24768400192260742 138 161 137
0.312290012836456299 0.226169005036354065 2.24733209609985352 145 169 147
0.310294985771179199 0.226383000612258911 2.23297595977783203 158 181 161
0.31347501277923584 0.232053995132446289 2.2558588981628418 143 165 145
0.313322991132736206 0.233616992831230164 2.25476598739624023 144 166 145
0.313333988189697266 0.235300004482269287 2.25484299659729004 146 168 144
0.311435997486114502 0.23553900420665741 2.24118804931640625 143 165 139
0.314258992671966553 0.239353999495506287 2.26149892807006836 138 158 131
0.312866002321243286 0.241638004779815674 2.25147795677185059 138 157 130
0.313832014799118042 0.244060993194580078 2.25843000411987305 141 159 133
0.31287500262260437 0.244988992810249329 2.25153899192810059 142 159 132
0.312759995460510254 0.249915003776550293 2.25071501731872559 141 159 132
0.323170006275177002 0.259959995746612549 2.32562994956970215 140 159 132
0.32089000940322876 0.259840995073318481 2.3092188835144043 140 159 133
0.297279000282287598 -0.0750899985432624817 2.12793588638305664 0 18 32
0.293637990951538086 -0.0476300008594989777 2.10187411308288574 0 10 19
0.293980002403259277 -0.0461219996213912964 2.10432004928588867 0 10 19
0.293969005346298218 -0.0445570014417171478 2.10423803329467773 0 10 19
0.292766004800796509 -0.042819000780582428 2.0956270694732666 0 10 19
0.290688008069992065 -0.0394239984452724457 2.08075308799743652 0 10 19
0.290446996688842773 -0.0378470011055469513 2.07903194427490234 0 10 19
0.289314985275268555 -0.0361610017716884613 2.07092690467834473 0 10 19
0.288690000772476196 -0.0345479995012283325 2.06645488739013672 0 10 19
0.288150012493133545 -0.0329510010778903961 2.06258893013000488 0 9 18
0.288267999887466431 -0.0314319990575313568 2.06342911720275879 0 8 18
0.287871986627578735 -0.0267970003187656403 2.06059908866882324 1 10 19
0.288347989320755005 -0.025309000164270401 2.06400489807128906 2 11 20
0.288644999265670776 -0.0238000005483627319 2.0661320686340332 1 11 20
0.29059898853302002 -0.0224159993231296539 2.08012104034423828 1 11 20
0.292071998119354248 -0.0209769997745752335 2.09065794944763184 1 11 20
0.292010992765426636 -0.0194199997931718826 2.09022808074951172 1 11 20
0.291965007781982422 -0.0178640000522136688 2.08989500999450684 1 11 20
0.291619002819061279 -0.0162930004298686981 2.08741593360900879 1 11 20
0.291635990142822266 -0.0147430002689361572 2.08753800392150879 0 11 20
0.291954994201660156 -0.0132069997489452362 2.08982300758361816 0 12 20
0.291442006826400757 -0.0116339996457099915 2.08614897727966309 0 12 20
0.296988010406494141 -0.00553999980911612511 2.12585210800170898 0 12 20
0.288980990648269653 -0.00231699994765222073 2.06853890419006348 0 11 20
0.285452008247375488 -0.000770999991800636053 2.04327702522277832 1 11 20
0.285457998514175415 0.000745999976061284542 2.0433189868927002 1 11 20
0.288150012493133545 0.00228499993681907654 2.06258893013000488 1 11 20
0.290268003940582275 0.00384499994106590748 2.07774996757507324 1 11 20
0.290273994207382202 0.0053889998234808445 2.07779097557067871 1 11 20
0.290825009346008301 0.00694500003010034561 2.08173489570617676 1 11 20
0.291092991828918457 0.00849900022149085999 2.08365011215209961 1 11 20
0.292077004909515381 0.0100809996947646141 2.09069490432739258 0 10 19
0.292320996522903442 0.0116440001875162125 2.09244108200073242 0 9 18
0.291747987270355225 0.0131719997152686119 2.08834099769592285 0 9 18
0.290230989456176758 0.0146469995379447937 2.07748603820800781 0 9 18
0.286413997411727905 0.0205450002104043961 2.05016303062438965 1 9 19
0.285876005887985229 0.0220260005444288254 2.04630804061889648 1 10 17
0.286121994256973267 0.0235670004040002823 2.04807400703430176 1 10 15
0.288989007472991943 0.0314849987626075745 2.06859207153320312 1 10 16
0.291292011737823486 0.0332849994301795959 2.08508205413818359 1 10 17
0.291390985250473022 0.0348449982702732086 2.08578610420227051 0 9 16
0.279949009418487549 0.0364539995789527893 2.00388097763061523 0 9 17
0.291934013366699219 0.0395670011639595032 2.0896759033203125 0 9 18
0.291680008172988892 0.0410830006003379822 2.08785200119018555 0 9 18
0.287164986133575439 0.0557149983942508698 2.05554008483886719 0 6 15
0.291651010513305664 0.0581360012292861938 2.0876469612121582 1 6 15
0.289627999067306519 0.0608129985630512238 2.07316708564758301 0 3 12
0.289373010396957397 0.0622979998588562012 2.07134509086608887 0 3 12
0.283327013254165649 0.0655149966478347778 2.02806210517883301 0 2 9
0.284862995147705078 0.0734430029988288879 2.03906106948852539 0 0 6
0.281394988298416138 0.0740450024604797363 2.01423501968383789 0 1 6
0.279675006866455078 0.156863003969192505 2.00192093849182129 0 4 10
0.282550007104873657 0.159977003931999207 2.02250099182128906 0 5 11
0.321141988039016724 0.193780004978179932 2.29874801635742188 9 17 18
0.316805988550186157 0.19790099561214447 2.26770591735839844 138 155 141
0.317322999238967896 0.199911996722221375 2.27141189575195312 154 173 155
0.315634012222290039 0.200525000691413879 2.25932002067565918 142 161 140
0.315986990928649902 0.202428996562957764 2.26184296607971191 143 162 139
0.315645009279251099 0.203888997435569763 2.2593998908996582 143 162 137
0.314875990152359009 0.208415001630783081 2.25389599800109863 144 162 138
0.317793995141983032 0.213725000619888306 2.27478194236755371 146 161 137
0.317075014114379883 0.21661299467086792 2.26963210105895996 146 158 134
0.308108985424041748 0.223592996597290039 2.20545506477355957 156 180 159
0.313116014003753662 0.230555996298789978 2.24129796028137207 142 166 144
0.311345010995864868 0.232563003897666931 2.22861909866333008 145 168 143
0.310270994901657104 0.233410999178886414 2.22093296051025391 142 164 138
0.3109549880027771 0.235578000545501709 2.22582507133483887 138 158 131
0.296306997537612915 -0.0760160014033317566 2.10976004600524902 0 18 33
0.293137013912200928 -0.0705510005354881287 2.0871880054473877 0 18 32
0.296287000179290771 -0.0697429999709129333 2.10961604118347168 0 18 31
0.293202012777328491 -0.05506100133061409 2.0876469612121582 2 15 21
0.292820006608963013 -0.0534400008618831635 2.08493399620056152 2 15 21
0.293318986892700195 -0.0519799999892711639 2.08848404884338379 0 11 19
0.294351011514663696 -0.0506060011684894562 2.09583210945129395 0 11 19
0.294088006019592285 -0.0490060001611709595 2.09396004676818848 0 11 19
0.295379996299743652 -0.0476589985191822052 2.10315990447998047 0 10 19
0.296229004859924316 -0.0462290011346340179 2.10920405387878418 0 10 19
0.294982999563217163 -0.0444750003516674042 2.10033297538757324 0 10 19
0.293870002031326294 -0.0427529998123645782 2.09240388870239258 0 10 19
0.291965991258621216 -0.040931999683380127 2.07885289192199707 0 10 19
0.292216986417770386 -0.0394209995865821838 2.08063793182373047 0 10 19
0.290906995534896851 -0.0377059988677501678 2.07130694389343262 0 10 19
0.290280014276504517 -0.0360900014638900757 2.06684207916259766 1 10 19
0.290179997682571411 -0.0345430001616477966 2.0661320686340332 1 10 19
0.290136009454727173 -0.0330029986798763275 2.06581902503967285 0 9 18
0.289956003427505493 -0.031449001282453537 2.06453704833984375 0 8 18
0.291018009185791016 -0.0300249997526407242 2.07209897041320801 1 8 18
0.292827010154724121 -0.0286630000919103622 2.08497810363769531 2 9 19
0.288801997900009155 -0.0252139996737241745 2.0563209056854248 2 11 20
0.290524989366531372 -0.0238279998302459717 2.06859207153320312 2 11 20
0.291148006916046143 -0.0223399996757507324 2.07302403450012207 2 11 20
0.293118000030517578 -0.0209410004317760468 2.08705401420593262 1 11 20
0.291018009185791016 -0.0177120007574558258 2.07209897041320801 1 11 20
0.290271013975143433 -0.0161320008337497711 2.06677794456481934 1 11 20
0.305447012186050415 -0.0137440003454685211 2.17483901977539062 0 12 20
0.306021004915237427 -0.0105330003425478935 2.17892193794250488 0 12 20
0.29582899808883667 -0.0054890001192688942 2.10635590553283691 0 13 20
0.287954002618789673 -0.00229700002819299698 2.05028390884399414 0 11 20
0.285928010940551758 -0.000768999976571649313 2.03585910797119141 0 11 20
0.284188985824584961 0.000738999980967491865 2.02347588539123535 1 11 20
0.287102997303009033 0.00226500001735985279 2.04422211647033691 1 11 20
0.289523005485534668 0.00381499994546175003 2.06145811080932617 1 11 20
0.290452003479003906 0.0053639998659491539 2.0680699348449707 1 11 20
0.289880990982055664 0.00688599981367588043 2.06400489807128906 1 11 20
0.290179997682571411 0.00842799991369247437 2.0661320686340332 1 11 20
0.291424006223678589 0.0100050000473856926 2.07499194145202637 0 10 19
0.291281014680862427 0.011540999636054039 2.07396888732910156 0 9 18
0.286969989538192749 0.0204760003834962845 2.04327702522277832 1 9 19
0.286983996629714966 0.0219950005412101746 2.04337501525878906 1 10 17
0.286614000797271729 0.0234820004552602768 2.04074001312255859 1 10 15
0.288691997528076172 0.0312869995832443237 2.05554008483886719 0 10 16
0.292104989290237427 0.0347459986805915833 2.07984089851379395 0 9 16
0.293857008218765259 0.0396169982850551605 2.0923159122467041 0 9 16
0.293507009744644165 0.04112200066447258 2.08982300758361816 0 9 16
0.291842013597488403 0.042431998997926712 2.07796692848205566 0 9 16
0.287079989910125732 0.0554039999842643738 2.04406309127807617 1 5 14
0.290479004383087158 0.0575960017740726471 2.06826400756835938 1 5 14
0.293637990951538086 0.0597760006785392761 2.09075808525085449 0 3 12
0.290897011756896973 0.0607560016214847565 2.07123708724975586 0 2 11
0.291316986083984375 0.0623850002884864807 2.07422900199890137 0 2 11
0.286453992128372192 0.0689179971814155579 2.03960704803466797 0 1 8
0.283327013254165649 0.0726609975099563599 2.01733803749084473 0 0 6
0.291505008935928345 0.150299996137619019 2.07556891441345215 0 4 14
0.293172001838684082 0.152710005640983582 2.08743405342102051 0 4 12
0.316352993249893188 0.196573004126548767 2.25249004364013672 149 166 152
0.317144989967346191 0.198742002248764038 2.25812792778015137 158 176 158
0.317382007837295532 0.200569003820419312 2.25981593132019043 141 160 139
0.318690001964569092 0.203081995248794556 2.26913189888000488 143 162 139
0.31701698899269104 0.203692004084587097 2.25722002983093262 143 162 137
0.31552499532699585 0.204401999711990356 2.24659204483032227 144 162 136
0.317625999450683594 0.209123000502586365 2.26155710220336914 144 162 138
0.318639993667602539 0.213161006569862366 2.26877498626708984 146 161 137
0.319954007863998413 0.217424005270004272 2.27812695503234863 145 159 133
0.313057988882064819 0.234261006116867065 2.22902607917785645 142 162 137
0.319242000579833984 0.240577995777130127 2.27306294441223145 138 157 131
0.332964003086090088 -0.1147489994764328 2.3582921028137207 116 123 120
0.307117998600006104 -0.0848369970917701721 2.17523193359375 0 9 17
0.296294987201690674 -0.0756129994988441467 2.09857392311096191 0 18 33
0.295976012945175171 -0.0739739984273910522 2.09631204605102539 0 18 33
0.295215010643005371 -0.072231002151966095 2.09092402458190918 1 19 33
0.294815987348556519 -0.0705820024013519287 2.08810091018676758 1 19 33
0.294573992490768433 -0.0550270006060600281 2.08638405799865723 2 13 19
0.293347001075744629 -0.0532549992203712463 2.07769489288330078 1 13 19
0.294472992420196533 -0.0519100017845630646 2.08567309379577637 0 12 21
0.294521987438201904 -0.0503689981997013092 2.08601808547973633 0 12 21
0.294683009386062622 -0.0488459989428520203 2.08715391159057617 0 12 21
0.296294987201690674 -0.0475549995899200439 2.09857392311096191 0 12 21
0.296624988317489624 -0.0460480004549026489 2.10091400146484375 0 12 21
0.295423001050949097 -0.0443070009350776672 2.09239602088928223 0 12 21
0.295001000165939331 -0.0426919981837272644 2.08941102027893066 0 12 21
0.294072002172470093 -0.0410099998116493225 2.08282804489135742 0 12 21
0.293502002954483032 -0.0393860004842281342 2.07879209518432617 0 10 20
0.291830003261566162 -0.0376270003616809845 2.06695199012756348 0 10 20
0.292026013135910034 -0.0361160002648830414 2.06833696365356445 0 10 19
0.291770011186599731 -0.0345490016043186188 2.06652688980102539 0 9 19
0.291512012481689453 -0.032985001802444458 2.06469488143920898 0 9 18
0.291583001613616943 -0.0314589999616146088 2.06519889831542969 0 8 18
0.292508989572525024 -0.0300200004130601883 2.07176089286804199 0 7 18
0.293087989091873169 -0.0285379998385906219 2.07585692405700684 1 8 18
0.291794002056121826 -0.0238060001283884048 2.06669306755065918 1 11 20
0.292443990707397461 -0.0223210006952285767 2.07129693031311035 1 11 20
0.29502299427986145 -0.0209660008549690247 2.08956694602966309 1 11 20
0.297093003988265991 -0.0179869998246431351 2.10422897338867188 0 11 20
0.30433499813079834 -0.0152230001986026764 2.15551996231079102 0 12 20
0.306118011474609375 -0.0137019995599985123 2.16814899444580078 0 12 20
0.306715011596679688 -0.0105020003393292427 2.1723790168762207 0 12 20
0.306876987218856812 -0.00889299996197223663 2.17352199554443359 0 13 20
0.30636298656463623 -0.00726599991321563721 2.16988492012023926 0 13 20
0.287216991186141968 -0.00227899989113211632 2.03428101539611816 0 11 20
0.286101013422012329 -0.000765000004321336746 2.02637290954589844 0 11 20
0.284727007150650024 0.000737000023946166039 2.01663899421691895 1 11 20
0.286127001047134399 0.00224500009790062904 2.02655911445617676 1 11 20
0.289193004369735718 0.0037909999955445528 2.04826998710632324 1 11 20
0.290942013263702393 0.00534400017932057381 2.06066203117370605 1 11 20
0.290219008922576904 0.00685800006613135338 2.05554008483886719 1 11 20
0.290906995534896851 0.00840499997138977051 2.06041502952575684 1 11 20
0.291860014200210571 0.00996800046414136887 2.06716299057006836 0 10 19
0.292739987373352051 0.0115379998460412025 2.07339692115783691 0 9 18
0.286938011646270752 0.0203660000115633011 2.03229808807373047 1 10 19
0.286814004182815552 0.0218659993261098862 2.03142309188842773 1 10 17
0.285650014877319336 0.023280000314116478 2.02318000793457031 1 10 15
0.282857000827789307 0.0290050003677606583 2.00339698791503906 1 10 15
0.290600985288619995 0.0313280001282691956 2.05824589729309082 0 10 16
0.285472989082336426 0.0322769992053508759 2.02192211151123047 0 11 17
0.286004006862640381 0.0338409990072250366 2.02568411827087402 0 10 16
0.288071006536483765 0.0356010012328624725 2.04032611846923828 0 10 16
0.286691993474960327 0.0369389988481998444 2.03055691719055176 0 9 16
0.283816993236541748 0.0425410009920597076 2.01019597053527832 0 9 16
0.28246501088142395 0.043825000524520874 2.00061893463134766 0 8 15
0.2845039963722229 0.0486310012638568878 2.01506209373474121 0 4 11
0.282743006944656372 0.0498180016875267029 2.00258708000183105 0 4 11
0.285894989967346191 0.0533809997141361237 2.0249168872833252 0 3 12
0.285575002431869507 0.054823998361825943 2.02264499664306641 0 3 12
0.288931012153625488 0.0569880008697509766 2.0464169979095459 0 3 12
0.291157007217407227 0.0604909993708133698 2.06218504905700684 0 2 11
0.290690004825592041 0.0619230009615421295 2.05887293815612793 0 1 10
0.28649100661277771 0.068563997745513916 2.02913403511047363 0 0 8
0.285252988338470459 0.0697679966688156128 2.02036404609680176 0 0 7
0.2839680016040802 0.0709479972720146179 2.01126408576965332 0 0 6
0.294669002294540405 0.152682006359100342 2.08705997467041016 0 4 11
0.294337987899780273 0.154058992862701416 2.08471393585205078 0 5 10
0.294714987277984619 0.165108993649482727 2.08738207817077637 0 5 11
0.316666990518569946 0.195732995867729187 2.24286508560180664 155 171 156
0.317570000886917114 0.197962000966072083 2.24925994873046875 157 174 155
0.319157004356384277 0.20062999427318573 2.26049900054931641 142 160 139
0.318756014108657837 0.202055007219314575 2.25766205787658691 143 162 139
0.317889004945755005 0.203178003430366516 2.25151801109313965 143 162 137
0.317570000886917114 0.207985997200012207 2.24925994873046875 144 162 138
0.322270989418029785 0.217846006155014038 2.28255200386047363 146 158 134
0.319171994924545288 0.224147006869316101 2.26060891151428223 138 158 135
0.312260985374450684 0.222579002380371094 2.21165800094604492 149 173 151
0.313950002193450928 0.225434005260467529 2.2236170768737793 152 175 155
0.317754000425338745 0.231509998440742493 2.2505640983581543 142 165 144
0.318821996450424194 0.233964994549751282 2.25812792778015137 144 166 144
0.300096988677978516 -0.0965989977121353149 2.11438298225402832 4 15 25
0.296211987733840942 -0.0937979966402053833 2.08700799942016602 10 23 31
0.297394007444381714 -0.072383001446723938 2.09533810615539551 1 17 30
0.302109003067016602 -0.0703689977526664734 2.12855195999145508 1 17 30
0.301986992359161377 -0.0671800002455711365 2.12769889831542969 2 16 26
0.302650988101959229 -0.0657429993152618408 2.13237500190734863 0 12 19
0.303478986024856567 -0.0643350034952163696 2.13820910453796387 0 12 18
0.302973002195358276 -0.0594709999859333038 2.13464498519897461 4 15 21
0.295917987823486328 -0.0549889989197254181 2.08493399620056152 1 12 18
0.295628994703292847 -0.0518409982323646545 2.08290290832519531 1 14 22
0.29498600959777832 -0.0501849986612796783 2.07837200164794922 1 14 23
0.294221997261047363 -0.0485149994492530823 2.07298803329467773 1 14 23
0.296422004699707031 -0.0473259985446929932 2.08848404884338379 1 14 23
0.296546995639801025 -0.0457939989864826202 2.08936500549316406 1 14 23
0.295753002166748047 -0.0441239997744560242 2.08377194404602051 1 14 23
0.295468002557754517 -0.0425349995493888855 2.08176398277282715 1 14 23
0.293572008609771729 -0.04072599858045578 2.06840300559997559 1 13 22
0.293855011463165283 -0.0392270013689994812 2.07039999961853027 1 11 21
0.29364699125289917 -0.0376630015671253204 2.06893801689147949 1 11 21
0.293209999799728394 -0.0360720008611679077 2.06585907936096191 0 10 20
0.293312996625900269 -0.0345499999821186066 2.06658196449279785 0 9 19
0.292829990386962891 -0.0329609997570514679 2.06317901611328125 0 8 19
0.293049991130828857 -0.0314520001411437988 2.0647270679473877 0 7 18
0.293945014476776123 -0.0300099998712539673 2.07103490829467773 0 7 18
0.295134991407394409 -0.0285870004445314407 2.07941889762878418 0 7 18
0.295367002487182617 -0.0255180001258850098 2.08105206489562988 1 11 20
0.292970001697540283 -0.0237770006060600281 2.06416201591491699 1 11 20
0.293727010488510132 -0.0223019998520612717 2.06949996948242188 1 11 20
0.29548799991607666 -0.0208889991044998169 2.08190798759460449 1 11 20
0.29619300365447998 -0.0193889997899532318 2.08687090873718262 0 11 20
0.29749000072479248 -0.0179169997572898865 2.09601402282714844 0 12 20
0.299268007278442383 -0.016457999125123024 2.10854196548461914 0 12 20
0.304650992155075073 -0.0151589997112751007 2.14646792411804199 0 13 21
0.30568501353263855 -0.0136110000312328339 2.15374994277954102 1 14 22
0.30675700306892395 -0.012052999809384346 2.16130399703979492 0 14 22
0.306464999914169312 -0.010437999852001667 2.15924406051635742 0 15 22
0.306858986616134644 -0.00884599983692169189 2.16202306747436523 0 15 22
0.307036012411117554 -0.00724400021135807037 2.16327309608459473 0 15 22
0.29120299220085144 -0.00382300000637769699 2.05171489715576172 0 14 22
0.285883009433746338 -0.00225699995644390583 2.01423501968383789 0 11 20
0.285268992185592651 -0.000759000016842037439 2.00990796089172363 0 11 20
0.307750999927520752 0.000791999977082014084 2.16830706596374512 1 11 20
0.290363997220993042 0.00530599988996982574 2.04580092430114746 1 11 20
0.291319012641906738 0.00684799998998641968 2.05253410339355469 1 11 20
0.292872011661529541 0.0099499998614192009 2.06347393989562988 0 10 19
0.295720994472503662 0.0131419999524950981 2.08354902267456055 0 9 18
0.296171993017196655 0.0178120005875825882 2.08672690391540527 0 10 19
0.285023987293243408 0.0290740001946687698 2.00818300247192383 0 10 15
0.285416990518569946 0.0321010015904903412 2.01094698905944824 0 11 15
0.285050004720687866 0.0335519984364509583 2.00836610794067383 0 10 14
0.286568999290466309 0.0352310016751289368 2.01906609535217285 0 10 14
0.286352992057800293 0.0367030017077922821 2.01754498481750488 0 9 14
0.285418003797531128 0.0380759984254837036 2.01095890998840332 0 9 14
0.284588992595672607 0.0394550003111362457 2.00511288642883301 0 9 14
0.285295009613037109 0.0410460010170936584 2.01009297370910645 0 9 14
0.284373998641967773 0.0424019992351531982 2.00360107421875 0 9 14
0.28461301326751709 0.0439269989728927612 2.00528097152709961 0 8 14
0.28386300802230835 0.0467820018529891968 2.00000190734863281 0 3 8
0.285073995590209961 0.0529490001499652863 2.00853300094604492 0 2 10
0.290336012840270996 0.0569650009274482727 2.04560494422912598 0 2 10
0.284067004919052124 0.0572220012545585632 2.00143909454345703 0 1 10
0.29129299521446228 0.0647749975323677063 2.05235195159912109 0 0 9
0.289590001106262207 0.065912000834941864 2.04035210609436035 0 0 10
0.287811011075973511 0.0670130029320716858 2.02781796455383301 0 0 10
0.286938011646270752 0.0683119967579841614 2.0216670036315918 0 0 9
0.284377992153167725 0.0691910013556480408 2.00362896919250488 0 0 7
0.288518995046615601 0.113985002040863037 2.03280305862426758 0 4 10
0.287591010332107544 0.11512400209903717 2.02626609802246094 0 4 10
0.295269995927810669 0.152192994952201843 2.08037209510803223 0 4 12
0.2967509925365448 0.165380001068115234 2.09080791473388672 0 4 11
0.326541990041732788 0.193945005536079407 2.30070090293884277 29 40 39
0.317268997430801392 0.195078998804092407 2.23536992073059082 155 172 157
0.319480001926422119 0.198109999299049377 2.25094389915466309 148 166 146
0.319002002477645874 0.199483007192611694 2.24757909774780273 143 161 139
0.319523990154266357 0.201481997966766357 2.2512519359588623 143 162 138
0.31939399242401123 0.203070998191833496 2.2503359317779541 143 162 137
0.321042001247406006 0.205798998475074768 2.26194906234741211 144 162 136
0.322486996650695801 0.210100993514060974 2.27213406562805176 144 162 138
0.323513001203536987 0.214155003428459167 2.27935791015625 146 161 137
0.327212005853652954 0.218317002058029175 2.30542492866516113 146 161 135
0.322934001684188843 0.217151999473571777 2.27528190612792969 144 158 132
0.323722988367080688 0.219376996159553528 2.28084206581115723 142 156 130
0.322654008865356445 0.223718002438545227 2.27330803871154785 140 160 135
0.314601987600326538 0.224720999598503113 2.21657609939575195 150 173 152
0.319364994764328003 0.231465995311737061 2.25013899803161621 143 165 144
0.322461992502212524 0.247209995985031128 2.27195501327514648 141 159 133
0.297134995460510254 -0.0935999974608421326 2.08261299133300781 7 18 27
0.303598999977111816 -0.0861530005931854248 2.12791991233825684 0 12 18
0.299284011125564575 -0.0755800008773803711 2.0976710319519043 2 17 28
0.299751996994018555 -0.0741380006074905396 2.10095095634460449 2 17 28
0.299113988876342773 -0.072423003613948822 2.09648394584655762 2 17 28
0.300857990980148315 -0.0712789967656135559 2.10870599746704102 2 17 28
0.302354991436004639 -0.0700590014457702637 2.11919498443603516 2 17 28
0.30202600359916687 -0.0684110000729560852 2.11689209938049316 2 17 28
0.302964001893997192 -0.0670460015535354614 2.12346911430358887 3 16 25
0.302668988704681396 -0.0654049962759017944 2.12139701843261719 0 13 21
0.303559988737106323 -0.0640169978141784668 2.12764406204223633 2 13 19
0.304883986711502075 -0.0627090036869049072 2.13691997528076172 2 14 20
0.305023998022079468 -0.0611499994993209839 2.13790702819824219 4 16 20
0.30445900559425354 -0.0594520010054111481 2.1339418888092041 4 15 21
0.303523987531661987 -0.0576889999210834503 2.12739300727844238 3 14 20
0.303178995847702026 -0.0560449995100498199 2.12497305870056152 2 12 19
0.298052012920379639 -0.0488910004496574402 2.08904194831848145 1 14 23
0.299688011407852173 -0.0460390001535415649 2.10050296783447266 1 14 23
0.299320012331008911 -0.0444240011274814606 2.09792804718017578 1 14 23
0.298492997884750366 -0.0427469983696937561 2.0921330451965332 1 14 23
0.298164010047912598 -0.0395950004458427429 2.08982300758361816 0 11 21
0.297120988368988037 -0.0379099994897842407 2.08251094818115234 0 11 21
0.296750009059906006 -0.0363180004060268402 2.07991194725036621 1 11 21
0.296038001775741577 -0.0346900001168251038 2.07492303848266602 0 10 20
0.295130997896194458 -0.0330470018088817596 2.06856894493103027 0 8 19
0.295574009418487549 -0.0315579995512962341 2.07166790962219238 0 8 19
0.296310991048812866 -0.0300939995795488358 2.07683396339416504 0 8 18
0.298828989267349243 -0.0287939999252557755 2.09448599815368652 0 7 18
0.297518998384475708 -0.0255699995905160904 2.08530592918395996 1 11 20
0.297419995069503784 -0.0240129996091127396 2.08460807800292969 1 11 20
0.295141011476516724 -0.0222919993102550507 2.06863307952880859 0 11 20
0.296395987272262573 -0.0208439994603395462 2.07743191719055176 0 11 20
0.298132002353668213 -0.0194140002131462097 2.0896000862121582 0 11 20
0.299750000238418579 -0.0179590005427598953 2.10094189643859863 0 12 20
0.301068007946014404 -0.016470000147819519 2.11017990112304688 0 12 20
0.303012996912002563 -0.0149990003556013107 2.1238100528717041 1 14 22
0.304188996553421021 -0.0134739996865391731 2.13205099105834961 1 14 22
0.30472901463508606 -0.0119110001251101494 2.13583588600158691 0 14 22
0.306192994117736816 -0.0103749996051192284 2.14609599113464355 0 15 22
0.307078003883361816 -0.00880600046366453171 2.15229892730712891 0 15 22
0.309213995933532715 -0.00725700007751584053 2.16727304458618164 0 15 22
0.306858986616134644 -0.00560500007122755051 2.15076494216918945 0 15 22
0.292239010334014893 -0.00229500001296401024 2.04829788208007812 0 12 20
0.306268006563186646 -0.000809999997727572918 2.14662599563598633 0 11 20
0.306564986705780029 0.000784999981988221407 2.14870691299438477 0 11 20
0.306351989507675171 0.00237899995408952236 2.14721202850341797 0 11 20
0.298227995634078979 0.00542100006714463234 2.09027409553527832 0 11 20
0.29076799750328064 0.0067989998497068882 2.03798794746398926 0 11 20
0.29536101222038269 0.00998200010508298874 2.07017898559570312 0 10 19
0.29644399881362915 0.0115620000287890434 2.07776999473571777 0 9 18
0.297639012336730957 0.013158000074326992 2.08614301681518555 0 9 18
0.298918008804321289 0.0178830008953809738 2.09511089324951172 0 10 20
0.296750009059906006 0.0192980002611875534 2.07991194725036621 0 10 20
0.294716000556945801 0.0207000002264976501 2.06565594673156738 0 10 19
0.292445003986358643 0.0220630001276731491 2.04974198341369629 0 10 17
0.28622901439666748 0.0320249982178211212 2.00617289543151855 0 11 15
0.285614013671875 0.0334430001676082611 2.00185799598693848 0 10 14
0.286363989114761353 0.035022001713514328 2.00711798667907715 0 10 14
0.286783009767532349 0.0365660004317760468 2.01005697250366211 0 10 14
0.285466998815536499 0.0378849990665912628 2.00083398818969727 0 10 14
0.285466998815536499 0.039370998740196228 2.00083398818969727 0 9 14
0.285789996385574341 0.040902998298406601 2.00309491157531738 0 9 14
0.285416990518569946 0.0438220016658306122 2.00048398971557617 0 7 13
0.286072999238967896 0.0454120002686977386 2.00507903099060059 0 4 9
0.289351999759674072 0.0594899989664554596 2.02806210517883301 0 0 8
0.294066011905670166 0.061990000307559967 2.06110095977783203 0 0 8
0.293637007474899292 0.0634279996156692505 2.0580909252166748 0 0 8
0.291395008563995361 0.0644610002636909485 2.04237699508666992 0 0 9
0.289938002824783325 0.0656479969620704651 2.03217005729675293 0 0 10
0.288686007261276245 0.0668670013546943665 2.02339291572570801 0 0 10
0.287919014692306519 0.0681879967451095581 2.01801609992980957 0 0 9
0.287227988243103027 0.112883999943733215 2.01317095756530762 0 5 12
0.287380009889602661 0.114440001547336578 2.01423501968383789 0 5 12
0.288830995559692383 0.11652199923992157 2.02440500259399414 0 5 11
0.287957996129989624 0.119167998433113098 2.01829099655151367 0 4 10
0.295435994863510132 0.151485994458198547 2.07070493698120117 0 4 13
0.328655004501342773 0.192472994327545166 2.30353403091430664 5 14 15
0.329070001840591431 0.194428995251655579 2.3064420223236084 34 45 44
0.320500999689102173 0.192702993750572205 2.24638009071350098 105 120 111
0.320234000682830811 0.195877000689506531 2.24451494216918945 154 171 154
0.32089000940322876 0.197947993874549866 2.24910688400268555 140 157 138
0.31965300440788269 0.198850005865097046 2.24044203758239746 145 163 143
0.319665998220443726 0.200522005558013916 2.24052906036376953 143 162 139
0.32055199146270752 0.202747002243995667 2.24674010276794434 143 162 137
0.324308007955551147 0.210187003016471863 2.27306294441223145 144 162 138
0.32590898871421814 0.212920993566513062 2.2842860221862793 144 161 138
0.325846999883651733 0.217969998717308044 2.28385210037231445 145 157 133
0.323350012302398682 0.223033994436264038 2.26635503768920898 141 160 136
0.317542999982833862 0.225640997290611267 2.22565197944641113 148 171 151
0.320060014724731445 0.229094997048377991 2.24328994750976562 144 167 147
0.318908005952835083 0.229930996894836426 2.23521709442138672 143 165 144
0.321556985378265381 0.233514994382858276 2.2537848949432373 144 166 144
0.320580005645751953 0.234474003314971924 2.2469329833984375 143 164 140
0.301952004432678223 -0.0961889997124671936 2.10541391372680664 21 29 39
0.296867012977600098 -0.0930320024490356445 2.06995606422424316 11 20 28
0.300754010677337646 -0.091133996844291687 2.09705996513366699 11 23 28
0.302441000938415527 -0.0869460031390190125 2.10882306098937988 2 15 21
0.302628010511398315 -0.0854329988360404968 2.11012792587280273 2 13 19
0.29979899525642395 -0.0753180012106895447 2.09040093421936035 6 17 27
0.301257997751235962 -0.0741240009665489197 2.10057306289672852 6 17 27
0.302053004503250122 -0.0727559998631477356 2.10611605644226074 6 17 27
0.301302999258041382 -0.0710150003433227539 2.10088896751403809 6 17 28
0.30321800708770752 -0.0698959976434707642 2.11423993110656738 6 17 28
0.303193002939224243 -0.0683190003037452698 2.11406397819519043 6 17 27
0.304715991020202637 -0.0670839995145797729 2.12468290328979492 5 17 25
0.303721994161605835 -0.0652929991483688354 2.11775302886962891 3 14 21
0.304551988840103149 -0.0638940036296844482 2.12353801727294922 3 14 20
0.305822998285293579 -0.0625770017504692078 2.13240504264831543 4 15 19
0.305730998516082764 -0.0609739981591701508 2.1317598819732666 4 15 19
0.304980009794235229 -0.0592450015246868134 2.12652802467346191 4 15 21
0.30415499210357666 -0.0575099997222423553 2.1207740306854248 3 13 20
0.302410006523132324 -0.0556129999458789825 2.10860705375671387 2 11 19
0.303142011165618896 -0.0541779994964599609 2.11371302604675293 1 12 21
0.301739990711212158 -0.0523650012910366058 2.10393095016479492 2 15 24
0.300323992967605591 -0.0505639985203742981 2.09406089782714844 2 15 24
0.297369986772537231 -0.0485260002315044403 2.07346510887145996 2 15 24
0.298781991004943848 -0.0472089983522891998 2.08330893516540527 2 15 24
0.299308985471725464 -0.0457420013844966888 2.08698201179504395 2 15 24
0.298860013484954834 -0.0441260002553462982 2.08384990692138672 2 15 24
0.298826009035110474 -0.0425730012357234955 2.0836179256439209 2 15 24
0.298117995262145996 -0.0393840000033378601 2.07868003845214844 0 13 22
0.297666013240814209 -0.0377830006182193756 2.075531005859375 0 13 22
0.297300010919570923 -0.0361969992518424988 2.07297301292419434 1 11 21
0.296968013048171997 -0.0346180014312267303 2.0706629753112793 1 11 21
0.296377003192901611 -0.0330139994621276855 2.06654191017150879 0 10 20
0.296200990676879883 -0.0314610004425048828 2.06531405448913574 0 9 19
0.29734000563621521 -0.0300420001149177551 2.07325410842895508 0 9 19
0.29901498556137085 -0.0286619998514652252 2.08493399620056152 0 9 19
0.298994004726409912 -0.0271119996905326843 2.08479094505310059 1 11 20
0.299304991960525513 -0.0255900006741285324 2.08695411682128906 1 11 20
0.297361999750137329 -0.0238840002566576004 2.0734100341796875 1 11 20
0.298209995031356812 -0.0224070008844137192 2.07931900024414062 0 11 20
0.299764007329940796 -0.0209720004349946976 2.09015893936157227 0 12 20
0.298826009035110474 -0.019357999786734581 2.0836179256439209 0 12 20
0.299840986728668213 -0.0178709998726844788 2.09069490432739258 0 12 20
0.300655990839004517 -0.0163630004972219467 2.09637904167175293 0 12 20
0.302201002836227417 -0.0148820001631975174 2.10715198516845703 1 14 22
0.302478998899459839 -0.01332900021225214 2.10908699035644531 0 14 22
0.302731990814208984 -0.0117720002308487892 2.11085009574890137 0 15 22
0.310561001300811768 -0.00886000040918588638 2.16544294357299805 0 15 22
0.309693008661270142 -0.00723099987953901291 2.15938901901245117 0 15 22
0.307913005352020264 -0.00559499999508261681 2.14698004722595215 0 15 22
0.305646985769271851 -0.000805000017862766981 2.1311790943145752 0 12 20
0.305822014808654785 0.0007789999945089221 2.13239407539367676 0 12 20
0.305494010448455811 0.00236000004224479198 2.13010907173156738 0 12 20
0.304762989282608032 0.00393299991264939308 2.1250150203704834 0 12 20
0.290053993463516235 0.00674699991941452026 2.02244997024536133 0 11 20
0.2904529869556427 0.00826099980622529984 2.02523398399353027 0 11 20
0.296891987323760986 0.00998200010508298874 2.07013201713562012 0 10 19
0.29838600754737854 0.0115769999101758003 2.08054995536804199 0 9 18
0.301257997751235962 0.0132489996030926704 2.10057306289672852 0 9 18
0.300108999013900757 0.0147529998794198036 2.09256100654602051 0 9 19
0.29986301064491272 0.0162940006703138351 2.09084892272949219 0 10 19
0.299246013164520264 0.0178100001066923141 2.08654189109802246 0 10 20
0.297735005617141724 0.0192620009183883667 2.07600688934326172 0 10 20
0.295271992683410645 0.0206320006400346756 2.058837890625 0 10 19
0.293549001216888428 0.0220320001244544983 2.04681801795959473 0 11 17
0.29339599609375 0.0235399994999170303 2.04575204849243164 0 12 16
0.289577990770339966 0.0322320014238357544 2.01913189888000488 0 12 15
0.288053989410400391 0.0335539989173412323 2.00850892066955566 0 12 16
0.287999004125595093 0.0350399985909461975 2.00812196731567383 0 11 15
0.287820011377334595 0.0365080013871192932 2.00687408447265625 1 11 15
0.288100004196166992 0.038035999983549118 2.00882911682128906 0 10 14
0.287227004766464233 0.0394079983234405518 2.00273799896240234 0 9 13
0.286888003349304199 0.0408480018377304077 2.00037503242492676 0 8 12
0.288134992122650146 0.0440099984407424927 2.00907206535339355 0 6 11
0.287265002727508545 0.0453649982810020447 2.00300407409667969 0 3 8
0.287838011980056763 0.0469460003077983856 2.00699710845947266 0 2 7
0.289456993341445923 0.0487090013921260834 2.01829099655151367 0 1 6
0.287934005260467529 0.0499439984560012817 2.00766801834106445 0 1 6
0.289404004812240601 0.0576930008828639984 2.01792192459106445 0 0 8
0.296050995588302612 0.0620849989354610443 2.06426811218261719 0 0 8
0.295895010232925415 0.0635849982500076294 2.06317901611328125 0 0 8
0.294367998838424683 0.0647810027003288269 2.05253410339355469 0 0 9
0.293424010276794434 0.0660929977893829346 2.04594993591308594 0 0 9
0.286987990140914917 0.11072000116109848 2.00107598304748535 0 5 14
0.287849009037017822 0.112543001770973206 2.007080078125 0 6 14
0.288329005241394043 0.11422400176525116 2.01042389869689941 0 6 14
0.289640992879867554 0.119244001805782318 2.01957511901855469 0 4 10
0.302630990743637085 0.163774996995925903 2.11014389991760254 0 3 8
0.330666005611419678 0.192646995186805725 2.30562496185302734 11 20 20
0.331041008234024048 0.194580003619194031 2.30823898315429688 42 54 51
0.322824001312255859 0.194765999913215637 2.25094389915466309 160 176 163
0.321069002151489258 0.195371001958847046 2.23871111869812012 152 169 152
0.321981996297836304 0.197593003511428833 2.24507308006286621 135 152 132
0.320246994495391846 0.199845999479293823 2.23297595977783203 143 162 138
0.319828987121582031 0.201241001486778259 2.23006105422973633 143 162 137
0.322824001312255859 0.204797998070716858 2.25094389915466309 144 162 136
0.326225012540817261 0.210335001349449158 2.27466201782226562 144 162 138
0.326728999614715576 0.217427998781204224 2.27817511558532715 144 158 133
0.321877986192703247 0.220869004726409912 2.2443540096282959 141 161 136
0.318318009376525879 0.223370999097824097 2.21952509880065918 154 176 154
0.319889992475509644 0.226131007075309753 2.23049211502075195 146 169 149
0.319296002388000488 0.227365002036094666 2.2263491153717041 142 165 145
0.319462001323699951 0.229137003421783447 2.22750306129455566 142 165 144
0.319103986024856567 0.232186004519462585 2.22500991821289062 143 162 140
0.318390011787414551 0.233316004276275635 2.22003006935119629 139 157 133
0.318832993507385254 0.241896003484725952 2.22311711311340332 143 158 133
0.316846996545791626 0.24202999472618103 2.20926690101623535 143 159 133
0.298954010009765625 -0.0932030007243156433 2.07376503944396973 8 13 23
0.297816991806030273 -0.0913140028715133667 2.06588506698608398 7 15 22
0.2996940016746521 -0.0903450027108192444 2.07890510559082031 8 17 23
0.301739990711212158 -0.075415000319480896 2.09309601783752441 8 16 23
0.307355999946594238 -0.065733000636100769 2.13205099105834961 4 13 20
0.307633012533187866 -0.0642080008983612061 2.13397097587585449 4 13 18
0.3079490065574646 -0.0626870021224021912 2.13616609573364258 3 13 18
0.307532012462615967 -0.0610180012881755829 2.13327193260192871 3 13 18
0.307671010494232178 -0.0594599992036819458 2.13423299789428711 3 13 19
0.307451993227005005 -0.0578330010175704956 2.13271808624267578 3 13 20
0.307355999946594238 -0.0562320016324520111 2.13205099105834961 3 12 20
0.300781011581420898 -0.0503799989819526672 2.08644008636474609 2 15 24
0.299661993980407715 -0.0486479997634887695 2.07868003845214844 2 15 24
0.298911988735198975 -0.0469859987497329712 2.07347798347473145 2 15 24
0.298869997262954712 -0.0454399995505809784 2.07318711280822754 2 15 24
0.298476994037628174 -0.0438419990241527557 2.07045698165893555 2 15 24
0.299914002418518066 -0.0425079986453056335 2.08042597770690918 2 15 24
0.298128992319107056 -0.0407189987599849701 2.06804490089416504 2 15 24
0.299185007810592651 -0.0393219999969005585 2.07536792755126953 1 14 23
0.298646003007888794 -0.03771200031042099 2.07163190841674805 1 14 23
0.298563003540039062 -0.0361629985272884369 2.07105803489685059 1 13 22
0.298139989376068115 -0.0345759987831115723 2.06811904907226562 1 12 22
0.297488003969192505 -0.03296700119972229 2.06360006332397461 0 11 21
0.296126991510391235 -0.0312910005450248718 2.05415892601013184 0 10 20
0.29885399341583252 -0.0300389993935823441 2.07307600975036621 0 10 20
0.300682991743087769 -0.0286740008741617203 2.08576488494873047 0 10 20
0.29997900128364563 -0.0255149994045495987 2.08087611198425293 0 11 20
0.29996800422668457 -0.0239690002053976059 2.08080506324768066 0 11 20
0.298790007829666138 -0.0223350003361701965 2.07263302803039551 0 11 20
0.300994992256164551 -0.0209490004926919937 2.08792591094970703 0 12 20
0.298334002494812012 -0.0192269999533891678 2.06946492195129395 0 12 20
0.298687994480133057 -0.0177110005170106888 2.07192111015319824 0 12 20
0.299349993467330933 -0.0162080004811286926 2.07651305198669434 0 12 20
0.302165001630783081 -0.0148029997944831848 2.09604191780090332 0 14 22
0.302466988563537598 -0.0132600003853440285 2.09813499450683594 0 14 22
0.309219002723693848 -0.0103690000250935555 2.14497709274291992 0 15 22
0.311888992786407471 -0.00885200034826993942 2.16349506378173828 0 15 22
0.311138004064559937 -0.00722699984908103943 2.15828299522399902 0 15 22
0.308449000120162964 -0.00557600008323788643 2.13963603973388672 0 15 22
