ply
format ascii 1.0
element vertex 655
property float x
property float y
property float z
property uchar red
property uchar green
property uchar blue
end_header
0.063864000141620636 -0.0449489988386631012 2.19989705085754395 4 8 15
0.0638410001993179321 -0.0432990007102489471 2.19910907745361328 5 12 18
0.0636719986796379089 -0.0415560007095336914 2.19327902793884277 6 13 19
0.0636119991540908813 -0.0398890003561973572 2.19122195243835449 5 14 19
0.0636100023984909058 -0.0382600016891956329 2.19113898277282715 7 16 21
0.0638860017061233521 -0.0367919988930225372 2.20065498352050781 5 14 19
0.0638009980320930481 -0.0351100005209445953 2.19773507118225098 2 11 16
0.0635299980640411377 -0.0333359986543655396 2.18838596343994141 0 7 13
0.0636890009045600891 -0.031789001077413559 2.19385290145874023 0 3 10
0.0632679983973503113 -0.0299600008875131607 2.17935395240783691 0 1 8
0.0637470036745071411 -0.0285560004413127899 2.1958460807800293 0 0 7
0.0638070032000541687 -0.0269510000944137573 2.19792389869689941 0 0 7
0.0633660033345222473 -0.0251429993659257889 2.18275308609008789 0 0 5
0.0626680031418800354 -0.0216589998453855515 2.15870404243469238 2 3 8
0.0637980028986930847 -0.0187849998474121094 2.19761991500854492 0 0 2
0.0638969987630844116 -0.0171799995005130768 2.20102810859680176 9 9 7
0.0638130009174346924 -0.0155239999294281006 2.19814300537109375 94 97 92
0.0580849982798099518 0.000730999978259205818 2.00083398818969727 103 123 139
0.0582790002226829529 0.00222399993799626827 2.00751304626464844 78 100 123
0.0581090003252029419 0.00519100017845630646 2.00166606903076172 65 87 112
0.0581940002739429474 0.00668800016865134239 2.00458502769470215 73 94 119
0.0580920018255710602 0.0482929982244968414 2.00106406211853027 0 17 24
0.058063998818397522 0.0512420013546943665 2.00011396408081055 0 14 23
0.068980000913143158 -0.350214004516601562 2.31684398651123047 170 169 175
0.0688999965786933899 -0.344653010368347168 2.31416893005371094 130 127 138
0.0688849985599517822 -0.330825001001358032 2.31363511085510254 95 100 104
0.0687460005283355713 -0.328447014093399048 2.30899596214294434 92 99 103
0.0689169988036155701 -0.324104994535446167 2.31473207473754883 79 89 98
0.0687630027532577515 -0.32166600227355957 2.30956411361694336 62 75 84
0.0687759965658187866 -0.320008009672164917 2.30997896194458008 50 64 74
0.0685930028557777405 -0.317445993423461914 2.30384111404418945 46 60 71
0.0685139968991279602 -0.315373003482818604 2.30119991302490234 52 68 81
0.0686120018362998962 -0.314110994338989258 2.30447888374328613 53 69 82
0.0685210004448890686 -0.311984986066818237 2.30142498016357422 53 69 82
0.068613000214099884 -0.31069299578666687 2.30452203750610352 52 68 81
0.0683149993419647217 -0.307637006044387817 2.2944939136505127 48 64 77
0.0680069997906684875 -0.304554998874664307 2.28416204452514648 45 61 74
0.0672319978475570679 -0.296052008867263794 2.25812792778015137 36 55 63
0.0671499967575073242 -0.294014990329742432 2.25537204742431641 29 49 55
0.0671370029449462891 -0.292286008596420288 2.25495290756225586 21 40 47
0.0671480000019073486 -0.290657997131347656 2.25531697273254395 16 33 43
0.0674889981746673584 -0.290448993444442749 2.26676297187805176 15 30 43
0.067464001476764679 -0.288659006357192993 2.26592588424682617 17 30 45
0.067548997700214386 -0.287337005138397217 2.26877498626708984 18 32 48
0.0673480033874511719 -0.28479999303817749 2.26201105117797852 18 32 49
0.0672909989953041077 -0.282884001731872559 2.26012802124023438 17 33 49
0.0670590028166770935 -0.280232012271881104 2.25230598449707031 16 35 50
0.0671790018677711487 -0.279058992862701416 2.2563478946685791 15 36 51
0.0670839995145797729 -0.276989996433258057 2.25315499305725098 16 39 53
0.0671869963407516479 -0.275741010904312134 2.25662589073181152 17 40 54
0.0670680031180381775 -0.273577004671096802 2.25260806083679199 19 41 55
0.0671980008482933044 -0.272431999444961548 2.25698709487915039 20 42 56
0.0672210007905960083 -0.27084699273109436 2.25774693489074707 21 42 56
0.0672549977898597717 -0.269308000802993774 2.25890302658081055 23 43 59
0.0668720006942749023 -0.266108006238937378 2.24605298042297363 24 43 61
0.0667830035090446472 -0.264084011316299438 2.24303889274597168 22 41 58
0.0668039992451667786 -0.262504011392593384 2.24376797676086426 20 39 54
0.0668940022587776184 -0.261188000440597534 2.24678707122802734 17 35 49
0.0666079968214035034 -0.258408993482589722 2.23717689514160156 14 32 44
0.0667309984564781189 -0.257220000028610229 2.24129796028137207 11 29 40
0.0667219981551170349 -0.255522012710571289 2.24099898338317871 9 27 37
0.066385999321937561 -0.252579987049102783 2.22972393035888672 9 27 36
0.0662290006875991821 -0.250331014394760132 2.22445893287658691 10 29 36
0.0663330033421516418 -0.249068006873130798 2.22794294357299805 9 28 35
0.0659649968147277832 -0.246041998267173767 2.21559000015258789 9 27 37
0.0657889991998672485 -0.243743002414703369 2.20967006683349609 8 26 35
0.0657790005207061768 -0.242064997553825378 2.20933103561401367 7 26 33
0.0660979971289634705 -0.241587996482849121 2.22003006935119629 6 25 32
0.0663520023226737976 -0.240862995386123657 2.22858405113220215 6 25 32
0.0662939995527267456 -0.23899899423122406 2.22663688659667969 7 24 31
0.066310003399848938 -0.237403005361557007 2.22717499732971191 7 22 28
0.0662569999694824219 -0.235557004809379578 2.22536802291870117 9 22 28
0.0662569999694824219 -0.233905002474784851 2.22537589073181152 10 23 29
0.0661420002579689026 -0.231849998235702515 2.22152900695800781 11 24 30
0.0662460029125213623 -0.230561003088951111 2.22500991821289062 10 23 29
0.0662600025534629822 -0.228956997394561768 2.22548389434814453 8 21 27
0.0663029998540878296 -0.22745099663734436 2.22692489624023438 6 19 25
0.0660540014505386353 -0.224949002265930176 2.21856093406677246 5 18 24
0.065921001136302948 -0.222853004932403564 2.21410703659057617 4 17 23
0.0658430010080337524 -0.220945000648498535 2.2114710807800293 3 16 22
0.0658409968018531799 -0.219298005104064941 2.21142411231994629 3 16 22
0.0659599974751472473 -0.218048006296157837 2.21541810035705566 2 15 21
0.0661410018801689148 -0.216995999217033386 2.22148799896240234 3 14 20
0.0662870034575462341 -0.215819999575614929 2.22637701034545898 3 14 20
0.0663940012454986572 -0.214513003826141357 2.22998690605163574 2 13 19
0.0666510015726089478 -0.213681995868682861 2.23863005638122559 2 13 19
0.0669640004634857178 -0.213012993335723877 2.24912810325622559 0 8 14
0.0669889971613883972 -0.21142299473285675 2.24998211860656738 0 7 13
0.0669519975781440735 -0.209636002779006958 2.24873900413513184 0 7 13
0.0665619969367980957 -0.206753998994827271 2.23564410209655762 0 6 12
0.0670320019125938416 -0.2065420001745224 2.25142598152160645 1 6 12
0.0674910023808479309 -0.206270992755889893 2.26683211326599121 1 6 12
0.0674979984760284424 -0.204609006643295288 2.26706504821777344 0 5 11
0.0669260025024414062 -0.201204001903533936 2.24784207344055176 0 5 11
0.067226998507976532 -0.200433000922203064 2.257965087890625 0 5 11
0.0674469992518424988 -0.199404999613761902 2.26534295082092285 1 6 12
0.0671780034899711609 -0.196935996413230896 2.25632905960083008 2 8 14
0.0671740025281906128 -0.195245996117591858 2.25617289543151855 1 8 14
0.0670579969882965088 -0.193238005042076111 2.25229191780090332 0 7 12
0.0667669996619224548 -0.190733000636100769 2.24250698089599609 0 7 12
0.0670590028166770935 -0.189894005656242371 2.25231409072875977 0 8 13
0.0673020035028457642 -0.188903003931045532 2.26047301292419434 1 10 15
0.0672189965844154358 -0.186994001269340515 2.25770401954650879 0 10 12
0.0670510008931159973 -0.184854999184608459 2.25206804275512695 2 13 15
0.0671600028872489929 -0.183477997779846191 2.25570201873779297 7 18 21
0.067405998706817627 -0.182468995451927185 2.26398205757141113 8 19 23
0.0673570036888122559 -0.180656000971794128 2.2623291015625 5 16 20
0.0672449991106987 -0.178676992654800415 2.25855207443237305 6 17 21
0.0671020001173019409 -0.176624000072479248 2.25376391410827637 20 30 32
0.0670109987258911133 -0.174713000655174255 2.25071501731872559 37 47 47
0.0668549984693527222 -0.172638997435569763 2.24548101425170898 64 73 71
0.0669120028614997864 -0.171116992831230164 2.24739694595336914 88 97 94
0.0668620020151138306 -0.169320002198219299 2.24569797515869141 114 120 118
0.0668490007519721985 -0.167620003223419189 2.24527907371520996 129 135 133
0.0667620003223419189 -0.165735006332397461 2.24234199523925781 135 141 140
0.0667610019445419312 -0.164067000150680542 2.24229907989501953 139 145 146
0.0667150020599365234 -0.162291005253791809 2.24077606201171875 141 146 150
0.0666479989886283875 -0.160465002059936523 2.23851704597473145 139 147 150
0.0665550008416175842 -0.158580005168914795 2.23539304733276367 141 151 153
0.0664639994502067566 -0.156706005334854126 2.23234200477600098 141 152 154
0.0666519999504089355 -0.155485004186630249 2.23863601684570312 141 151 153
0.0667280033230781555 -0.153998002409934998 2.24120497703552246 141 149 152
0.0667679980397224426 -0.15242399275302887 2.24253606796264648 142 147 151
0.066766001284122467 -0.150756001472473145 2.2424929141998291 142 146 150
0.0667229965329170227 -0.148993000388145447 2.2410280704498291 143 145 150
0.0668390020728111267 -0.147585004568099976 2.24493288993835449 144 145 150
0.0668660029768943787 -0.145977005362510681 2.24585199356079102 144 147 151
0.066725999116897583 -0.144005998969078064 2.24113702774047852 143 147 150
0.0667229965329170227 -0.142333999276161194 2.24102497100830078 142 146 149
0.066945001482963562 -0.141139000654220581 2.24850010871887207 141 145 148
0.0665080025792121887 -0.138558000326156616 2.23381710052490234 141 145 148
0.0664570033550262451 -0.136793002486228943 2.23208808898925781 142 146 149
0.0662980005145072937 -0.134812995791435242 2.2267758846282959 143 147 150
0.0663560032844543457 -0.133274003863334656 2.22870111465454102 143 147 150
0.066336996853351593 -0.131582006812095642 2.22808408737182617 140 144 148
0.0663629993796348572 -0.129978999495506287 2.22896003723144531 138 144 147
0.0662349984049797058 -0.128075003623962402 2.22465205192565918 138 144 147
0.0660599991679191589 -0.126089006662368774 2.21878290176391602 137 144 145
0.0660300031304359436 -0.124383002519607544 2.217742919921875 136 144 143
0.0658989995718002319 -0.122492000460624695 2.2133491039276123 135 143 140
0.0658499971032142639 -0.120759002864360809 2.21171188354492188 135 142 137
0.0659559965133666992 -0.119306996464729309 2.21526598930358887 135 143 135
0.06587199866771698 -0.11751200258731842 2.21244096755981445 135 141 134
0.0657320022583007812 -0.115622997283935547 2.20775008201599121 134 140 133
0.0659319981932640076 -0.114330001175403595 2.2144770622253418 134 139 133
0.0656900033354759216 -0.112272001802921295 2.20635294914245605 133 138 132
0.066050998866558075 -0.111240997910499573 2.21846604347229004 132 137 131
0.0661239996552467346 -0.109714999794960022 2.22093296051025391 132 137 131
0.066224999725818634 -0.108228996396064758 2.2243049144744873 131 136 131
0.0660540014505386353 -0.10630200058221817 2.21856093406677246 131 136 130
0.065961003303527832 -0.104507997632026672 2.21545600891113281 128 134 124
0.0656199976801872253 -0.10232900083065033 2.20398306846618652 128 134 122
0.0663650035858154297 -0.101836003363132477 2.22902607917785645 127 133 121
0.0663509964942932129 -0.0968480035662651062 2.22854399681091309 120 125 112
0.0663509964942932129 -0.0951929986476898193 2.22854399681091309 117 122 108
0.066234000027179718 -0.0933720022439956665 2.22459506988525391 116 119 105
0.0659649968147277832 -0.0913479998707771301 2.21559000015258789 112 114 100
0.0660229995846748352 -0.0897819995880126953 2.21753907203674316 108 111 95
0.0661040022969245911 -0.0882420018315315247 2.22024798393249512 105 107 93
0.0661019980907440186 -0.0865899994969367981 2.22018098831176758 101 104 90
0.0658439993858337402 -0.0846100002527236938 2.21151590347290039 97 102 88
0.0660860016942024231 -0.083272002637386322 2.21963906288146973 91 97 85
0.0660450011491775513 -0.0815720036625862122 2.2182469367980957 83 91 81
0.0658349990844726562 -0.0796710029244422913 2.21122097969055176 78 86 76
0.0659760013222694397 -0.0781959965825080872 2.21595191955566406 75 81 68
0.0658849999308586121 -0.0764449983835220337 2.21289992332458496 69 74 60
0.0658409968018531799 -0.0747509971261024475 2.21142411231994629 59 66 55
0.0659909993410110474 -0.0732749998569488525 2.2164618968963623 52 61 53
0.0660870000720024109 -0.0717319995164871216 2.21966409683227539 47 58 54
0.0661809965968132019 -0.0701830014586448669 2.22281599044799805 40 54 53
0.0661619976162910461 -0.0685129985213279724 2.22219204902648926 34 48 50
0.0653040036559104919 -0.0594779998064041138 2.19337606430053711 0 5 12
0.0644109994173049927 -0.0554509982466697693 2.16336607933044434 0 6 7
0.0646239966154098511 -0.0491850003600120544 2.17052197456359863 0 4 9
0.0651500001549720764 -0.0479610003530979156 2.18820500373840332 0 3 9
0.0654029995203018188 -0.046514999121427536 2.19670605659484863 0 5 11
0.0654620006680488586 -0.0449239984154701233 2.19867205619812012 3 10 16
0.0652510002255439758 -0.04315200075507164 2.19159889221191406 6 14 20
0.064928002655506134 -0.0413179993629455566 2.18075299263000488 7 16 21
0.0651229992508888245 -0.0398180000483989716 2.18729591369628906 7 17 21
0.0652360022068023682 -0.0382589995861053467 2.19109511375427246 7 17 22
0.0654240027070045471 -0.0367369987070560455 2.19739699363708496 6 16 21
0.0651530027389526367 -0.0349589996039867401 2.18829107284545898 3 14 18
0.0654579997062683105 -0.0334899984300136566 2.19853997230529785 0 9 14
0.0649719983339309692 -0.031621001660823822 2.18220806121826172 0 5 11
0.0644880011677742004 -0.0297759994864463806 2.16597199440002441 0 2 9
0.0649340003728866577 -0.028362000361084938 2.1809389591217041 0 1 7
0.0649520009756088257 -0.0267500001937150955 2.18154501914978027 0 0 6
0.0648650005459785461 -0.0250959992408752441 2.17863607406616211 0 4 7
0.0646469965577125549 -0.0233989991247653961 2.17130589485168457 0 3 6
0.0640420019626617432 -0.0215819999575614929 2.15099406242370605 1 2 7
0.0646620020270347595 -0.0201779995113611221 2.1718289852142334 3 2 7
0.0649849995970726013 -0.0170360002666711807 2.18267297744750977 1 3 2
0.0653050020337104797 -0.0154910003766417503 2.19340896606445312 64 67 63
0.0652960017323493958 -0.0138600002974271774 2.19310188293457031 161 163 158
0.0595710016787052155 0.0037030000239610672 2.00083398818969727 62 86 111
0.0596159994602203369 0.0319640003144741058 2.00232911109924316 0 5 5
0.059778999537229538 0.0380170010030269623 2.00781702995300293 0 2 6
0.059638001024723053 0.0394149981439113617 2.00305509567260742 0 3 9
0.0598470009863376617 0.0470190010964870453 2.01010489463806152 0 12 21
0.0596890002489089966 0.0483830012381076813 2.00477099418640137 0 14 21
0.0709540024399757385 -0.351467996835708618 2.32514190673828125 165 163 170
0.0709140002727508545 -0.349543005228042603 2.32382607460021973 142 141 149
0.0705259963870048523 -0.344197988510131836 2.31112003326416016 128 125 136
0.0711549967527389526 -0.343800991773605347 2.3317110538482666 140 138 147
0.0710989981889724731 -0.338340014219284058 2.32988595962524414 144 148 152
0.0708789974451065063 -0.332118004560470581 2.32267904281616211 94 102 106
0.0709230005741119385 -0.330597996711730957 2.32411789894104004 90 97 103
0.0709810033440589905 -0.327410995960235596 2.32600808143615723 82 91 98
0.0709419995546340942 -0.325506985187530518 2.32474589347839355 71 82 91
0.0707940012216567993 -0.323103994131088257 2.31989002227783203 57 70 80
0.0709000006318092346 -0.321862995624542236 2.32337498664855957 50 64 76
0.0704530030488967896 -0.31811600923538208 2.30870389938354492 51 65 78
0.0703020021319389343 -0.315726011991500854 2.30377411842346191 53 69 84
0.0702859982848167419 -0.313941985368728638 2.30324006080627441 52 68 83
0.0703599974513053894 -0.312559992074966431 2.30567002296447754 50 66 81
0.0702470019459724426 -0.310350000858306885 2.30197811126708984 48 64 79
0.069954998791217804 -0.307354986667633057 2.29239010810852051 48 64 78
0.0695800036191940308 -0.304015010595321655 2.28011298179626465 46 62 77
0.0693100020289421082 -0.301147013902664185 2.2712559700012207 45 61 76
0.0680060014128684998 -0.292172998189926147 2.22854399681091309 31 51 56
0.0685980021953582764 -0.293047010898590088 2.24794411659240723 26 46 50
0.0687239989638328552 -0.291909992694854736 2.25205588340759277 21 41 46
0.068599998950958252 -0.289714992046356201 2.24799895286560059 17 34 43
0.0686969980597496033 -0.288453012704849243 2.25118494033813477 14 28 42
0.0688749998807907104 -0.287523001432418823 2.25700592994689941 13 26 42
0.0687350034713745117 -0.285263985395431519 2.25240898132324219 15 28 44
0.0685110017657279968 -0.282667994499206543 2.24507999420166016 16 31 48
0.0686499997973442078 -0.281571000814437866 2.24964094161987305 17 33 51
0.0689250007271766663 -0.281020998954772949 2.25864911079406738 17 35 52
0.0686760023236274719 -0.278333008289337158 2.25047898292541504 15 36 51
0.0685769990086555481 -0.276261985301971436 2.24723005294799805 15 37 51
0.0686279982328414917 -0.274798005819320679 2.24891090393066406 15 38 52
0.0686329975724220276 -0.273146986961364746 2.2490689754486084 16 38 52
0.0686329975724220276 -0.271477013826370239 2.24907207489013672 17 38 53
0.0686699971556663513 -0.269950985908508301 2.25027894973754883 19 38 53
0.0686660036444664001 -0.26826399564743042 2.25014901161193848 22 40 57
0.0685840025544166565 -0.26627698540687561 2.24748396873474121 24 41 59
0.0684539973735809326 -0.2641029953956604 2.24319696426391602 20 38 55
0.0684470012784004211 -0.262410014867782593 2.24296903610229492 16 34 48
0.0684830024838447571 -0.260883986949920654 2.24416899681091309 11 30 43
0.068497002124786377 -0.259270012378692627 2.24463200569152832 8 26 38
0.0684200003743171692 -0.257313996553421021 2.2421109676361084 7 25 35
0.0685420036315917969 -0.256103992462158203 2.24611091613769531 7 24 34
0.068554997444152832 -0.254480987787246704 2.2465050220489502 7 25 34
0.0680399984121322632 -0.250912994146347046 2.22963309288024902 9 27 34
0.06797800213098526 -0.249029994010925293 2.22760009765625 8 26 34
0.0678469985723495483 -0.246900007128715515 2.22331809997558594 8 25 34
0.0675769969820976257 -0.244273006916046143 2.2144770622253418 7 24 33
0.0678270012140274048 -0.243524998426437378 2.22266101837158203 6 24 31
0.0675150007009506226 -0.240761995315551758 2.21244096755981445 5 23 31
0.067656002938747406 -0.239617004990577698 2.21705508232116699 5 23 30
0.0677540004253387451 -0.238315999507904053 2.22027397155761719 7 22 30
0.0677419975399971008 -0.236625000834465027 2.21988010406494141 7 21 28
0.0677869990468025208 -0.235133007168769836 2.22136497497558594 7 20 26
0.0677839964628219604 -0.233474001288414001 2.22127199172973633 7 20 26
0.0678960010409355164 -0.232204005122184753 2.2249140739440918 7 20 26
0.0678199976682662964 -0.230295002460479736 2.22243905067443848 6 19 25
0.067740999162197113 -0.228376999497413635 2.21984100341796875 5 18 24
0.0677020028233528137 -0.226596996188163757 2.21856093406677246 4 17 23
0.0677540004253387451 -0.225122004747390747 2.22026801109313965 4 17 23
0.0675520002841949463 -0.222807005047798157 2.21364808082580566 3 16 22
0.067428000271320343 -0.220758005976676941 2.20959591865539551 3 16 22
0.0674469992518424988 -0.219176992774009705 2.210205078125 2 15 21
0.0675999969244003296 -0.218029007315635681 2.21521902084350586 1 14 20
0.0670159980654716492 -0.214515998959541321 2.19609999656677246 2 13 19
0.0675769969820976257 -0.214665994048118591 2.2144770622253418 2 13 19
0.0678090006113052368 -0.213752001523971558 2.22207498550415039 1 12 18
0.0681530013680458069 -0.213176995515823364 2.23334193229675293 2 11 18
0.068148002028465271 -0.211503997445106506 2.23319101333618164 0 7 13
0.0681099966168403625 -0.209728002548217773 2.23194098472595215 0 7 13
0.0681890025734901428 -0.208311006426811218 2.23453211784362793 0 6 12
0.0679519996047019958 -0.205934002995491028 2.2267758846282959 0 6 12
0.0683320015668869019 -0.205421000719070435 2.23921108245849609 0 6 12
0.0686630010604858398 -0.204743996262550354 2.25005197525024414 0 5 11
0.0684920027852058411 -0.202567994594573975 2.24444890022277832 0 5 11
0.0679899975657463074 -0.19942900538444519 2.22801303863525391 0 4 10
0.0687709972262382507 -0.200045004487037659 2.25359511375427246 0 5 11
0.0688449963927268982 -0.198584005236625671 2.25601005554199219 1 6 12
0.0685959979891777039 -0.196198001503944397 2.24786901473999023 2 8 14
0.0685660019516944885 -0.194442003965377808 2.24688005447387695 1 8 14
0.0685769990086555481 -0.192802995443344116 2.24723005294799805 0 6 12
0.0686929970979690552 -0.191459000110626221 2.25104308128356934 0 6 11
0.0685570016503334045 -0.189410999417304993 2.24659204483032227 0 7 12
0.0687720030546188354 -0.188332006335258484 2.25364804267883301 0 10 12
0.0687080025672912598 -0.186483994126319885 2.25154805183410645 0 10 11
0.0690530017018318176 -0.185739994049072266 2.26285505294799805 1 13 13
0.0690599977970123291 -0.184077993035316467 2.26308393478393555 5 16 18
0.0689200013875961304 -0.1820250004529953 2.25847411155700684 8 19 23
0.0688960030674934387 -0.180286005139350891 2.25770401954650879 9 20 24
0.0687439963221549988 -0.17821599543094635 2.2527310848236084 13 24 26
0.0686250030994415283 -0.176235005259513855 2.24880099296569824 31 41 42
0.0684920027852058411 -0.174226999282836914 2.24445796012878418 49 59 60
0.0685060024261474609 -0.172594994306564331 2.24491000175476074 70 79 78
0.0685300007462501526 -0.170987993478775024 2.24569797515869141 94 103 100
0.0684780031442642212 -0.169192001223564148 2.2440030574798584 122 129 126
0.0685449987649917603 -0.167686998844146729 2.24618005752563477 138 144 143
0.0684750005602836609 -0.165850996971130371 2.2439110279083252 143 148 150
0.0684340000152587891 -0.16408500075340271 2.24255108833312988 144 149 153
0.0683209970593452454 -0.162150993943214417 2.23884892463684082 146 151 156
0.0684060007333755493 -0.160688996315002441 2.24164795875549316 145 150 156
0.0683839991688728333 -0.158971995115280151 2.24091196060180664 144 153 156
0.0681639984250068665 -0.15680299699306488 2.23372197151184082 143 153 155
0.068510003387928009 -0.155929997563362122 2.24504303932189941 142 151 154
0.0685430020093917847 -0.154336005449295044 2.24612307548522949 143 149 153
0.0685250014066696167 -0.152629002928733826 2.24555110931396484 143 147 152
0.0686369985342025757 -0.15120600163936615 2.24919795989990234 143 146 151
0.0685919970273971558 -0.149439007043838501 2.24774694442749023 145 147 152
0.0685409978032112122 -0.147660002112388611 2.24607300758361816 146 147 152
0.0685330033302307129 -0.145972996950149536 2.24579405784606934 144 148 151
0.0684069991111755371 -0.144041001796722412 2.2416839599609375 142 146 149
0.0685110017657279968 -0.142591997981071472 2.24508810043334961 140 144 147
0.0683910027146339417 -0.140677005052566528 2.24113702774047852 140 144 147
0.0681359991431236267 -0.138493001461029053 2.23277592658996582 142 146 149
0.068062998354434967 -0.13668900728225708 2.23040103912353516 142 146 149
0.0679519996047019958 -0.134812995791435242 2.2267758846282959 141 145 148
0.0679820030927658081 -0.133218005299568176 2.22775697708129883 139 142 146
0.0679550021886825562 -0.13151000440120697 2.22686195373535156 139 142 148
0.0679339990019798279 -0.129815995693206787 2.2261650562286377 138 143 148
0.0678059980273246765 -0.127921000123023987 2.2219688892364502 138 143 148
0.0677689984440803528 -0.126201003789901733 2.22076010704040527 137 142 146
0.0677200034260749817 -0.124462999403476715 2.21917104721069336 136 141 144
0.0679519996047019958 -0.123235002160072327 2.2267758846282959 136 141 141
0.0677929967641830444 -0.121296003460884094 2.22155594825744629 135 141 139
0.0676769986748695374 -0.119441002607345581 2.217742919921875 135 141 137
0.0674069970846176147 -0.117324002087116241 2.20889997482299805 134 139 133
0.0674839988350868225 -0.115814998745918274 2.21142411231994629 133 138 132
0.06766500324010849 -0.109537996351718903 2.21735906600952148 131 136 130
0.0678429976105690002 -0.108175002038478851 2.2231910228729248 130 135 129
0.0678990036249160767 -0.106610998511314392 2.22500991821289062 130 135 128
0.0674669966101646423 -0.104290999472141266 2.21085906028747559 128 132 122
0.0671010017395019531 -0.102091997861862183 2.19886302947998047 128 132 119
0.0679970011115074158 -0.100144997239112854 2.22823095321655273 127 130 117
0.0679389983415603638 -0.0984070003032684326 2.2263491153717041 124 128 114
0.0678939968347549438 -0.0966890007257461548 2.22487497329711914 120 124 110
0.0677400007843971252 -0.0948200002312660217 2.21980810165405273 116 120 106
0.0678090006113052368 -0.0932660028338432312 2.22207498550415039 114 117 104
0.0676769986748695374 -0.0914369970560073853 2.217742919921875 109 111 98
0.067428000271320343 -0.0894600003957748413 2.20959591865539551 106 109 95
0.0677359998226165771 -0.0882200002670288086 2.21967792510986328 102 106 92
0.0676660016179084778 -0.0864820033311843872 2.21740198135375977 98 103 89
0.0673459991812705994 -0.0844340026378631592 2.20691204071044922 94 100 88
0.067378997802734375 -0.082833997905254364 2.20797300338745117 87 95 85
0.0674590021371841431 -0.0812920033931732178 2.21062207221984863 79 89 80
0.0671140030026435852 -0.0792419984936714172 2.19929409027099609 74 84 75
0.0671079978346824646 -0.0776010006666183472 2.19909310340881348 73 80 71
0.0672909989953041077 -0.0761749967932701111 2.2051088809967041 69 75 65
0.0675769969820976257 -0.0732090026140213013 2.2144770622253418 52 61 56
0.0675930008292198181 -0.0715809985995292664 2.21499800682067871 48 59 57
0.067598000168800354 -0.0699409991502761841 2.21515703201293945 43 57 57
0.0677310004830360413 -0.068429999053478241 2.21950602531433105 35 49 51
0.0663560032844543457 -0.058965001255273819 2.17444610595703125 0 5 12
0.0659980028867721558 -0.0538280010223388672 2.16271805763244629 0 5 5
0.0655570030212402344 -0.0502769984304904938 2.14828395843505859 0 3 5
0.0665329992771148682 -0.0477869994938373566 2.18025398254394531 0 3 7
0.0668390020728111267 -0.0463789999485015869 2.19028401374816895 0 6 9
0.0668670013546943665 -0.0447719991207122803 2.19121909141540527 2 10 13
0.0666240006685256958 -0.0429870001971721649 2.18324494361877441 5 15 17
0.0665690004825592041 -0.0413319990038871765 2.1814570426940918 6 16 18
0.0667390003800392151 -0.0398119986057281494 2.18701004981994629 5 16 18
0.0668580010533332825 -0.0382560007274150848 2.19090509414672852 2 16 17
0.0668679997324943542 -0.0366339981555938721 2.1912539005279541 1 15 16
0.0668269991874694824 -0.0349849984049797058 2.18989109992980957 0 14 15
0.0667899996042251587 -0.0333399996161460876 2.18868899345397949 0 11 14
0.0665870010852813721 -0.0316179990768432617 2.18201899528503418 0 9 12
0.0664179995656013489 -0.0299210008233785629 2.1764988899230957 0 7 10
0.0663160011172294617 -0.0282610002905130386 2.17313599586486816 0 5 9
0.06621599942445755 -0.0266069993376731873 2.16986298561096191 0 4 8
0.0659409984946250916 -0.0248910002410411835 2.16087007522583008 3 8 11
0.0656879991292953491 -0.0199989993125200272 2.15258598327636719 3 3 8
0.0655789971351623535 -0.0183700006455183029 2.14899396896362305 3 4 7
0.0663060024380683899 -0.0169590003788471222 2.17282891273498535 0 0 2
0.0664540007710456848 -0.0153799997642636299 2.1776878833770752 38 42 40
0.0666339993476867676 -0.0137999998405575752 2.18357396125793457 136 139 135
0.0659309998154640198 -0.0104440003633499146 2.16054201126098633 235 228 225
0.0664670020341873169 -0.000821999972686171532 2.17809510231018066 84 107 122
0.0610579997301101685 0.0378849990665912628 2.00083398818969727 0 2 5
0.0611709989607334137 0.0394439995288848877 2.00453901290893555 0 3 6
0.0610960014164447784 0.0468310005962848663 2.00208306312561035 0 9 18
0.0611060000956058502 0.0483260005712509155 2.00242710113525391 0 9 18
0.0726549997925758362 -0.351341009140014648 2.32430505752563477 160 158 166
0.0727270022034645081 -0.349963009357452393 2.32662105560302734 135 134 142
0.0726910009980201721 -0.346332013607025146 2.32544398307800293 128 125 135
0.0726120024919509888 -0.342503994703292847 2.32291603088378906 146 144 152
0.0726480036973953247 -0.33749699592590332 2.32407498359680176 144 150 153
0.0725110024213790894 -0.331692010164260864 2.31969499588012695 97 105 110
0.07303600013256073 -0.330621004104614258 2.33648109436035156 81 90 98
0.0726549997925758362 -0.327170997858047485 2.32430505752563477 73 84 93
0.0725340023636817932 -0.324901014566421509 2.3204200267791748 63 76 85
0.0722900032997131348 -0.322091996669769287 2.31262397766113281 54 68 79
0.072392001748085022 -0.32082599401473999 2.3158879280090332 53 67 80
0.0721089988946914673 -0.317860007286071777 2.30684590339660645 55 71 84
0.0719909965991973877 -0.315629005432128906 2.30306601524353027 52 68 83
0.0722640007734298706 -0.315106987953186035 2.31178903579711914 48 64 79
0.0718810036778450012 -0.311728000640869141 2.299530029296875 44 60 75
0.0719859972596168518 -0.310474991798400879 2.3029029369354248 44 60 75
0.0713969990611076355 -0.306237995624542236 2.28406190872192383 46 62 77
0.0708590000867843628 -0.302244007587432861 2.26683211326599121 48 64 79
0.0708720013499259949 -0.298931986093521118 2.26724791526794434 45 62 73
0.070106998085975647 -0.29404100775718689 2.24278998374938965 27 48 52
0.0703940019011497498 -0.293572992086410522 2.25198101997375488 22 45 46
0.0704339966177940369 -0.292064011096954346 2.25323891639709473 21 43 47
0.0703829973936080933 -0.290181010961532593 2.2516179084777832 18 35 44
0.0705140009522438049 -0.289047002792358398 2.25581789016723633 13 27 41
0.0703700035810470581 -0.286783009767532349 2.25120306015014648 10 23 40
0.0704279989004135132 -0.285344988107681274 2.2530519962310791 12 25 43
0.0704670026898384094 -0.283831000328063965 2.2543189525604248 16 29 48
0.0704530030488967896 -0.282099992036819458 2.25386500358581543 19 34 52
0.070459999144077301 -0.280454009771347046 2.25408792495727539 19 36 54
0.0704130008816719055 -0.278591006994247437 2.25256705284118652 17 36 52
0.0702250003814697266 -0.276178985834121704 2.24655604362487793 15 37 51
0.070348002016544342 -0.274991989135742188 2.25049710273742676 15 37 51
0.070509001612663269 -0.273945003747940063 2.25564193725585938 16 36 51
0.0703549981117248535 -0.271676003932952881 2.25072097778320312 17 36 51
0.0702250003814697266 -0.269506007432937622 2.24657201766967773 19 36 52
0.0703359991312026978 -0.268258988857269287 2.25010204315185547 21 38 55
0.0702340006828308105 -0.266202986240386963 2.24686002731323242 21 38 55
0.0701309964060783386 -0.264144986867904663 2.24355506896972656 16 33 49
0.0701109990477561951 -0.26240500807762146 2.24292302131652832 10 28 42
0.0701719969511032104 -0.260966002941131592 2.244873046875 5 23 35
0.070079997181892395 -0.258956998586654663 2.24191904067993164 3 20 30
0.0698530003428459167 -0.256460011005401611 2.23467302322387695 3 20 29
0.0702650025486946106 -0.256303995847702026 2.24785900115966797 3 20 29
0.0701489970088005066 -0.254211008548736572 2.2441260814666748 5 22 30
0.0697029978036880493 -0.250939995050430298 2.22987198829650879 7 24 32
0.0694700032472610474 -0.248450994491577148 2.22241997718811035 7 24 32
0.0694070011377334595 -0.246575996279716492 2.22039699554443359 6 23 31
0.0695559978485107422 -0.245452001690864563 2.22516393661499023 5 22 30
0.0692109987139701843 -0.242592006921768188 2.2141420841217041 5 22 30
0.0691360011696815491 -0.240683004260063171 2.21171903610229492 5 21 29
0.0690670013427734375 -0.238802000880241394 2.20951294898986816 5 20 29
0.0692220032215118408 -0.237693995237350464 2.2144770622253418 6 20 28
0.069386996328830719 -0.236612007021903992 2.21975803375244141 9 22 29
0.0694229975342750549 -0.235082998871803284 2.22089290618896484 7 20 26
0.069292999804019928 -0.232997998595237732 2.21674394607543945 5 18 24
0.0693920031189918518 -0.231683000922203064 2.21992611885070801 3 16 22
0.0693090036511421204 -0.229760006070137024 2.21727609634399414 3 16 22
0.0692830011248588562 -0.228025004267692566 2.21641993522644043 3 16 22
0.0693250000476837158 -0.226515993475914001 2.21776294708251953 5 18 24
0.0691199973225593567 -0.224205002188682556 2.21122097969055176 5 18 24
0.0691739991307258606 -0.222736001014709473 2.21294999122619629 2 15 21
0.0689719989895820618 -0.220447003841400146 2.20648598670959473 1 14 20
0.0689119994640350342 -0.21861700713634491 2.20455598831176758 1 14 20
0.0686300024390220642 -0.216091006994247437 2.19552993774414062 0 13 19
0.0686059966683387756 -0.214386999607086182 2.19478011131286621 1 12 18
0.0684999972581863403 -0.21242600679397583 2.19137191772460938 0 11 17
0.0691580027341842651 -0.212825000286102295 2.21244096755981445 0 11 17
0.0695869997143745422 -0.212490007281303406 2.22614693641662598 1 10 17
0.0695409998297691345 -0.210697993636131287 2.22467803955078125 0 7 13
0.0692420005798339844 -0.208147004246711731 2.21512103080749512 1 6 12
0.0695440024137496948 -0.207401007413864136 2.22476410865783691 1 6 12
0.0691350027918815613 -0.20453999936580658 2.21169400215148926 1 6 12
0.0694980025291442871 -0.203962996602058411 2.22331809997558594 0 5 11
0.0700159966945648193 -0.203817993402481079 2.23987007141113281 0 5 11
0.0697050020098686218 -0.201256006956100464 2.22991800308227539 0 4 10
0.0700599998235702515 -0.200617998838424683 2.24129796028137207 0 4 10
0.0702089965343475342 -0.197706997394561768 2.24605298042297363 1 6 12
0.0702719986438751221 -0.196215003728866577 2.24807405471801758 2 8 14
0.069909997284412384 -0.193543002009391785 2.23648595809936523 1 8 14
0.0700540021061897278 -0.1922760009765625 2.24107909202575684 0 6 12
0.070419996976852417 -0.191607996821403503 2.25279903411865234 0 5 11
0.0705170035362243652 -0.190197005867958069 2.25590801239013672 0 7 12
0.0703490003943443298 -0.188070997595787048 2.25052309036254883 0 9 12
0.0704089999198913574 -0.186557993292808533 2.25243496894836426 0 9 10
0.0708860009908676147 -0.186138004064559937 2.26770591735839844 0 10 10
0.0706240013241767883 -0.183770999312400818 2.25931406021118164 2 13 15
0.070670001208782196 -0.182212993502616882 2.26079702377319336 9 20 22
0.0704189985990524292 -0.179892003536224365 2.25275993347167969 17 27 29
0.0703070014715194702 -0.177935004234313965 2.24917292594909668 28 38 40
0.0701659992337226868 -0.175911992788314819 2.24468207359313965 49 57 59
0.0701680034399032593 -0.174247995018959045 2.24472689628601074 68 76 78
0.0701169967651367188 -0.17245599627494812 2.24310898780822754 89 95 96
0.0701489970088005066 -0.170868992805480957 2.24413490295410156 111 117 117
0.0701979994773864746 -0.169321000576019287 2.24571394920349121 133 137 138
0.0701839998364448547 -0.167616993188858032 2.24524307250976562 142 146 147
0.0701799988746643066 -0.165940999984741211 2.24512791633605957 143 146 150
0.0701500028371810913 -0.16420300304889679 2.24415898323059082 143 147 153
0.0701600015163421631 -0.162559002637863159 2.24447298049926758 147 150 158
0.0700090005993843079 -0.160545006394386292 2.23964309692382812 149 152 161
0.0700049996376037598 -0.158874005079269409 2.23952794075012207 147 154 158
0.070088997483253479 -0.157398000359535217 2.24220800399780273 145 154 156
0.0700149983167648315 -0.155569002032279968 2.2398529052734375 143 151 153
0.0702359974384307861 -0.154391005635261536 2.24691605567932129 143 148 151
0.0703459978103637695 -0.152961999177932739 2.25045108795166016 143 147 151
0.0703359991312026978 -0.151269003748893738 2.25012898445129395 145 147 151
0.070267997682094574 -0.149451002478599548 2.24792909622192383 146 147 151
0.0701839998364448547 -0.147606998682022095 2.24526500701904297 147 148 152
0.069995000958442688 -0.145545005798339844 2.23921108245849609 144 146 150
0.0700599998235702515 -0.144014999270439148 2.24127292633056641 142 144 147
0.0700270012021064758 -0.142282992601394653 2.24022197723388672 139 143 146
0.0701709985733032227 -0.14090999960899353 2.24485301971435547 140 144 147
0.0697610005736351013 -0.138429000973701477 2.23173308372497559 143 147 150
0.0698859989643096924 -0.137014001607894897 2.23570704460144043 142 146 149
0.0696410015225410461 -0.134880006313323975 2.22787809371948242 138 142 145
0.0695360004901885986 -0.133025005459785461 2.22452902793884277 134 137 142
0.0695390030741691589 -0.131376996636390686 2.22460508346557617 138 141 148
0.0694599971175193787 -0.12957899272441864 2.22210311889648438 139 141 150
0.0694599971175193787 -0.127927005290985107 2.22208595275878906 139 141 150
0.0694139972329139709 -0.126193001866340637 2.22060894966125488 139 140 147
0.0694219991564750671 -0.124558001756668091 2.22086501121520996 138 140 145
0.0694459974765777588 -0.122951000928878784 2.22163510322570801 137 140 143
0.069386996328830719 -0.121197998523712158 2.21975803375244141 136 140 139
0.0692709982395172119 -0.119349002838134766 2.21603202819824219 136 140 138
0.0690689980983734131 -0.117361001670360565 2.20959591865539551 133 138 134
0.0697420015931129456 -0.115189000964164734 2.23109793663024902 132 137 131
0.0694869980216026306 -0.113116003572940826 2.22294402122497559 131 136 130
0.0692640021443367004 -0.109462998807430267 2.21583700180053711 130 135 129
0.0693340003490447998 -0.107924997806549072 2.21805000305175781 129 134 128
0.069360002875328064 -0.106317996978759766 2.21888899803161621 129 134 127
0.0692220032215118408 -0.104460999369621277 2.2144770622253418 127 131 121
0.0687439963221549988 -0.102105997502803802 2.19918203353881836 127 130 117
0.0695839971303939819 -0.101700000464916229 2.22604799270629883 128 131 117
0.0696939975023269653 -0.100204996764659882 2.22957205772399902 126 129 116
0.06958799809217453 -0.0983999967575073242 2.22618699073791504 123 126 113
0.0691490024328231812 -0.0961359962821006775 2.21215009689331055 119 123 110
0.0691459998488426208 -0.0928450003266334534 2.21203398704528809 113 116 103
0.0686699971556663513 -0.090575002133846283 2.19682908058166504 108 111 98
0.0687810033559799194 -0.0874520018696784973 2.20036506652832031 100 104 91
0.0684980005025863647 -0.0854649990797042847 2.19132399559020996 96 101 89
0.0682120025157928467 -0.083486996591091156 2.18216800689697266 91 99 89
0.0683159977197647095 -0.0819920003414154053 2.18550801277160645 85 94 86
0.068309001624584198 -0.0803589969873428345 2.1852569580078125 77 88 81
0.0680460035800933838 -0.0784329995512962341 2.17684102058410645 71 82 75
0.0679230019450187683 -0.0766780003905296326 2.17293500900268555 69 79 71
0.0679460018873214722 -0.0750890001654624939 2.1736600399017334 68 76 68
0.0681859999895095825 -0.0737340003252029419 2.18134689331054688 60 70 63
0.068715997040271759 -0.0726739987730979919 2.19828891754150391 53 64 60
0.068443000316619873 -0.0707589983940124512 2.18955898284912109 50 62 60
0.0684920027852058411 -0.0691820010542869568 2.19110894203186035 45 59 60
0.068371996283531189 -0.0658119991421699524 2.18729591369628906 18 31 37
0.0675069987773895264 -0.0585630014538764954 2.15961098670959473 0 7 11
0.0678829997777938843 -0.0556630007922649384 2.17164206504821777 2 8 8
0.0672610029578208923 -0.0535550005733966827 2.15175604820251465 0 5 3
0.0673070028424263 -0.0519919991493225098 2.15321493148803711 0 4 3
0.0675169974565505981 -0.0489460006356239319 2.1599431037902832 0 3 6
0.0678210034966468811 -0.0475540012121200562 2.16965198516845703 0 4 7
0.067996002733707428 -0.046061001718044281 2.17525601387023926 0 7 10
0.068005003035068512 -0.0444509983062744141 2.17553091049194336 1 11 13
0.0681060031056404114 -0.0428990013897418976 2.17879199981689453 3 13 15
0.0685259997844696045 -0.0415350012481212616 2.1921999454498291 3 14 16
0.0684579983353614807 -0.0398669987916946411 2.19003391265869141 0 14 15
0.0683329999446868896 -0.0381710007786750793 2.18604302406311035 0 13 13
0.0686860010027885437 -0.0367360003292560577 2.19731998443603516 0 14 14
0.0686260014772415161 -0.0350730009377002716 2.195404052734375 0 14 14
0.0686499997973442078 -0.0334540009498596191 2.19619011878967285 0 13 14
0.0683519989252090454 -0.0316849984228610992 2.18663406372070312 1 12 14
0.0681440010666847229 -0.0299689993262290955 2.1799919605255127 1 11 13
0.067960001528263092 -0.0282729994505643845 2.17409992218017578 0 9 11
0.0674519985914230347 -0.0264589991420507431 2.1578679084777832 0 8 10
0.0675100013613700867 -0.0248780008405447006 2.15970897674560547 4 10 11
0.0683929994702339172 -0.0235779993236064911 2.18795108795166016 0 2 3
0.0669440031051635742 -0.0183070003986358643 2.1416161060333252 3 4 9
0.067418999969959259 -0.0168340001255273819 2.1567990779876709 0 0 3
0.0681950002908706665 -0.0154079999774694443 2.18161606788635254 18 22 22
0.0685430020093917847 -0.0138569995760917664 2.19274091720581055 113 115 114
0.0674299970269203186 -0.0104280002415180206 2.15716195106506348 247 242 241
0.0626259967684745789 0.00221999990753829479 2.00345206260681152 64 95 128
0.0625990033149719238 0.0379180014133453369 2.0026099681854248 0 2 5
0.074467003345489502 -0.353475987911224365 2.32699203491210938 171 168 174
0.0746529996395111084 -0.352622002363204956 2.33277392387390137 149 147 155
0.0746819972991943359 -0.351027995347976685 2.33369994163513184 120 119 127
0.0743080005049705505 -0.335471004247665405 2.32200407981872559 116 122 126
0.0745389983057975769 -0.334785997867584229 2.32923507690429688 102 110 116
0.0746269971132278442 -0.333445996046066284 2.33196210861206055 93 102 107
0.0752499997615814209 -0.33448299765586853 2.35142898559570312 78 87 94
0.0747999995946884155 -0.330747008323669434 2.33737301826477051 67 76 85
0.0749000012874603271 -0.329452991485595703 2.34051108360290527 70 81 90
0.0746600031852722168 -0.326665014028549194 2.33301997184753418 72 85 94
0.0742100030183792114 -0.32297399640083313 2.31895899772644043 58 72 83
0.0740749984979629517 -0.320665985345840454 2.31473207473754883 52 66 79
0.0738949999213218689 -0.318170011043548584 2.3090970516204834 60 76 91
0.0737570002675056458 -0.315863996744155884 2.30478310585021973 56 72 88
0.0736989974975585938 -0.313906013965606689 2.30298209190368652 52 69 85
0.0736109986901283264 -0.311823010444641113 2.30023002624511719 47 64 80
0.0734319984912872314 -0.30935901403427124 2.29462599754333496 44 61 76
0.0734350010752677917 -0.307669997215270996 2.29474401473999023 44 60 76
0.0725250020623207092 -0.302172005176544189 2.26628994941711426 44 60 75
0.071492999792098999 -0.296214014291763306 2.23404908180236816 42 58 74
0.0720300003886222839 -0.296764999628067017 2.25081396102905273 39 57 69
0.0722030028700828552 -0.295803993940353394 2.25623893737792969 34 54 59
0.0718799978494644165 -0.292811006307601929 2.24613189697265625 32 53 55
0.0718370005488395691 -0.290966987609863281 2.24478292465209961 26 45 50
0.0720200017094612122 -0.290037006139755249 2.25049710273742676 14 32 41
0.0719439983367919922 -0.288064002990722656 2.24814891815185547 10 24 38
0.0720160007476806641 -0.286678999662399292 2.25038290023803711 13 25 42
0.0720179975032806396 -0.285014986991882324 2.2504420280456543 15 27 46
0.072061002254486084 -0.283513009548187256 2.25178694725036621 13 26 45
0.0717800036072731018 -0.280741006135940552 2.24300694465637207 16 31 50
0.0718929991126060486 -0.279516994953155518 2.24655604362487793 19 35 54
0.0719769969582557678 -0.27817198634147644 2.24918007850646973 18 37 53
0.0720280036330223083 -0.276695013046264648 2.25075101852416992 18 37 52
0.0720190033316612244 -0.274989992380142212 2.25047898292541504 17 37 51
0.0720710009336471558 -0.273514986038208008 2.25209498405456543 16 35 50
0.0718469992280006409 -0.270999014377593994 2.24511098861694336 16 33 49
0.0717179998755455017 -0.268848001956939697 2.24107909202575684 15 32 48
0.0716959983110427856 -0.26710200309753418 2.2404029369354248 14 31 47
0.0715989992022514343 -0.265076011419296265 2.23734593391418457 13 29 46
0.0715240016579627991 -0.263137996196746826 2.2349998950958252 10 26 42
0.071671999990940094 -0.2620219886302948 2.23965001106262207 7 23 37
0.0716909989714622498 -0.260426998138427734 2.24024009704589844 5 20 32
0.071578003466129303 -0.258356004953384399 2.23671293258666992 3 19 29
0.0716750025749206543 -0.257041990756988525 2.23974394798278809 4 19 28
0.0717730000615119934 -0.255726009607315063 2.24278998374938965 5 20 28
0.0714249983429908752 -0.252826988697052002 2.23190498352050781 6 21 29
0.071028001606464386 -0.249776005744934082 2.21952509880065918 7 22 30
0.0708879977464675903 -0.247637003660202026 2.21513795852661133 6 22 30
0.0710629969835281372 -0.246599003672599792 2.22060894966125488 5 21 29
0.0709410011768341064 -0.244527995586395264 2.21678709983825684 4 20 28
0.0708540007472038269 -0.242584004998207092 2.21407008171081543 4 19 28
0.0707859992980957031 -0.240709006786346436 2.21195006370544434 4 18 27
0.0706759989261627197 -0.238695994019508362 2.2085270881652832 4 18 26
0.070468999445438385 -0.236358001828193665 2.20203304290771484 4 18 25
0.0707110017538070679 -0.235529005527496338 2.20959591865539551 6 18 25
0.0709310024976730347 -0.234616994857788086 2.21648406982421875 4 17 23
0.0708080008625984192 -0.232566997408866882 2.21264410018920898 3 16 22
0.070867002010345459 -0.231114998459815979 2.2144770622253418 1 14 20
0.0707269981503486633 -0.229016005992889404 2.21009492874145508 1 14 20
0.0707829967141151428 -0.227556005120277405 2.21185994148254395 1 14 20
0.0705469995737075806 -0.225160002708435059 2.20448708534240723 3 16 22
0.0706410035490989685 -0.223819002509117126 2.20741891860961914 3 16 22
0.0705420002341270447 -0.221869006752967834 2.20433211326599121 1 13 19
0.0703859999775886536 -0.219742998480796814 2.19943809509277344 0 12 18
0.070240996778011322 -0.217662006616592407 2.19492506980895996 0 12 18
0.0702359974384307861 -0.216016992926597595 2.19478011131286621 0 12 18
0.0698859989643096924 -0.213315993547439575 2.1838219165802002 0 11 17
0.0702359974384307861 -0.212757006287574768 2.19478011131286621 0 11 17
0.0706200003623962402 -0.212281003594398499 2.20677900314331055 0 10 17
0.0710489973425865173 -0.211919993162155151 2.22017002105712891 0 9 16
0.070867002010345459 -0.209731996059417725 2.2144770622253418 0 6 12
0.0708450004458427429 -0.208022996783256531 2.21379804611206055 1 6 12
0.0709069967269897461 -0.20655900239944458 2.21573209762573242 1 6 12
0.0706930011510848999 -0.204295992851257324 2.20905494689941406 0 5 11
0.070781998336315155 -0.202907994389533997 2.21181201934814453 0 5 11
0.0712959989905357361 -0.202729001641273499 2.22790098190307617 0 5 11
0.0712020024657249451 -0.200808003544807434 2.22495198249816895 0 4 10
0.0714920014142990112 -0.199965998530387878 2.23401308059692383 0 4 10
0.0714889988303184509 -0.198299005627632141 2.23391890525817871 0 5 11
0.071529000997543335 -0.195088997483253479 2.23516297340393066 1 8 14
0.0717950016260147095 -0.194148004055023193 2.24347710609436035 2 9 15
0.0714389979839324951 -0.191528007388114929 2.23236703872680664 2 8 14
0.0718680024147033691 -0.191009998321533203 2.24577093124389648 1 6 12
0.0720459967851638794 -0.189809992909431458 2.25131893157958984 0 6 12
0.0724890008568763733 -0.18929600715637207 2.26517701148986816 0 9 11
0.0722249969840049744 -0.186929002404212952 2.25691103935241699 0 7 8
0.072240002453327179 -0.185291007161140442 2.25738000869750977 0 8 6
0.0722599998116493225 -0.183665007352828979 2.25800299644470215 1 12 12
0.0721869990229606628 -0.181804001331329346 2.25573301315307617 11 21 23
0.07197599858045578 -0.17960299551486969 2.24914288520812988 24 34 36
0.0718050003051757812 -0.177509993314743042 2.24380588531494141 41 49 52
0.0718230009078979492 -0.175887003540992737 2.24436211585998535 63 71 73
0.0718270018696784973 -0.174227997660636902 2.24446797370910645 82 90 92
0.0717710033059120178 -0.17242799699306488 2.24273395538330078 108 115 115
0.071805998682975769 -0.170844003558158875 2.24381399154663086 128 134 134
0.0715930014848709106 -0.168677002191543579 2.23717093467712402 143 147 148
0.0716729983687400818 -0.167201995849609375 2.23967504501342773 145 149 151
