ply
format ascii 1.0
element vertex 679
property float x
property float y
property float z
property uchar red
property uchar green
property uchar blue
end_header
0.198282003402709961 -0.0694440007209777832 2.10057306289672852 0 4 13
0.201360002160072327 -0.0689370036125183105 2.13318490982055664 0 3 13
0.201655000448226929 -0.0674519985914230347 2.13631105422973633 0 2 14
0.200896993279457092 -0.065617002546787262 2.12827801704406738 0 1 13
0.201075002551078796 -0.0640930011868476868 2.13016295433044434 0 1 13
0.201170995831489563 -0.0625410005450248718 2.1311790943145752 0 1 13
0.200856998562812805 -0.0608620010316371918 2.12784790992736816 0 1 12
0.199018999934196472 -0.0587400011718273163 2.1083829402923584 0 1 12
0.199661001563072205 -0.0573580004274845123 2.11518001556396484 0 2 10
0.196611002087593079 -0.0549350008368492126 2.08287596702575684 0 2 8
0.196772992610931396 -0.0518830008804798126 2.08458590507507324 0 2 6
0.196549996733665466 -0.05027800053358078 2.08222699165344238 0 2 7
0.195351004600524902 -0.0484340004622936249 2.06952500343322754 0 3 8
0.195366993546485901 -0.0469000004231929779 2.0696868896484375 0 4 8
0.195993006229400635 -0.04550899937748909 2.07632207870483398 0 4 8
0.196259006857872009 -0.0440259985625743866 2.07914209365844727 0 3 8
0.195474997162818909 -0.0423119999468326569 2.07083988189697266 0 3 8
0.194795995950698853 -0.0406319983303546906 2.06363797187805176 0 3 10
0.194352999329566956 -0.0390099994838237762 2.0589449405670166 0 3 10
0.194947004318237305 -0.0375959984958171844 2.06524491310119629 0 3 12
0.195552006363868713 -0.0361739993095397949 2.07165408134460449 0 3 13
0.195265993475914001 -0.0345840007066726685 2.06862711906433105 0 4 16
0.195903003215789795 -0.033155001699924469 2.07536792755126953 0 4 16
0.195179998874664307 -0.0314970016479492188 2.06771111488342285 0 5 16
0.194707006216049194 -0.0298890005797147751 2.06270289421081543 0 5 16
0.194490998983383179 -0.0283250007778406143 2.06041502952575684 0 7 17
0.19472600519657135 -0.0268270000815391541 2.0628969669342041 0 7 17
0.194732993841171265 -0.0252960007637739182 2.06297206878662109 0 4 13
0.192062005400657654 -0.021926000714302063 2.03467798233032227 0 5 11
0.193670004606246948 -0.0205860007554292679 2.05171489715576172 0 5 11
0.192714005708694458 -0.0174509994685649872 2.04158496856689453 0 5 11
0.193087995052337646 -0.015966000035405159 2.04555296897888184 0 5 11
0.192640006542205811 -0.0144130000844597816 2.04079794883728027 0 5 11
0.19247099757194519 -0.0128859998658299446 2.03901004791259766 0 4 10
0.192452996969223022 -0.0113700004294514656 2.03881597518920898 0 4 10
0.189087003469467163 -0.00670799985527992249 2.00316596031188965 0 4 10
0.198092997074127197 0.0319419987499713898 2.09857392311096191 0 2 9
0.197940006852149963 0.0334739983081817627 2.09694790840148926 0 2 9
0.200334995985031128 0.0354560017585754395 2.12232208251953125 0 2 9
0.19951300323009491 0.036880001425743103 2.11361908912658691 0 2 9
0.190292000770568848 0.0830909982323646545 2.01592397689819336 1 2 5
0.190334007143974304 0.0846069976687431335 2.01636791229248047 1 2 4
0.192380994558334351 0.0885450020432472229 2.0380549430847168 0 2 1
0.190974995493888855 0.0909029990434646606 2.02315998077392578 0 0 0
0.195175006985664368 0.105189003050327301 2.06765389442443848 0 1 1
0.216122999787330627 -0.289395004510879517 2.27170705795288086 6 15 22
0.216326996684074402 -0.287979006767272949 2.27384400367736816 8 17 24
0.216865003108978271 -0.287001997232437134 2.27950000762939453 6 16 22
0.216876998543739319 -0.283630996942520142 2.27962708473205566 2 10 16
0.216627001762390137 -0.281612992286682129 2.27699708938598633 1 8 14
0.213719993829727173 -0.27449798583984375 2.24644899368286133 2 6 13
0.21492999792098999 -0.274372994899749756 2.25916290283203125 1 5 13
0.214331001043319702 -0.271934986114501953 2.25286293029785156 2 7 17
0.213863998651504517 -0.269672989845275879 2.24795699119567871 6 14 26
0.213982999324798584 -0.268153011798858643 2.24921393394470215 5 13 26
0.213699996471405029 -0.266128987073898315 2.24623608589172363 3 10 23
0.213758006691932678 -0.264533013105392456 2.24684906005859375 1 8 19
0.212902992963790894 -0.261812001466751099 2.23785305023193359 0 7 18
0.214037999510765076 -0.261536985635757446 2.24979209899902344 0 9 19
0.214288994669914246 -0.260170012712478638 2.25242400169372559 0 10 22
0.214298993349075317 -0.258509993553161621 2.25253105163574219 1 12 26
0.214374005794525146 -0.256927013397216797 2.25332403182983398 6 20 35
0.214310005307197571 -0.255176007747650146 2.25264596939086914 7 23 38
0.21419699490070343 -0.253369003534317017 2.25145411491394043 9 25 41
0.214329004287719727 -0.25185200572013855 2.25284099578857422 11 27 42
0.213804006576538086 -0.249567002058029175 2.24733209609985352 11 24 41
0.214691996574401855 -0.24892599880695343 2.25666093826293945 8 21 38
0.213687002658843994 -0.246093004941940308 2.24609804153442383 6 18 34
0.213742002844810486 -0.242817997932434082 2.24667191505432129 6 20 33
0.213269993662834167 -0.24061700701713562 2.2417149543762207 4 20 33
0.213660001754760742 -0.239389002323150635 2.24581193923950195 4 19 30
0.212458997964859009 -0.236385002732276917 2.23319101333618164 3 17 28
0.211750999093055725 -0.23394399881362915 2.22574591636657715 1 15 24
0.212283000349998474 -0.232875004410743713 2.23134088516235352 1 12 21
0.211882993578910828 -0.230782002210617065 2.22713899612426758 0 10 18
0.21161399781703949 -0.228835999965667725 2.2243049144744873 0 9 16
0.211566999554634094 -0.227133005857467651 2.22381210327148438 0 7 15
0.211823001503944397 -0.225753992795944214 2.2265009880065918 0 6 14
0.211431995034217834 -0.22368699312210083 2.22239589691162109 0 6 12
0.210553005337715149 -0.221112996339797974 2.21315598487854004 0 5 11
0.209874004125595093 -0.218761995434761047 2.20602297782897949 0 3 11
0.20942099392414093 -0.216654002666473389 2.20125293731689453 0 2 11
0.210274994373321533 -0.215895995497703552 2.21023201942443848 0 2 11
0.210318997502326965 -0.214298993349075317 2.2106940746307373 0 1 10
0.211401000618934631 -0.213752001523971558 2.22207498550415039 0 3 10
0.21135200560092926 -0.212052002549171448 2.22155594825744629 0 4 10
0.210549995303153992 -0.209602996706962585 2.2131190299987793 0 4 10
0.211171999573707581 -0.208573997020721436 2.21966409683227539 0 4 10
0.211315006017684937 -0.207065999507904053 2.22116899490356445 0 4 10
0.210509002208709717 -0.204631999135017395 2.21268892288208008 0 4 10
0.210512995719909668 -0.20299200713634491 2.21273088455200195 0 4 10
0.21027199923992157 -0.201118007302284241 2.210205078125 0 4 10
0.209071993827819824 -0.19833800196647644 2.19759106636047363 0 3 9
0.208605006337165833 -0.196265995502471924 2.19267892837524414 0 3 8
0.208574995398521423 -0.194609999656677246 2.19236588478088379 0 3 8
0.209318995475769043 -0.193670004606246948 2.20018100738525391 0 3 8
0.209426000714302063 -0.192132994532585144 2.20130705833435059 0 3 8
0.209713995456695557 -0.190760001540184021 2.20433211326599121 0 3 8
0.208948001265525818 -0.188431993126869202 2.19628190994262695 0 3 8
0.208637997508049011 -0.186524003744125366 2.19302201271057129 0 3 8
0.205639004707336426 -0.18063199520111084 2.16150307655334473 0 4 7
0.206726998090744019 -0.176744997501373291 2.17293500900268555 0 4 7
0.207809001207351685 -0.176048994064331055 2.18431806564331055 0 4 7
0.208608999848365784 -0.175097003579139709 2.19271993637084961 0 4 7
0.209193006157875061 -0.172321006655693054 2.19886302947998047 0 3 8
0.208840996026992798 -0.170401006937026978 2.19516110420227051 0 3 9
0.211849004030227661 -0.166238993406295776 2.2267758846282959 18 30 40
0.213420003652572632 -0.165804997086524963 2.24328994750976562 36 55 64
0.208583995699882507 -0.153906002640724182 2.19246101379394531 20 45 58
0.209308996796607971 -0.15117199718952179 2.20007610321044922 15 38 52
0.204357996582984924 -0.14440600574016571 2.1480410099029541 16 35 50
0.202875003218650818 -0.141773998737335205 2.13245606422424316 16 34 49
0.20250999927520752 -0.139937996864318848 2.1286170482635498 16 33 49
0.201974004507064819 -0.137990996241569519 2.12298297882080078 16 33 49
0.202272996306419373 -0.136614993214607239 2.12612009048461914 16 33 49
0.202242001891136169 -0.135015994310379028 2.12579798698425293 16 33 49
0.201119005680084229 -0.132696002721786499 2.11399698257446289 16 33 49
0.211969003081321716 -0.134890004992485046 2.22803807258605957 16 33 49
0.203921005129814148 -0.126583993434906006 2.1434481143951416 18 35 51
0.203583002090454102 -0.124784998595714569 2.13988900184631348 18 35 51
0.202735006809234619 -0.122681997716426849 2.1309819221496582 18 35 51
0.202932000160217285 -0.121216997504234314 2.13304591178894043 18 35 51
0.20351099967956543 -0.119974002242088318 2.13913297653198242 18 35 50
0.203099995851516724 -0.118146002292633057 2.1348121166229248 18 36 50
0.203445002436637878 -0.116759002208709717 2.13844704627990723 17 35 49
0.20309099555015564 -0.114969998598098755 2.13472199440002441 17 35 49
0.203123003244400024 -0.113402001559734344 2.1350560188293457 17 35 48
0.203296005725860596 -0.111910998821258545 2.1368710994720459 17 35 47
0.203236997127532959 -0.110292002558708191 2.13625192642211914 17 35 47
0.203122004866600037 -0.108644001185894012 2.13505196571350098 17 35 47
0.203145995736122131 -0.107069998979568481 2.13529491424560547 17 35 47
0.203323006629943848 -0.105576999485492706 2.13716506958007812 17 35 47
0.203029006719589233 -0.103839002549648285 2.13406801223754883 16 34 46
0.202876999974250793 -0.102177001535892487 2.13246989250183105 15 33 45
0.203485995531082153 -0.100895002484321594 2.13887500762939453 15 33 45
0.202900007367134094 -0.0990199968218803406 2.13271808624267578 14 32 44
0.203323006629943848 -0.0976400002837181091 2.13716506958007812 13 31 43
0.203299999237060547 -0.0960410013794898987 2.13691997528076172 13 31 43
0.202660992741584778 -0.094157002866268158 2.13019704818725586 13 30 42
0.202790006995201111 -0.0926339998841285706 2.13155794143676758 13 29 42
0.202013999223709106 -0.0907019972801208496 2.12339901924133301 13 28 41
0.202534005045890808 -0.089354000985622406 2.12887096405029297 14 28 41
0.202794000506401062 -0.0878849998116493225 2.13159799575805664 16 28 42
0.202111005783081055 -0.0860119983553886414 2.12442588806152344 14 23 38
0.202191993594169617 -0.0844670012593269348 2.12526988983154297 5 14 29
0.201701000332832336 -0.0826879963278770447 2.12011408805847168 0 5 21
0.201138004660606384 -0.0808869972825050354 2.1141960620880127 0 3 18
0.202336996793746948 -0.0797889977693557739 2.1268000602722168 0 4 17
0.202664002776145935 -0.0783360004425048828 2.1302330493927002 0 5 17
0.2024880051612854 -0.0766870006918907166 2.12838006019592285 2 6 16
0.202740997076034546 -0.0751999989151954651 2.13104701042175293 1 5 14
0.202883005142211914 -0.0736680030822753906 2.13253307342529297 0 4 13
0.202298998832702637 -0.0718770027160644531 2.12639689445495605 0 4 13
0.202222004532814026 -0.0702710002660751343 2.12559199333190918 0 4 13
0.202722996473312378 -0.0688619986176490784 2.13085794448852539 0 3 12
0.202628001570701599 -0.0672480016946792603 2.12985897064208984 0 2 12
0.202588006854057312 -0.065652996301651001 2.12943792343139648 0 1 13
0.202375993132591248 -0.0640039965510368347 2.12720298767089844 0 1 13
0.201892003417015076 -0.0622749999165534973 2.12212109565734863 0 1 13
0.201262995600700378 -0.0605089999735355377 2.11550807952880859 0 1 12
0.200991004705429077 -0.0588579997420310974 2.11264705657958984 0 1 11
0.19998699426651001 -0.0570029988884925842 2.10209488868713379 0 2 9
0.199108004570007324 -0.0551979988813400269 2.09285902976989746 0 2 7
0.199130997061729431 -0.0520949997007846832 2.09309601783752441 0 3 6
0.198421001434326172 -0.0503600016236305237 2.08563590049743652 0 4 8
0.196845993399620056 -0.0484240017831325531 2.06908106803894043 0 4 8
0.196734994649887085 -0.0468599982559680939 2.06790804862976074 0 5 8
0.196803003549575806 -0.0453400015830993652 2.06862711906433105 0 4 8
0.19741000235080719 -0.0439379997551441193 2.07500505447387695 0 3 8
0.196913003921508789 -0.0422910004854202271 2.06978893280029297 0 3 8
0.196149006485939026 -0.0405949987471103668 2.06175804138183594 0 4 10
0.196271002292633057 -0.0390879996120929718 2.06303691864013672 0 3 10
0.196511998772621155 -0.0376019999384880066 2.06557202339172363 0 3 12
0.196768000721931458 -0.0361139997839927673 2.06826400756835938 0 3 14
0.196624994277954102 -0.0345529988408088684 2.06675910949707031 0 3 15
0.197026997804641724 -0.0330849997699260712 2.07098293304443359 0 4 16
0.196116000413894653 -0.0314010009169578552 2.06141090393066406 0 4 16
0.195701003074645996 -0.0298069994896650314 2.05704689025878906 0 5 17
0.19555799663066864 -0.0282579995691776276 2.05554008483886719 0 6 17
0.195663005113601685 -0.0267459992319345474 2.05664992332458496 0 6 16
0.196000993251800537 -0.0252620000392198563 2.06019401550292969 0 4 12
0.193460002541542053 -0.0204029995948076248 2.03348803520202637 0 5 11
0.193130999803543091 -0.0188609994947910309 2.03002595901489258 0 5 11
0.192714005708694458 -0.0173150002956390381 2.02564501762390137 0 5 11
0.192961007356643677 -0.0158309992402791977 2.02824497222900391 0 5 11
0.192506998777389526 -0.0142909996211528778 2.02347588539123535 0 4 10
0.192596003413200378 -0.0127940000966191292 2.02440500259399414 0 4 10
0.192271992564201355 -0.0112709999084472656 2.02100396156311035 0 4 10
0.191553995013237 -0.00973299983888864517 2.0134580135345459 0 4 10
0.190550997853279114 -0.00670700008049607277 2.00291609764099121 0 4 10
0.197243005037307739 0.0300159994512796402 2.07325410842895508 0 2 9
0.198298007249832153 0.0317250005900859833 2.08434391021728516 0 2 9
0.198653995990753174 0.0333329997956752777 2.08808207511901855 0 2 9
0.200927004218101501 0.0352829992771148682 2.11197304725646973 0 2 9
0.200738996267318726 0.0368169993162155151 2.10999798774719238 0 2 9
0.190908998250961304 0.0827099978923797607 2.00667500495910645 1 2 4
0.192047998309135437 0.0877019986510276794 2.01864504814147949 0 2 1
0.192371994256973267 0.0908529981970787048 2.0220489501953125 0 0 0
0.195029005408287048 0.104290001094341278 2.04997611045837402 0 2 1
0.218094006180763245 -0.28639298677444458 2.27466201782226562 5 16 20
0.218441992998123169 -0.283464998006820679 2.27829098701477051 3 13 16
0.218015998601913452 -0.277844995260238647 2.27384400367736816 2 10 13
0.216483995318412781 -0.274215996265411377 2.2578730583190918 2 9 14
0.216011002659797668 -0.271943002939224243 2.25293707847595215 2 8 17
0.215791001915931702 -0.269993990659713745 2.25063800811767578 2 6 17
0.21561799943447113 -0.268108010292053223 2.24883604049682617 1 6 19
0.21540600061416626 -0.266175001859664917 2.24662494659423828 1 5 16
0.215573996305465698 -0.264712989330291748 2.24837994575500488 0 4 15
0.215948998928070068 -0.263500988483428955 2.25229191780090332 0 5 14
0.215837001800537109 -0.26169198751449585 2.25112199783325195 0 7 16
0.216036006808280945 -0.260259002447128296 2.25319290161132812 0 10 20
0.216125994920730591 -0.258693009614944458 2.25413107872009277 1 14 25
0.215929001569747925 -0.256785005331039429 2.25208091735839844 8 23 37
0.216284006834030151 -0.255531996488571167 2.25578093528747559 8 24 39
0.215927004814147949 -0.253437012434005737 2.25205588340759277 9 25 41
0.216272994875907898 -0.252167999744415283 2.25567197799682617 8 24 40
0.216445997357368469 -0.250692009925842285 2.25746989250183105 7 20 37
0.216041997075080872 -0.24855099618434906 2.25325798988342285 4 17 34
0.21561199426651001 -0.246387004852294922 2.2487800121307373 5 17 33
0.215638995170593262 -0.244745999574661255 2.24905610084533691 5 17 33
0.215727999806404114 -0.243175998330116272 2.24998211860656738 5 20 33
0.215057000517845154 -0.240753993391990662 2.24298691749572754 4 20 33
0.216006994247436523 -0.240143999457359314 2.25289702415466309 5 19 31
0.216004997491836548 -0.238468006253242493 2.25287103652954102 3 17 28
0.215381994843482971 -0.236112996935844421 2.24638009071350098 2 16 25
0.21515500545501709 -0.23419700562953949 2.24401092529296875 2 14 23
0.214043006300926208 -0.231327995657920837 2.23241090774536133 2 12 21
0.213468998670578003 -0.229054003953933716 2.22642207145690918 2 11 18
0.213899001479148865 -0.227858006954193115 2.23090600967407227 1 8 16
0.214096993207931519 -0.226410999894142151 2.23297595977783203 0 6 14
0.213646993041038513 -0.224279999732971191 2.22828507423400879 0 6 13
0.211263000965118408 -0.218503996729850769 2.20341396331787109 0 4 12
0.21245400607585907 -0.2180899977684021 2.21583700180053711 0 2 11
0.211855992674827576 -0.215834006667137146 2.20959591865539551 0 2 11
0.212031006813049316 -0.214369997382164001 2.21142411231994629 0 1 10
0.214239001274108887 -0.214943006634712219 2.23445796966552734 0 4 11
0.213470995426177979 -0.212518006563186646 2.2264409065246582 0 5 11
0.212070003151893616 -0.209481000900268555 2.21183609962463379 0 5 11
0.212275996804237366 -0.208039999008178711 2.21397805213928223 0 5 11
0.213266000151634216 -0.207358002662658691 2.2243049144744873 0 5 11
0.211632996797561646 -0.204131007194519043 2.20727396011352539 0 5 11
0.211502999067306519 -0.202366992831230164 2.20591592788696289 0 5 11
0.211602002382278442 -0.200821995735168457 2.20694899559020996 0 5 11
0.211199000477790833 -0.198804005980491638 2.20274591445922852 0 5 9
0.210730999708175659 -0.196731001138687134 2.19786596298217773 0 4 8
0.210332006216049194 -0.194729000329971313 2.19370698928833008 0 3 8
0.210545003414154053 -0.193295001983642578 2.19592905044555664 0 3 8
0.209935992956161499 -0.191110000014305115 2.18957996368408203 0 3 8
0.210578992962837219 -0.190063998103141785 2.19628190994262695 0 3 8
0.209117993712425232 -0.18712499737739563 2.18104410171508789 0 3 8
0.208863005042076111 -0.185278996825218201 2.17838406562805176 0 3 8
0.207353994250297546 -0.180727005004882812 2.1626439094543457 0 5 7
0.207442000508308411 -0.179196998476982117 2.16356301307678223 0 4 7
0.207267999649047852 -0.177441000938415527 2.16174602508544922 0 4 7
0.207568004727363586 -0.176090002059936523 2.16488003730773926 0 4 7
0.207687005400657654 -0.174582004547119141 2.16611504554748535 0 4 7
0.210152000188827515 -0.175025999546051025 2.19182801246643066 0 4 7
0.21092599630355835 -0.172401994466781616 2.19989705085754395 0 3 8
0.207578003406524658 -0.16323399543762207 2.16497993469238281 5 11 20
0.213989004492759705 -0.166617006063461304 2.23184609413146973 21 34 43
0.213986992835998535 -0.164958000183105469 2.23182511329650879 39 58 67
0.213133007287979126 -0.157694995403289795 2.22291803359985352 22 50 62
0.209299996495246887 -0.151617005467414856 2.18294501304626465 18 41 55
0.207439005374908447 -0.147055000066757202 2.16353607177734375 15 36 51
0.206440001726150513 -0.14474700391292572 2.15311694145202637 16 35 50
0.20551300048828125 -0.14250500500202179 2.1434481143951416 16 34 49
0.206224992871284485 -0.141400992870330811 2.15086603164672852 16 33 49
0.203338995575904846 -0.137847006320953369 2.1207740306854248 16 33 49
0.202430993318557739 -0.135663002729415894 2.11129903793334961 16 33 49
0.202269002795219421 -0.133987993001937866 2.10961604118347168 16 33 49
0.210701003670692444 -0.134676992893218994 2.19755911827087402 16 33 49
0.211716994643211365 -0.13368600606918335 2.20815300941467285 16 33 49
0.212430000305175781 -0.132489994168281555 2.21559000015258789 18 35 51
0.2044840008020401 -0.119613997638225555 2.13271808624267578 18 35 50
0.20551300048828125 -0.113847002387046814 2.1434481143951416 18 36 49
0.20551300048828125 -0.112254999577999115 2.1434481143951416 18 36 48
0.205375999212265015 -0.110588997602462769 2.14201688766479492 18 36 48
0.205115005373954773 -0.108860000967979431 2.13929009437561035 18 36 48
0.204735994338989258 -0.107072003185749054 2.13533711433410645 18 36 48
0.204922005534172058 -0.105581998825073242 2.13728189468383789 18 36 48
0.204564005136489868 -0.103813000023365021 2.13354897499084473 17 35 47
0.20423300564289093 -0.102063000202178955 2.13009810447692871 15 33 45
0.205827996134757996 -0.101264998316764832 2.14672708511352539 15 33 45
0.204964995384216309 -0.0992529988288879395 2.13773393630981445 14 32 44
0.204595997929573059 -0.0959049984812736511 2.1338810920715332 13 31 43
0.203535005450248718 -0.0938299968838691711 2.12281489372253418 13 30 42
0.204059004783630371 -0.0924910008907318115 2.12827801704406738 13 29 42
0.203430995345115662 -0.0906310006976127625 2.12172889709472656 13 29 42
0.203762993216514587 -0.0891999974846839905 2.12519001960754395 15 28 41
0.203861996531486511 -0.0876640006899833679 2.12622594833374023 14 25 40
0.203075006604194641 -0.0857530012726783752 2.11802196502685547 11 20 35
0.202719002962112427 -0.0840310007333755493 2.11429905891418457 3 11 26
0.202764004468917847 -0.0824790000915527344 2.11477208137512207 0 3 19
0.203630000352859497 -0.0812539979815483093 2.1238100528717041 0 2 18
0.203996002674102783 -0.079819999635219574 2.1276240348815918 1 4 18
0.204190000891685486 -0.0783139988780021667 2.12964797019958496 1 6 17
0.204237997531890869 -0.0767500028014183044 2.1301419734954834 0 6 14
0.204049006104469299 -0.0750980004668235779 2.12817502021789551 0 5 12
0.20428900420665741 -0.0736040025949478149 2.1306769847869873 0 5 11
0.204319000244140625 -0.0720319971442222595 2.13098907470703125 0 4 11
0.203697994351387024 -0.0702349990606307983 2.12451910972595215 0 4 11
0.205249994993209839 -0.0691799968481063843 2.1407020092010498 0 3 12
0.20466199517250061 -0.067396998405456543 2.13457298278808594 0 2 12
0.204315006732940674 -0.0657000020146369934 2.13095402717590332 0 2 12
0.203613996505737305 -0.0638969987630844116 2.12364101409912109 0 1 13
0.201823994517326355 -0.0617720000445842743 2.10497093200683594 0 1 13
0.203444004058837891 -0.0606909990310668945 2.12186908721923828 0 1 12
0.201827004551887512 -0.0586449988186359406 2.10500097274780273 0 1 12
0.200839996337890625 -0.0568029992282390594 2.09470510482788086 0 1 10
0.199999004602432251 -0.0550150014460086823 2.08593201637268066 0 1 8
0.200733006000518799 -0.0521069988608360291 2.09359288215637207 0 2 6
0.199460998177528381 -0.0502320006489753723 2.08032894134521484 0 4 9
0.198010995984077454 -0.0483330003917217255 2.06519889831542969 0 5 9
0.197698995471000671 -0.046725001186132431 2.06194710731506348 0 5 8
0.197861000895500183 -0.0452309995889663696 2.06363797187805176 0 5 8
0.198194995522499084 -0.0437720008194446564 2.0671229362487793 0 5 9
0.198453992605209351 -0.0422910004854202271 2.0698239803314209 0 4 9
0.19800199568271637 -0.0406609997153282166 2.06511211395263672 0 4 10
0.198170006275177002 -0.0391599982976913452 2.06685805320739746 0 3 12
0.198164999485015869 -0.0376240015029907227 2.06680607795715332 0 3 13
0.19814300537109375 -0.0360849983990192413 2.06657600402832031 0 3 14
0.198210000991821289 -0.0345619991421699524 2.06727409362792969 0 2 15
0.198317006230354309 -0.0330439992249011993 2.06839299201965332 0 2 16
0.197631999850273132 -0.0313990004360675812 2.06124305725097656 0 3 17
0.196796000003814697 -0.029742000624537468 2.05253410339355469 0 4 17
0.197292998433113098 -0.0267600007355213165 2.05771207809448242 0 5 15
0.197648003697395325 -0.0252769999206066132 2.06141090393066406 0 4 12
0.197963997721672058 -0.023784000426530838 2.06471395492553711 0 5 11
0.197806000709533691 -0.0222319997847080231 2.06306099891662598 0 5 11
0.194151997566223145 -0.0188129991292953491 2.02495789527893066 0 4 11
0.193726003170013428 -0.0172710008919239044 2.02050995826721191 0 4 11
0.193801999092102051 -0.015776999294757843 2.02129888534545898 0 4 11
0.192230001091957092 -0.00820299983024597168 2.00490999221801758 0 3 10
0.194188997149467468 0.02631399966776371 2.02533507347106934 0 2 9
0.195415005087852478 0.0279939994215965271 2.03812599182128906 0 2 9
0.198809996247291565 0.0315600000321865082 2.07352900505065918 0 2 9
0.198578000068664551 0.0330619998276233673 2.07111310958862305 0 2 9
0.202038004994392395 0.0352029986679553986 2.10720491409301758 0 2 9
0.202117994427680969 0.0367829985916614532 2.10803103446960449 0 2 9
0.192872002720832825 0.0395830012857913971 2.01160001754760742 0 2 9
0.192010998725891113 0.08700600266456604 2.00262808799743652 0 1 1
0.194865003228187561 0.0913179963827133179 2.03238606452941895 0 0 0
0.194732993841171265 0.103325001895427704 2.03101396560668945 0 2 1
0.218541994690895081 -0.288134992122650146 2.26181507110595703 8 18 24
0.220285996794700623 -0.287046998739242554 2.27985596656799316 5 17 20
0.220588997006416321 -0.28404998779296875 2.28299307823181152 3 16 16
0.220442995429039001 -0.280474007129669189 2.28148889541625977 1 12 13
0.219613999128341675 -0.277729988098144531 2.27290606498718262 1 10 13
0.220079004764556885 -0.276625990867614746 2.27771592140197754 0 9 13
0.218802005052566528 -0.273339986801147461 2.26450395584106445 0 7 15
0.218623995780944824 -0.271436005830764771 2.26265692710876465 0 4 16
0.217537000775337219 -0.268415004014968872 2.25141501426696777 0 5 18
0.216333001852035522 -0.265266001224517822 2.23895096778869629 0 6 17
0.217503994703292847 -0.265029996633529663 2.25107097625732422 1 7 18
0.217660993337631226 -0.263547986745834351 2.25269794464111328 1 9 18
0.21800599992275238 -0.262290000915527344 2.25626802444458008 1 9 19
0.218062996864318848 -0.260681986808776855 2.25685596466064453 1 11 23
0.217849999666213989 -0.258751988410949707 2.25464606285095215 1 13 27
0.217778995633125305 -0.25699499249458313 2.25391697883605957 5 19 35
0.217912003397941589 -0.255475997924804688 2.25529003143310547 7 23 38
0.217484995722770691 -0.253302991390228271 2.25086808204650879 10 26 42
0.218035995960235596 -0.252268999814987183 2.25657391548156738 9 24 42
0.218260005116462708 -0.250849992036819458 2.25889110565185547 8 21 38
0.217573001980781555 -0.248389005661010742 2.25178694725036621 5 18 35
0.217011004686355591 -0.246077999472618103 2.24596500396728516 6 18 34
0.216833993792533875 -0.244211003184318542 2.24413490295410156 7 19 35
0.216863006353378296 -0.242576003074645996 2.24443411827087402 7 21 34
0.216252997517585754 -0.240232005715370178 2.23812389373779297 5 21 34
0.219058007001876831 -0.239979997277259827 2.26715302467346191 5 19 30
0.215689003467559814 -0.234631001949310303 2.23228597640991211 4 17 26
0.215176999568939209 -0.232419997453689575 2.22698497772216797 3 16 25
0.215157002210617065 -0.230744004249572754 2.2267758846282959 4 14 23
0.214645996689796448 -0.228545993566513062 2.22148799896240234 4 14 22
0.215040996670722961 -0.227313995361328125 2.22557997703552246 2 10 18
0.214598998427391052 -0.225196003913879395 2.22099900245666504 1 8 16
0.213923007249832153 -0.222843006253242493 2.21400690078735352 0 7 15
0.213486999273300171 -0.220748007297515869 2.20949602127075195 0 6 14
0.214502006769180298 -0.220147997140884399 2.21999502182006836 0 5 13
0.213137000799179077 -0.217108994722366333 2.20587801933288574 0 4 12
0.214719995856285095 -0.217070996761322021 2.2222599983215332 0 3 11
0.213967993855476379 -0.214665994048118591 2.2144770622253418 0 3 11
0.215482994914054871 -0.214528992772102356 2.23015308380126953 0 5 11
0.21488499641418457 -0.212281003594398499 2.22395801544189453 0 6 12
0.214578002691268921 -0.210328996181488037 2.22078490257263184 0 6 12
0.214656993746757507 -0.208755999803543091 2.22160100936889648 0 6 12
0.21498599648475647 -0.207423999905586243 2.22500991821289062 0 6 12
0.21504800021648407 -0.205829992890357971 2.22565197944641113 0 6 12
0.21341000497341156 -0.202621996402740479 2.20869898796081543 0 6 12
0.212855994701385498 -0.200460001826286316 2.20296788215637207 1 6 12
0.21291099488735199 -0.198874995112419128 2.20353794097900391 0 5 10
0.21245400607585907 -0.196814998984336853 2.1988070011138916 0 4 8
0.211919993162155151 -0.194691002368927002 2.19327902793884277 0 4 8
0.212335005402565002 -0.19344000518321991 2.19757199287414551 0 3 8
0.210787996649742126 -0.190410003066062927 2.1815640926361084 0 3 8
0.21044999361038208 -0.188486993312835693 2.17806410789489746 0 3 8
0.210126996040344238 -0.186581999063491821 2.17471694946289062 0 3 8
0.212439998984336853 -0.183736994862556458 2.1986548900604248 0 5 8
0.212345004081726074 -0.182022005319595337 2.19767093658447266 0 5 8
0.212153002619743347 -0.180226996541023254 2.19568896293640137 0 5 8
0.21080799400806427 -0.177463993430137634 2.18177103996276855 1 5 8
0.209796994924545288 -0.174999997019767761 2.17130589485168457 1 5 8
0.211896002292633057 -0.175121992826461792 2.19303297996520996 0 5 8
0.212158992886543274 -0.172077998518943787 2.1957550048828125 0 4 8
0.209241002798080444 -0.163276001811027527 2.16554903984069824 6 12 21
0.21466200053691864 -0.165857002139091492 2.22165989875793457 24 36 46
0.215157002210617065 -0.164584994316101074 2.2267758846282959 41 61 69
0.213816002011299133 -0.156984999775886536 2.21289992332458496 23 50 63
0.212598994374275208 -0.154456004500389099 2.20029997825622559 21 46 59
0.210745006799697876 -0.151490002870559692 2.18111801147460938 18 42 56
0.211465999484062195 -0.150381997227668762 2.18857598304748535 17 39 53
0.209577992558479309 -0.147429004311561584 2.16903805732727051 16 37 52
0.207000002264976501 -0.144023999571800232 2.14235711097717285 17 36 51
0.206957995891571045 -0.14240400493144989 2.1419219970703125 16 35 50
0.206883996725082397 -0.140762001276016235 2.1411590576171875 16 33 49
0.205814003944396973 -0.138451993465423584 2.1300809383392334 16 33 49
0.204983994364738464 -0.136317998170852661 2.12149810791015625 16 33 49
0.205960005521774292 -0.13538399338722229 2.13159799575805664 16 33 49
0.206506997346878052 -0.134156003594398499 2.13725900650024414 16 33 49
0.208219006657600403 -0.133667007088661194 2.1549680233001709 16 33 49
0.210133999586105347 -0.133281007409095764 2.17478799819946289 16 33 49
0.211569994688034058 -0.132566004991531372 2.18965411186218262 16 33 49
0.212647005915641785 -0.131605997681617737 2.20080304145812988 18 35 51
0.208591997623443604 -0.122681997716426849 2.15883588790893555 18 35 51
0.206883996725082397 -0.120086997747421265 2.1411590576171875 18 35 50
0.206265002489089966 -0.118142999708652496 2.13475298881530762 18 36 50
0.207846000790596008 -0.11744999885559082 2.15111398696899414 18 36 50
0.207009002566337585 -0.113794997334480286 2.14245200157165527 19 37 50
0.206379994750022888 -0.111861996352672577 2.13594508171081543 19 37 49
0.206648007035255432 -0.110418997704982758 2.1387169361114502 19 37 49
0.206527993083000183 -0.108767002820968628 2.13747096061706543 19 37 49
0.206161007285118103 -0.106989003717899323 2.13367199897766113 19 37 49
0.206309005618095398 -0.105480000376701355 2.13520407676696777 19 37 49
0.206564992666244507 -0.104023002088069916 2.13785099983215332 18 36 48
0.206440001726150513 -0.102372996509075165 2.13656401634216309 15 33 45
0.206743001937866211 -0.100933998823165894 2.13969802856445312 15 33 45
0.206068992614746094 -0.0990199968218803406 2.13271808624267578 14 32 44
0.206103995442390442 -0.097452998161315918 2.13308191299438477 13 31 43
0.206060007214546204 -0.0958480015397071838 2.13262701034545898 13 30 43
0.205072999000549316 -0.0938130021095275879 2.12241697311401367 13 30 42
0.205715000629425049 -0.092524997889995575 2.12905406951904297 13 29 42
0.205464005470275879 -0.0908330008387565613 2.1264650821685791 15 29 42
0.205650001764297485 -0.0893340036273002625 2.12838888168334961 15 27 41
0.205890998244285583 -0.087856002151966095 2.13087797164916992 9 21 35
0.204953998327255249 -0.0858799964189529419 2.12118196487426758 4 13 28
0.205375000834465027 -0.0844779983162879944 2.12554311752319336 0 6 22
0.205212995409965515 -0.082833997905254364 2.12385702133178711 0 3 19
0.205891996622085571 -0.0815249979496002197 2.13088798522949219 0 3 18
0.20583699643611908 -0.0799209997057914734 2.13031601905822754 1 4 18
0.20613899827003479 -0.0784540027379989624 2.13345003128051758 0 5 16
0.205640003085136414 -0.0766829997301101685 2.12827801704406738 0 6 14
0.205431997776031494 -0.075025998055934906 2.1261289119720459 0 5 11
0.20555800199508667 -0.073491998016834259 2.12742996215820312 0 5 11
0.205739006400108337 -0.0719750002026557922 2.12930607795715332 0 5 11
0.205524995923042297 -0.0703200027346611023 2.1270899772644043 0 4 11
0.20656999945640564 -0.0690900012850761414 2.13790702819824219 0 4 11
0.207395002245903015 -0.0677710026502609253 2.14644098281860352 0 3 12
0.205425992608070374 -0.0655490010976791382 2.12606501579284668 0 2 12
0.204374000430107117 -0.0636420026421546936 2.11518001556396484 0 1 13
0.20491500198841095 -0.0622350014746189117 2.1207740306854248 0 1 13
0.203753992915153503 -0.0603160001337528229 2.10876202583312988 0 1 12
0.203318998217582703 -0.058625001460313797 2.10425806045532227 0 1 10
0.202769994735717773 -0.056908000260591507 2.09857392311096191 1 1 9
0.204051002860069275 -0.0525609999895095825 2.11183810234069824 0 3 6
0.199072003364562988 -0.0482180006802082062 2.06030988693237305 1 6 9
0.19895799458026886 -0.0466610006988048553 2.05912494659423828 1 6 9
0.199279993772506714 -0.0452050007879734039 2.06246089935302734 1 6 9
0.199790000915527344 -0.04378499835729599 2.06773805618286133 0 5 9
0.199995994567871094 -0.0422919988632202148 2.06987190246582031 0 5 9
0.199800997972488403 -0.0407150015234947205 2.06785106658935547 0 4 11
0.199622005224227905 -0.0391439981758594513 2.06599688529968262 0 4 11
0.19969099760055542 -0.0376220010221004486 2.06670808792114258 0 3 12
0.199769005179405212 -0.0361020006239414215 2.06752204895019531 0 3 14
0.199580997228622437 -0.0345330014824867249 2.06557202339172363 0 2 15
0.199939996004104614 -0.0330579988658428192 2.06929206848144531 0 2 17
0.199092000722885132 -0.0313879996538162231 2.06051111221313477 0 3 18
0.198103994131088257 -0.0297090001404285431 2.05028390884399414 0 3 18
0.197935000061988831 -0.0281620007008314133 2.0485389232635498 1 5 16
0.198704004287719727 -0.0267440006136894226 2.05649900436401367 0 4 15
0.199086993932723999 -0.0252650007605552673 2.06046009063720703 0 4 12
0.199112996459007263 -0.0237380005419254303 2.06072998046875 0 5 11
0.198647007346153259 -0.0221549998968839645 2.05590391159057617 0 5 11
0.195438995957374573 -0.0187919996678829193 2.02270293235778809 1 4 11
0.193785995244979858 -0.00820599962025880814 2.00559902191162109 0 3 10
0.193540006875991821 -0.00670700008049607277 2.00305509567260742 0 3 10
0.193253993988037109 -0.000754999986384063959 2.00009489059448242 0 3 7
0.193685993552207947 0.0245549995452165604 2.00456809997558594 0 2 9
0.194547995924949646 0.026159999892115593 2.01348590850830078 0 2 9
0.198504000902175903 0.031270001083612442 2.05443096160888672 0 2 9
0.200981006026268005 0.0332049988210201263 2.08006596565246582 0 2 9
0.203514993190765381 0.0351880006492137909 2.10629105567932129 0 2 9
0.20343799889087677 0.0367380008101463318 2.10548901557922363 0 2 9
0.193389996886253357 0.0408710017800331116 2.00149989128112793 0 2 9
0.198159992694854736 0.0616820007562637329 2.05086708068847656 1 2 7
0.206025004386901855 0.0942220017313957214 2.13226509094238281 0 0 0
0.195879995822906494 0.0910879969596862793 2.02727103233337402 0 0 0
0.206461995840072632 0.105531997978687286 2.13678503036499023 0 2 0
0.222310006618499756 -0.284083008766174316 2.28326106071472168 4 17 17
0.221079006791114807 -0.279136002063751221 2.27061104774475098 0 11 13
0.220796003937721252 -0.275411009788513184 2.26770591735839844 0 7 13
0.220841005444526672 -0.273781001567840576 2.26816391944885254 0 7 16
0.219371005892753601 -0.270285993814468384 2.25307106971740723 0 7 19
0.218021005392074585 -0.265296995639801025 2.23921108245849609 1 7 19
0.220440000295639038 -0.264876008033752441 2.26404809951782227 1 9 19
0.22048400342464447 -0.26324799656867981 2.26450395584106445 0 9 19
0.22048400342464447 -0.261566013097763062 2.26450395584106445 0 9 21
0.22005799412727356 -0.259380996227264404 2.26012802124023438 0 10 23
0.220065996050834656 -0.25771099328994751 2.26020503044128418 1 15 29
0.220295995473861694 -0.256300985813140869 2.26257491111755371 5 21 36
0.219421997666358948 -0.253609985113143921 2.25359511375427246 11 27 43
0.220324993133544922 -0.252972990274429321 2.26287293434143066 12 28 44
0.220691993832588196 -0.251711010932922363 2.26663804054260254 10 25 40
0.220419004559516907 -0.249716997146606445 2.26383090019226074 8 21 37
0.218899995088577271 -0.246326997876167297 2.24823594093322754 7 21 35
0.21834699809551239 -0.244038999080657959 2.24255108833312988 8 22 35
0.219899997115135193 -0.244096994400024414 2.25850200653076172 8 22 35
0.219708994030952454 -0.242209002375602722 2.25653910636901855 8 22 35
0.221665993332862854 -0.242676004767417908 2.27664804458618164 7 21 34
0.221083000302314758 -0.240351006388664246 2.2706599235534668 6 20 31
0.21976199746131897 -0.237238004803657532 2.25708794593811035 5 18 29
0.216169998049736023 -0.230063006281852722 2.2201991081237793 4 16 24
0.216729998588562012 -0.229004994034767151 2.22595095634460449 5 15 24
0.216264992952346802 -0.226862996816635132 2.22116899490356445 3 12 19
0.21513800323009491 -0.224040001630783081 2.20959591865539551 2 10 17
0.215094000101089478 -0.222352996468544006 2.20913910865783691 1 9 16
0.21627199649810791 -0.221921995282173157 2.22124600410461426 0 7 15
0.21500299870967865 -0.218979001045227051 2.20820498466491699 0 6 14
0.217327997088432312 -0.21968899667263031 2.23208808898925781 0 5 13
0.215079993009567261 -0.215775996446609497 2.2090001106262207 0 4 12
0.216710001230239868 -0.215757995843887329 2.22574591636657715 0 4 11
0.21785399317741394 -0.215234994888305664 2.2374880313873291 0 5 11
0.216462001204490662 -0.212208002805709839 2.2231910228729248 0 6 12
0.215985998511314392 -0.21009400486946106 2.21830606460571289 0 6 12
0.216324001550674438 -0.208772003650665283 2.22177290916442871 0 6 12
0.218473002314567566 -0.209179997444152832 2.24385309219360352 0 6 12
0.21655699610710144 -0.205694004893302917 2.22417497634887695 0 6 12
0.215188995003700256 -0.202751994132995605 2.21011805534362793 0 6 12
0.21479499340057373 -0.200743004679679871 2.20607399940490723 1 6 12
0.214506000280380249 -0.198835998773574829 2.20310497283935547 0 5 10
0.214229002594947815 -0.19694499671459198 2.20026206970214844 0 5 9
0.213595002889633179 -0.194732993841171265 2.19374799728393555 0 5 9
0.212665006518363953 -0.192263007164001465 2.18420100212097168 0 4 8
0.211824998259544373 -0.189887002110481262 2.17557001113891602 0 3 8
0.211544007062911987 -0.188022002577781677 2.17268490791320801 0 3 8
0.211557000875473022 -0.186418995261192322 2.17281603813171387 1 4 9
0.212365001440048218 -0.185510993003845215 2.18111801147460938 1 4 9
0.212514996528625488 -0.18402099609375 2.18265295028686523 0 5 9
0.213309004902839661 -0.183081001043319702 2.19081497192382812 0 6 8
0.213749006390571594 -0.181828007102012634 2.19533300399780273 0 5 8
0.21366100013256073 -0.180123001337051392 2.1944270133972168 1 5 8
0.213295996189117432 -0.17818799614906311 2.19067597389221191 1 5 8
0.21304599940776825 -0.176354005932807922 2.1881101131439209 1 5 8
0.212870001792907715 -0.174584999680519104 2.18630290031433105 0 5 8
0.210751995444297791 -0.171240001916885376 2.16454911231994629 0 5 8
0.21325799822807312 -0.171648994088172913 2.19028401374816895 0 4 8
0.213929995894432068 -0.170558005571365356 2.19719409942626953 0 4 8
0.213976994156837463 -0.168963000178337097 2.19767093658447266 0 3 9
0.215076997876167297 -0.164909005165100098 2.20896697044372559 25 38 48
0.214304998517036438 -0.15614299476146698 2.20104098320007324 25 51 64
0.213120996952056885 -0.153654992580413818 2.18887710571289062 23 47 60
0.212148994207382202 -0.151335999369621277 2.17889809608459473 20 43 57
0.212509006261825562 -0.149970993399620056 2.18259096145629883 18 40 54
0.211646005511283875 -0.147747993469238281 2.17373204231262207 18 38 53
0.209944993257522583 -0.144958004355430603 2.15625596046447754 18 37 52
0.209214001893997192 -0.142857998609542847 2.14875006675720215 17 35 51
0.207956001162528992 -0.140413001179695129 2.13583588600158691 16 33 49
0.209887996315956116 -0.135312005877494812 2.1556699275970459 16 33 49
0.209355995059013367 -0.133371993899345398 2.15020990371704102 16 33 49
0.210167005658149719 -0.132284998893737793 2.1585381031036377 16 33 49
0.210952997207641602 -0.131171002984046936 2.16661310195922852 16 33 49
0.213640004396438599 -0.131211996078491211 2.19420599937438965 18 35 51
0.209404006600379944 -0.123818002641201019 2.15070891380310059 18 35 51
0.209717005491256714 -0.12240300327539444 2.1539158821105957 18 35 51
0.20885699987411499 -0.117121003568172455 2.14508700370788574 18 36 50
0.209444001317024231 -0.115851998329162598 2.15111398696899414 19 37 51
0.209717005491256714 -0.114403001964092255 2.1539158821105957 19 37 50
0.209297999739646912 -0.112577997148036957 2.14961504936218262 19 37 49
0.208884000778198242 -0.11076200008392334 2.14535999298095703 19 37 49
0.208057001233100891 -0.107148997485637665 2.1368710994720459 19 37 49
0.208379000425338745 -0.102545998990535736 2.14017891883850098 15 33 45
0.208030000329017639 -0.0992010012269020081 2.13659501075744629 14 32 44
0.207910001277923584 -0.0975570008158683777 2.13536310195922852 13 31 43
0.207893997430801392 -0.0959630012512207031 2.13519096374511719 13 30 42
0.206774994730949402 -0.0938699990510940552 2.12370395660400391 14 29 42
0.207359999418258667 -0.0925529971718788147 2.12971401214599609 14 29 41
0.206489995121955872 -0.0905900001525878906 2.1207740306854248 15 29 42
0.207421004772186279 -0.0894159972667694092 2.13033390045166016 15 27 41
0.207688003778457642 -0.0879470035433769226 2.13308191299438477 5 16 30
0.206907004117965698 -0.0860370025038719177 2.12505602836608887 0 6 22
0.207322001457214355 -0.0846280008554458618 2.1293179988861084 0 3 19
0.207479998469352722 -0.0831099972128868103 2.13093996047973633 0 4 20
0.207803994417190552 -0.0816550031304359436 2.13427090644836426 0 5 21
0.20770399272441864 -0.0800310000777244568 2.13324499130249023 1 4 19
0.207938000559806824 -0.0785349979996681213 2.1356511116027832 0 5 16
0.207360997796058655 -0.0767349973320960999 2.12971901893615723 0 6 14
0.207518994808197021 -0.0752099975943565369 2.13134193420410156 0 5 11
0.207367002964019775 -0.0735730007290840149 2.12978601455688477 0 5 11
0.207284003496170044 -0.0719619989395141602 2.12892794609069824 0 5 11
0.206955999135971069 -0.0702700018882751465 2.12555789947509766 0 5 11
0.2085610032081604 -0.0692239999771118164 2.14204597473144531 0 4 11
0.208021000027656555 -0.0674569979310035706 2.13649606704711914 0 3 12
0.208450004458427429 -0.066005997359752655 2.14090490341186523 0 2 12
0.205896005034446716 -0.0620560012757778168 2.11467289924621582 0 1 13
0.206963002681732178 -0.0607989989221096039 2.12563490867614746 0 1 12
0.205134004354476929 -0.0586970001459121704 2.10684394836425781 0 1 12
0.204194992780685425 -0.056869998574256897 2.09720206260681152 1 1 10
0.204531997442245483 -0.0522830002009868622 2.10066795349121094 0 3 6
0.203160002827644348 -0.0503830015659332275 2.08657598495483398 0 6 10
0.201747000217437744 -0.0484930016100406647 2.07206392288208008 0 6 9
0.201211005449295044 -0.0468299984931945801 2.06655788421630859 1 6 9
0.202895000576972961 -0.0441260002553462982 2.08384990692138672 1 6 10
0.202630996704101562 -0.0425230003893375397 2.0811460018157959 0 5 10
0.201215997338294983 -0.0406909994781017303 2.06660890579223633 0 5 11
0.201719999313354492 -0.0392539985477924347 2.07178401947021484 0 4 12
0.202401995658874512 -0.0378420017659664154 2.07879209518432617 0 2 13
0.20331999659538269 -0.0364629998803138733 2.08821892738342285 0 2 14
0.202800005674362183 -0.034823000431060791 2.08287596702575684 0 2 16
0.203878998756408691 -0.0334520004689693451 2.09396004676818848 0 2 17
0.202212005853652954 -0.0316359996795654297 2.07683396339416504 0 3 18
0.199118003249168396 -0.0281140003353357315 2.04505610466003418 0 4 17
0.19939500093460083 -0.0266319997608661652 2.04790401458740234 0 4 15
0.197318002581596375 -0.0203339997678995132 2.02657604217529297 0 3 10
0.196625992655754089 -0.0187619999051094055 2.01947188377380371 0 3 10
0.195028007030487061 -0.0171220004558563232 2.00305509567260742 0 3 10
0.195663005113601685 -0.0141930002719163895 2.00957608222961426 0 3 10
0.195741996169090271 -0.0127050001174211502 2.01038789749145508 0 3 10
0.195188000798225403 0.0260460004210472107 2.00469493865966797 0 2 9
0.196680992841720581 0.0277449991554021835 2.0200340747833252 0 2 9
0.198496997356414795 0.0295160003006458282 2.03868293762207031 0 2 9
0.199407994747161865 0.0311719998717308044 2.04804110527038574 0 2 9
0.201211005449295044 0.0329889990389347076 2.06655788421630859 0 2 9
0.203335002064704895 0.0348890013992786407 2.08837199211120605 0 2 9
0.201239004731178284 0.0375990010797977448 2.06684207916259766 0 2 9
0.195476993918418884 0.0409969985485076904 2.00766801834106445 0 2 9
0.205294996500015259 0.0916059985756874084 2.1085059642791748 0 1 1
0.205691993236541748 0.093351997435092926 2.1125791072845459 0 0 0
0.209257006645202637 0.107740998268127441 2.14919304847717285 0 2 0
0.208994999527931213 0.109200000762939453 2.14650797843933105 0 2 1
0.209668993949890137 0.111152000725269318 2.15342497825622559 0 2 1
0.205510005354881287 0.115217998623847961 2.11070990562438965 0 2 3
0.218623995780944824 -0.283879011869430542 2.22840404510498047 20 30 33
0.223917007446289062 -0.283969998359680176 2.28235197067260742 6 13 17
0.223554998636245728 -0.281818985939025879 2.27866005897521973 2 11 16
0.223070994019508362 -0.277830004692077637 2.27372407913208008 4 13 22
0.222819000482559204 -0.27582898736000061 2.27115511894226074 2 10 21
0.221950992941856384 -0.273075014352798462 2.2623140811920166 0 5 16
0.223278999328613281 -0.273018002510070801 2.27584600448608398 0 8 18
0.222975999116897583 -0.267583012580871582 2.27275609970092773 1 9 22
0.222679004073143005 -0.265542000532150269 2.26973605155944824 0 7 22
0.222395002841949463 -0.263518005609512329 2.26683211326599121 0 8 22
0.222286000847816467 -0.261705994606018066 2.26572299003601074 1 10 24
0.222714006900787354 -0.260524988174438477 2.27009296417236328 3 15 28
0.221845999360084534 -0.257829993963241577 2.26124310493469238 5 19 32
0.22209399938583374 -0.256437003612518311 2.26377391815185547 7 23 35
0.222697004675865173 -0.253760993480682373 2.26991701126098633 10 27 39
0.223427996039390564 -0.252902001142501831 2.27736592292785645 8 26 37
0.223005995154380798 -0.250735998153686523 2.27306294441223145 7 23 33
0.220983996987342834 -0.24678899347782135 2.25245189666748047 5 21 30
0.221555992960929871 -0.245750993490219116 2.25828289985656738 4 20 31
0.222979992628097534 -0.245642006397247314 2.27279806137084961 7 20 35
0.222545996308326721 -0.24347899854183197 2.2683720588684082 8 20 36
0.222940996289253235 -0.242222994565963745 2.27240204811096191 7 20 35
0.222788006067276001 -0.240371003746986389 2.27084493637084961 6 19 32
0.222783997654914856 -0.238680005073547363 2.27080392837524414 4 18 29
0.221924006938934326 -0.236077994108200073 2.26203203201293945 3 17 27
0.218650996685028076 -0.23094099760055542 2.22867989540100098 2 16 25
0.217601001262664795 -0.228184998035430908 2.21797704696655273 3 16 24
0.217719003558158875 -0.226658999919891357 2.21917104721069336 2 13 20
0.217169001698493958 -0.224443003535270691 2.21357202529907227 1 12 18
0.218034997582435608 -0.22368699312210083 2.22239589691162109 1 11 17
0.217914998531341553 -0.221913993358612061 2.22116899490356445 1 9 16
0.218834996223449707 -0.221193999052047729 2.23054599761962891 0 8 14
0.220055997371673584 -0.220761999487876892 2.24299311637878418 0 7 13
0.219323992729187012 -0.218367993831634521 2.23553895950317383 0 6 13
0.218134000897407532 -0.215532004833221436 2.22340798377990723 0 6 11
0.219938993453979492 -0.215650007128715515 2.24180197715759277 0 6 12
0.21903499960899353 -0.213104993104934692 2.23258805274963379 0 6 11
0.218299001455307007 -0.21073700487613678 2.22509002685546875 0 6 10
0.21913599967956543 -0.209885001182556152 2.23361992835998535 0 6 10
0.219310998916625977 -0.208392992615699768 2.23540306091308594 0 6 10
