ply
format ascii 1.0
element vertex 656
property float x
property float y
property float z
property uchar red
property uchar green
property uchar blue
end_header
0.0825000032782554626 0.0910660028457641602 2.13253307342529297 10 36 50
0.0824500024318695068 0.0925939977169036865 2.1312410831451416 11 37 52
0.0820629969239234924 0.0937350019812583923 2.12124109268188477 11 38 53
0.0824349969625473022 0.0957420021295547485 2.13084506988525391 12 39 54
0.0825020000338554382 0.0974040031433105469 2.13258099555969238 13 40 54
0.0824280008673667908 0.0988989993929862976 2.13067388534545898 14 41 55
0.0822009965777397156 0.100204996764659882 2.12479901313781738 15 40 57
0.0821349993348121643 0.101700998842716217 2.12308597564697266 13 36 55
0.0821340009570121765 0.103275999426841736 2.12305188179016113 12 35 54
0.0821959972381591797 0.104933001101016998 2.12467002868652344 10 33 52
0.0819239988923072815 0.106159001588821411 2.11764788627624512 6 29 47
0.0819090008735656738 0.107712000608444214 2.11725401878356934 4 27 44
0.0820840001106262207 0.109517998993396759 2.12177896499633789 4 27 44
0.0817890018224716187 0.110693998634815216 2.11413407325744629 8 31 48
0.08184099942445755 0.112336002290248871 2.11548399925231934 12 35 51
0.0815180018544197083 0.113458998501300812 2.10715198516845703 10 33 48
0.0814149975776672363 0.114877998828887939 2.10448408126831055 12 35 50
0.0816090032458305359 0.116718001663684845 2.10948491096496582 14 37 51
0.0814229995012283325 0.118015997111797333 2.10468196868896484 13 36 50
0.08149699866771698 0.119687996804714203 2.10659289360046387 11 34 48
0.0816610008478164673 0.121496997773647308 2.11085009574890137 10 34 47
0.0816449970006942749 0.123040996491909027 2.1104280948638916 11 35 48
0.0815830007195472717 0.124513000249862671 2.10882306098937988 11 37 50
0.0815830007195472717 0.126078993082046509 2.1088109016418457 9 37 51
0.0815510004758834839 0.127596005797386169 2.10799193382263184 9 36 53
0.0815349966287612915 0.129135996103286743 2.10757899284362793 9 36 53
0.0813720002770423889 0.130440995097160339 2.10337305068969727 8 35 52
0.0812000036239624023 0.131724998354911804 2.09893393516540527 8 34 49
0.0809189975261688232 0.132822006940841675 2.0916600227355957 8 34 49
0.0810419991612434387 0.134579002857208252 2.09483003616333008 10 33 49
0.0810479968786239624 0.13614499568939209 2.09498500823974609 10 33 49
0.0809369981288909912 0.137511998414993286 2.09211206436157227 10 32 49
0.0808119997382164001 0.138852998614311218 2.08890199661254883 10 32 49
0.0801900029182434082 0.139322996139526367 2.07280802726745605 10 32 46
0.0797090008854866028 0.140017002820968628 2.06036901473999023 10 32 46
0.0794529989361763 0.141093000769615173 2.0537559986114502 9 31 45
0.0793650001287460327 0.142461001873016357 2.05148100852966309 8 30 44
0.0793180018663406372 0.143900007009506226 2.05028390884399414 8 30 44
0.078809000551700592 0.144489005208015442 2.03711104393005371 7 28 43
0.0787149965763092041 0.145827993750572205 2.03467798233032227 9 27 43
0.0786439999938011169 0.14720599353313446 2.03284406661987305 9 27 43
0.0785690024495124817 0.148573994636535645 2.03090405464172363 9 26 42
0.0786319971084594727 0.150204002857208252 2.03254389762878418 9 26 42
0.0788289979100227356 0.152092993259429932 2.03763198852539062 8 25 41
0.0787839964032173157 0.153520002961158752 2.03647589683532715 7 24 40
0.0788699984550476074 0.155202001333236694 2.03870201110839844 7 24 39
0.078693002462387085 0.156363993883132935 2.03412795066833496 6 24 38
0.078675001859664917 0.157839000225067139 2.03365898132324219 5 23 37
0.0791319981217384338 0.160273998975753784 2.04545688629150391 5 23 37
0.0789550021290779114 0.161431998014450073 2.04089188575744629 4 22 35
0.0786340013146400452 0.162285000085830688 2.03258895874023438 3 21 33
0.0786309987306594849 0.16378900408744812 2.03252291679382324 3 21 33
0.0785820037126541138 0.165195003151893616 2.03124189376831055 2 20 32
0.0785820037126541138 0.166703999042510986 2.03124189376831055 1 19 31
0.0788879990577697754 0.168868005275726318 2.03915309906005859 1 19 31
0.0791160017251968384 0.170874997973442078 2.04505610466003418 0 18 32
0.0790449976921081543 0.172239005565643311 2.04321694374084473 0 17 33
0.0787149965763092041 0.173031002283096313 2.03467798233032227 0 17 33
0.0789500027894973755 0.175064995884895325 2.04077005386352539 0 17 33
0.0789010003209114075 0.176469996571540833 2.03949189186096191 0 18 33
0.078786998987197876 0.177728995680809021 2.03655695915222168 0 18 32
0.078759998083114624 0.179178997874259949 2.03584790229797363 0 18 32
0.0787390023469924927 0.180643007159233093 2.03530406951904297 0 18 32
0.0789930000901222229 0.182743996381759644 2.0418860912322998 1 18 32
0.0788479968905448914 0.183920994400978088 2.03812599182128906 1 17 32
0.0785470008850097656 0.184726998209953308 2.03033995628356934 1 17 31
0.078210003674030304 0.185434997081756592 2.0216219425201416 1 17 30
0.0778530016541481018 0.186084002256393433 2.01239800453186035 0 16 29
0.0778980031609535217 0.187686994671821594 2.01356101036071777 0 15 28
0.0782509967684745789 0.190041005611419678 2.02270293235778809 0 15 28
0.0785520002245903015 0.192278996109962463 2.03046298027038574 0 15 27
0.078947998583316803 0.194765999913215637 2.04071903228759766 0 16 25
0.0793270021677017212 0.197221994400024414 2.05049395561218262 1 18 24
0.0789820030331611633 0.197880998253822327 2.04158496856689453 0 17 24
0.078666001558303833 0.19859999418258667 2.03341507911682129 0 17 24
0.0786309987306594849 0.200022995471954346 2.03252911567687988 0 16 24
0.0783910006284713745 0.20091499388217926 2.02629995346069336 0 14 23
0.0783739984035491943 0.202377006411552429 2.02586698532104492 0 13 22
0.0782729983329772949 0.203620001673698425 2.0232698917388916 0 12 21
0.0786610022187232971 0.206139996647834778 2.03330302238464355 1 11 19
0.0785460025072097778 0.207343995571136475 2.03030705451965332 0 11 17
0.0781380012631416321 0.207767993211746216 2.01976990699768066 0 10 16
0.0784209966659545898 0.210027992725372314 2.0270988941192627 0 9 14
0.0781380012631416321 0.210768997669219971 2.01976990699768066 0 8 13
0.0783170014619827271 0.212755993008613586 2.02440500259399414 0 7 13
0.0784600004553794861 0.214650005102157593 2.0280919075012207 0 7 13
0.078039996325969696 0.215000003576278687 2.01723790168762207 0 7 14
0.0782959982752799988 0.217209994792938232 2.02386808395385742 0 5 11
0.0785249993205070496 0.219350993633270264 2.02977299690246582 0 2 5
0.0826790034770965576 0.243653997778892517 2.13714504241943359 0 1 4
0.0940689966082572937 -0.383670002222061157 2.3857719898223877 149 152 161
0.0938299968838691711 -0.380926012992858887 2.37970399856567383 109 113 124
0.0933749973773956299 -0.377319008111953735 2.36815810203552246 83 91 102
0.0926669985055923462 -0.372714012861251831 2.35021209716796875 70 84 95
0.0917569994926452637 -0.367325007915496826 2.32712697982788086 55 73 83
0.0926159992814064026 -0.369020998477935791 2.34892511367797852 41 61 72
0.0920810028910636902 -0.365153014659881592 2.33535003662109375 39 60 73
0.0916540026664733887 -0.361732989549636841 2.32451891899108887 46 65 80
0.091142997145652771 -0.356283009052276611 2.31155991554260254 47 64 82
0.0910670012235641479 -0.354270011186599731 2.30962991714477539 51 68 86
0.091200999915599823 -0.353071987628936768 2.31302499771118164 55 72 90
0.0907600000500679016 -0.349655002355575562 2.30183792114257812 56 73 91
0.0907870009541511536 -0.348048001527786255 2.30251598358154297 50 67 85
0.0906220003962516785 -0.345708012580871582 2.29833197593688965 44 61 79
0.090489998459815979 -0.343502998352050781 2.29500198364257812 41 60 77
0.0904240012168884277 -0.341547012329101562 2.2933189868927002 39 60 77
0.090588003396987915 -0.340460985898971558 2.29748392105102539 38 59 76
0.0908219963312149048 -0.339628010988235474 2.3034050464630127 38 59 76
0.0909340009093284607 -0.338335990905761719 2.30626106262207031 37 58 75
0.0906170010566711426 -0.335449010133743286 2.29822206497192383 36 57 74
0.0905279964208602905 -0.333413988351821899 2.29596495628356934 36 56 73
0.0905729979276657104 -0.331871986389160156 2.29709601402282715 37 55 72
0.0904629975557327271 -0.329764991998672485 2.29430699348449707 35 52 68
0.0906789973378181458 -0.328844010829925537 2.29977798461914062 25 42 57
0.0905779972672462463 -0.326772004365921021 2.29722094535827637 16 32 48
0.090405002236366272 -0.324443995952606201 2.2928309440612793 21 37 53
0.0904700011014938354 -0.322973012924194336 2.29448103904724121 28 43 60
0.0902919992804527283 -0.32063901424407959 2.28997898101806641 25 40 59
0.0906589999794960022 -0.320235013961791992 2.29929208755493164 22 38 56
0.0903080031275749207 -0.317292004823684692 2.2903749942779541 21 37 54
0.0902580022811889648 -0.315414994955062866 2.28909897804260254 19 35 51
0.0901440009474754333 -0.313320010900497437 2.28622007369995117 18 35 51
0.0903970003128051758 -0.312496989965438843 2.29263901710510254 17 35 49
0.0899989977478981018 -0.309426009654998779 2.28255200386047363 11 29 43
0.0899149999022483826 -0.307442992925643921 2.28041410446166992 13 31 45
0.0897089987993240356 -0.305047005414962769 2.27517890930175781 25 42 58
0.0898479968309402466 -0.303829014301300049 2.27871799468994141 31 48 64
0.090118996798992157 -0.303045988082885742 2.28557896614074707 32 49 66
0.0901539996266365051 -0.301467001438140869 2.28647589683532715 39 54 75
0.0902509987354278564 -0.300092011690139771 2.28894209861755371 29 40 67
0.0901959985494613647 -0.298209995031356812 2.28754901885986328 17 27 55
0.0905409976840019226 -0.297645002603530884 2.29629898071289062 4 15 37
0.0904780030250549316 -0.295731008052825928 2.29468393325805664 0 11 27
0.0897139981389045715 -0.291545987129211426 2.27532601356506348 1 14 24
0.0893900021910667419 -0.288809001445770264 2.26710796356201172 6 19 27
0.0895899981260299683 -0.287766009569168091 2.27216601371765137 6 21 26
0.0897279977798461914 -0.286518007516860962 2.27565908432006836 4 19 24
0.0898040011525154114 -0.28507000207901001 2.27759289741516113 5 20 27
0.0898799970746040344 -0.283618003129959106 2.27952408790588379 11 26 33
0.0898030027747154236 -0.281682997941970825 2.27756500244140625 10 23 31
0.0900299996137619019 -0.280701011419296265 2.28333592414855957 5 17 24
0.0900259986519813538 -0.278990000486373901 2.28321409225463867 6 17 22
0.08967600017786026 -0.276217997074127197 2.27435207366943359 15 24 26
0.0897440016269683838 -0.274735987186431885 2.27607297897338867 38 46 46
0.089582003653049469 -0.272551000118255615 2.27195501327514648 71 80 76
0.0892700031399726868 -0.269923001527786255 2.26406288146972656 109 119 112
0.0898120030760765076 -0.269867986440658569 2.27779293060302734 129 140 134
0.0898360013961791992 -0.268249988555908203 2.27841496467590332 135 143 147
0.0903209969401359558 -0.267996996641159058 2.29071998596191406 133 137 152
0.0885569974780082703 -0.259424000978469849 2.24596500396728516 125 132 158
0.0883470028638839722 -0.2571449875831604 2.24064111709594727 123 137 162
0.0883620008826255798 -0.255524009466171265 2.24102091789245605 117 137 161
0.0881439968943595886 -0.253232985734939575 2.23549294471740723 120 143 165
0.0880789980292320251 -0.251388013362884521 2.23385000228881836 111 134 152
0.088017001748085022 -0.24955199658870697 2.23227310180664062 103 121 133
0.0880530029535293579 -0.247996002435684204 2.23319101333618164 122 133 141
0.0878209993243217468 -0.24568900465965271 2.22731304168701172 126 131 133
0.08760099858045578 -0.243422999978065491 2.22172808647155762 90 91 88
0.0879350006580352783 -0.242695003747940063 2.23020100593566895 50 49 45
0.087315000593662262 -0.239338994026184082 2.2144770622253418 36 35 31
0.0879219993948936462 -0.23934599757194519 2.22987198829650879 46 47 44
0.0877809971570968628 -0.237306997179985046 2.22628092765808105 78 80 80
0.0877910032868385315 -0.235681995749473572 2.22655105590820312 117 121 123
0.0878340005874633789 -0.23414100706577301 2.22762298583984375 136 140 144
0.087560996413230896 -0.23176400363445282 2.22070097923278809 131 134 140
0.0878510028123855591 -0.230877995491027832 2.22806811332702637 128 131 139
0.0875189974904060364 -0.228356003761291504 2.21963906288146973 135 138 147
0.0875520035624504089 -0.226793006062507629 2.22048401832580566 139 142 151
0.0870319977402687073 -0.223805993795394897 2.20728302001953125 137 140 149
0.086966000497341156 -0.221999004483222961 2.20561790466308594 141 144 153
0.0872140005230903625 -0.220988005399703979 2.21190500259399414 145 148 156
0.0875089988112449646 -0.220087006688117981 2.21937990188598633 151 154 161
0.0870900005102157593 -0.217392995953559875 2.20875906944274902 156 159 166
0.0868699997663497925 -0.215207993984222412 2.20319104194641113 159 162 169
0.0869669988751411438 -0.213809996843338013 2.20564603805541992 160 163 170
0.0869150012731552124 -0.212044999003410339 2.20433211326599121 160 163 170
0.0869309976696968079 -0.210446998476982117 2.20473599433898926 159 162 169
0.0868690013885498047 -0.208660006523132324 2.20316600799560547 160 163 170
0.0870229974389076233 -0.207388997077941895 2.20705795288085938 160 163 170
0.0870200023055076599 -0.205744996666908264 2.20699810981750488 160 163 170
0.0866879969835281372 -0.203326001763343811 2.19856595993041992 161 164 171
0.0866080000996589661 -0.201507002115249634 2.19654393196105957 161 164 171
0.0867400020360946655 -0.200181007385253906 2.19989705085754395 162 165 172
0.0868119969964027405 -0.198709994554519653 2.20170903205871582 163 166 173
0.0868569985032081604 -0.197178006172180176 2.20286393165588379 163 166 173
0.0875300019979476929 -0.197055995464324951 2.21992611885070801 160 163 170
0.0874639973044395447 -0.195260003209114075 2.2182469367980957 160 163 170
0.0878000035881996155 -0.194355994462966919 2.2267758846282959 159 162 169
0.0880670025944709778 -0.19328799843788147 2.23354101181030273 159 162 169
0.0877149999141693115 -0.190863996744155884 2.22462701797485352 158 161 168
0.0872749984264373779 -0.188262000679969788 2.21345901489257812 157 160 167
0.0877280011773109436 -0.187585994601249695 2.224945068359375 157 160 167
0.0880509987473487854 -0.186618998646736145 2.23314404487609863 156 159 164
0.0878869965672492981 -0.184615999460220337 2.22898602485656738 154 158 161
0.0878679975867271423 -0.182919993996620178 2.22849392890930176 154 158 161
0.0879039987921714783 -0.181337997317314148 2.22940206527709961 154 158 161
0.0881839990615844727 -0.180254995822906494 2.2365109920501709 154 158 161
0.0880220010876655579 -0.178267002105712891 2.23241090774536133 154 158 161
0.0877500027418136597 -0.176063001155853271 2.22551488876342773 154 158 161
0.087829001247882843 -0.174566000699996948 2.22750306129455566 154 158 161
0.0877169966697692871 -0.172690004110336304 2.22465801239013672 154 158 161
0.0876450017094612122 -0.170898005366325378 2.22283601760864258 152 156 159
0.0877259969711303711 -0.169404000043869019 2.22490310668945312 152 156 159
0.0875089988112449646 -0.167335003614425659 2.21937990188598633 152 156 159
0.0874909982085227966 -0.165653005242347717 2.21893405914306641 152 156 159
0.0875359997153282166 -0.160791993141174316 2.22008204460144043 152 156 159
0.0874210000038146973 -0.158932998776435852 2.21714901924133301 152 156 157
0.0878750011324882507 -0.158104002475738525 2.22867989540100098 151 155 154
0.0877130031585693359 -0.156158998608589172 2.22455811500549316 150 154 153
0.0877370014786720276 -0.154549002647399902 2.22516393661499023 149 153 152
0.0875030010938644409 -0.152489006519317627 2.21924400329589844 148 152 151
0.0874229967594146729 -0.150701999664306641 2.21719789505004883 146 150 148
0.0880350023508071899 -0.150098994374275208 2.23272705078125 145 149 147
0.0878769978880882263 -0.14817500114440918 2.2287299633026123 144 149 145
0.0880189985036849976 -0.146755993366241455 2.23233294486999512 143 148 144
0.0874470025300979614 -0.144154995679855347 2.21781802177429199 141 146 142
0.0872849971055984497 -0.142243996262550354 2.21371293067932129 139 144 139
0.0868130028247833252 -0.139838993549346924 2.20173811912536621 136 141 135
0.0869200006127357483 -0.138374000787734985 2.20445108413696289 136 141 135
0.0861809998750686646 -0.135573998093605042 2.18571090698242188 136 141 135
0.0868489965796470642 -0.134988993406295776 2.20266008377075195 136 141 135
0.0876839980483055115 -0.134635001420974731 2.22383499145507812 133 138 132
0.0872239992022514343 -0.132284998893737793 2.21215009689331055 131 136 130
0.0875660032033920288 -0.131154000759124756 2.22083711624145508 127 132 128
0.0881349965929985046 -0.130346998572349548 2.23526906967163086 127 132 129
0.0880559980869293213 -0.128571003675460815 2.23327207565307617 128 133 130
0.0884450003504753113 -0.127472996711730957 2.24314093589782715 128 133 129
0.0880319997668266296 -0.125219002366065979 2.23264908790588379 125 131 127
0.0872619971632957458 -0.122479997575283051 2.2131190299987793 124 130 126
0.0868489965796470642 -0.120264001190662384 2.20264101028442383 123 128 124
0.0872529968619346619 -0.119180001318454742 2.21289992332458496 121 126 120
0.0869370028376579285 -0.117110997438430786 2.20489501953125 115 120 114
0.087117999792098999 -0.115713000297546387 2.20947098731994629 108 114 105
0.086737997829914093 -0.113573998212814331 2.19982600212097168 97 105 93
0.0867540016770362854 -0.111961998045444489 2.20025110244750977 93 101 88
0.0868360027670860291 -0.110431000590324402 2.20231389999389648 89 99 84
0.0870859995484352112 -0.109108999371528625 2.20866799354553223 76 89 70
0.0867990031838417053 -0.107114002108573914 2.20138406753540039 50 65 43
0.0862689986824989319 -0.104835003614425659 2.18795108795166016 26 39 22
0.0865370035171508789 -0.103531002998352051 2.19474411010742188 1 9 1
0.0860479995608329773 -0.0997029989957809448 2.18233609199523926 0 4 1
0.0868360027670860291 -0.0989800021052360535 2.20231389999389648 0 4 2
0.0874530002474784851 -0.0980369970202445984 2.21797704696655273 0 3 2
0.0876310020685195923 -0.0965849980711936951 2.22248196601867676 0 3 3
0.0872019976377487183 -0.094470001757144928 2.21160292625427246 0 3 3
0.0871900022029876709 -0.0928139984607696533 2.21129107475280762 0 2 3
0.0873980000615119934 -0.091389000415802002 2.21657609939575195 0 2 3
0.0876799970865249634 -0.0900330021977424622 2.2237389087677002 1 2 3
0.0884089991450309753 -0.0891150012612342834 2.24221706390380859 1 2 3
0.0888229981064796448 -0.0878589972853660583 2.25271201133728027 1 2 5
0.0886130034923553467 -0.085982002317905426 2.24738407135009766 1 2 5
0.0881849974393844604 -0.0839060023427009583 2.23653507232666016 1 2 5
0.0880319997668266296 -0.0821020007133483887 2.23264908790588379 0 2 5
0.0882079973816871643 -0.0756200030446052551 2.23712897300720215 0 1 3
0.0885780006647109985 -0.0742679983377456665 2.24649596214294434 0 1 3
0.089760996401309967 -0.0735689997673034668 2.2765040397644043 0 1 3
0.0895040035247802734 -0.0716729983687400818 2.26999902725219727 0 1 3
0.0887029990553855896 -0.069360002875328064 2.24968099594116211 0 1 3
0.08858499675989151 -0.0675989985466003418 2.24668598175048828 0 1 3
0.0885709971189498901 -0.0659189969301223755 2.24631190299987793 0 2 4
0.0881259962916374207 -0.0639289990067481995 2.23505091667175293 0 2 4
0.0897950008511543274 -0.0549900010228157043 2.27736592292785645 0 3 3
0.0901930034160614014 -0.0535349994897842407 2.28747200965881348 0 3 3
0.088772997260093689 -0.0493469983339309692 2.25144505500793457 0 2 4
0.0877230018377304077 -0.0388480015099048615 2.22482490539550781 0 5 1
0.0908870026469230652 -0.0368250012397766113 2.30507302284240723 0 3 1
0.0910239964723587036 -0.0334509983658790588 2.30854392051696777 4 13 16
0.0911670029163360596 -0.0317859984934329987 2.31216692924499512 19 28 38
0.0909309983253479004 -0.0265650004148483276 2.3061830997467041 25 42 67
0.0912249982357025146 -0.0249320007860660553 2.31363511085510254 27 48 74
0.0921399965882301331 -0.0234469994902610779 2.33684802055358887 29 53 79
0.091921001672744751 -0.0216589998453855515 2.33127689361572266 28 54 80
0.0919589996337890625 -0.0199360009282827377 2.3322451114654541 25 54 81
0.0922600030899047852 -0.0182629991322755814 2.33987903594970703 25 55 82
0.0924969986081123352 -0.0165679994970560074 2.34589099884033203 28 58 85
0.09268999844789505 -0.0148560004308819771 2.35080289840698242 29 59 86
0.0927679985761642456 -0.0131209995597600937 2.35276103019714355 26 57 81
0.0923260003328323364 -0.0113190002739429474 2.34155106544494629 27 56 79
0.0920509994029998779 -0.00955200009047985077 2.3345940113067627 27 57 78
0.0910449996590614319 -0.0077320002019405365 2.30906105041503906 26 56 77
0.0908820033073425293 -0.0060060000978410244 2.30492711067199707 26 54 76
0.091182999312877655 -0.00430899998173117638 2.31256794929504395 25 54 73
0.0908479988574981689 -0.00258100009523332119 2.30408501625061035 23 53 72
0.0909309983253479004 -0.000870999996550381184 2.3061830997467041 24 52 71
0.0908709987998008728 0.000842000008560717106 2.30466794967651367 23 49 67
0.0907519981265068054 0.00255000009201467037 2.30164504051208496 24 49 67
0.0910189971327781677 0.00427199993282556534 2.30841898918151855 24 48 67
0.0910729989409446716 0.00598999997600913048 2.30977797508239746 23 47 66
0.0915540009737014771 0.0077470000833272934 2.32197403907775879 23 47 66
0.0910409986972808838 0.00941799953579902649 2.3089599609375 22 46 67
0.0910589993000030518 0.0111360000446438789 2.30942988395690918 22 46 66
0.0911699980497360229 0.0128669999539852142 2.31223702430725098 22 46 67
0.0907619968056678772 0.0145190004259347916 2.3018798828125 23 47 70
0.090575002133846283 0.0161949992179870605 2.29714798927307129 23 47 70
0.0902649983763694763 0.0195409990847110748 2.28928494453430176 23 48 71
0.0899650007486343384 0.0211709998548030853 2.28168606758117676 23 47 72
0.0899500027298927307 0.0228620003908872604 2.28131008148193359 23 47 72
0.0900309979915618896 0.0245779994875192642 2.28335189819335938 23 47 71
0.0903080031275749207 0.0263550002127885818 2.2903749942779541 23 47 70
0.0897179991006851196 0.0278730001300573349 2.27540802955627441 23 48 68
0.0896409973502159119 0.0295380000025033951 2.27346205711364746 24 48 68
0.0896750018000602722 0.0312380008399486542 2.27432703971862793 24 48 69
0.0895349979400634766 0.0328759998083114624 2.27078604698181152 24 49 69
0.0890510007739067078 0.0360529981553554535 2.25850200653076172 24 48 69
0.088253997266292572 0.0373929999768733978 2.23828506469726562 24 48 70
0.0879160016775131226 0.038906000554561615 2.22972393035888672 23 48 69
0.087448999285697937 0.0403469987213611603 2.2178800106048584 21 45 65
0.0872280001640319824 0.0418879985809326172 2.21225595474243164 23 45 66
0.0869129970669746399 0.0433739982545375824 2.2042849063873291 23 45 67
0.0864999964833259583 0.0447969995439052582 2.19379091262817383 18 40 63
0.0862509980797767639 0.0462930016219615936 2.18749499320983887 10 32 55
0.0859669968485832214 0.0477599985897541046 2.18027305603027344 1 21 44
0.0857819989323616028 0.0492729991674423218 2.17559003829956055 0 11 34
0.0856309980154037476 0.0507999993860721588 2.17175698280334473 0 6 25
0.0856650024652481079 0.0524329990148544312 2.17261099815368652 0 6 21
0.0853390023112297058 0.0538420006632804871 2.16435790061950684 0 5 17
0.0859550014138221741 0.0558499991893768311 2.1799778938293457 0 3 18
0.086035996675491333 0.0575230009853839874 2.18204307556152344 0 5 19
0.0858530029654502869 0.0590180009603500366 2.1773979663848877 0 8 22
0.0857300013303756714 0.0605489984154701233 2.17427492141723633 2 14 28
0.0857329964637756348 0.0621649995446205139 2.17433810234069824 6 19 32
0.085248999297618866 0.0634199976921081543 2.16206908226013184 10 23 36
0.0854279994964599609 0.0651630014181137085 2.16661310195922852 13 27 40
0.0851299986243247986 0.0665400028228759766 2.15906405448913574 15 30 43
0.0851399973034858704 0.0681509971618652344 2.15932011604309082 19 35 47
0.0850860029458999634 0.0697109997272491455 2.15795111656188965 23 40 52
0.0849739983677864075 0.071220003068447113 2.15510392189025879 24 42 56
0.0848549976944923401 0.0727180019021034241 2.15207695960998535 23 41 55
0.0848049968481063843 0.0742729976773262024 2.15081906318664551 21 39 54
0.0848810002207756042 0.0759389996528625488 2.15273594856262207 19 38 54
0.084908999502658844 0.0775640010833740234 2.15345907211303711 21 43 62
0.0848330035805702209 0.0790920034050941467 2.15151405334472656 18 41 62
0.0848049968481063843 0.0806640014052391052 2.15081596374511719 14 39 59
0.0845149978995323181 0.0819789990782737732 2.1434481143951416 12 38 55
0.084206998348236084 0.0832670032978057861 2.1356511116027832 11 37 51
0.0841460004448890686 0.0847920030355453491 2.13409709930419922 10 36 51
0.0842610001564025879 0.0864949971437454224 2.13700389862060547 11 36 49
0.0842090025544166565 0.0880279988050460815 2.13569307327270508 10 36 50
0.0841900035738945007 0.0895949974656105042 2.13522195816040039 13 39 54
0.0841609984636306763 0.0911490023136138916 2.13449001312255859 12 38 53
0.0839859992265701294 0.0925420001149177551 2.13005208969116211 12 38 53
0.0838989987969398499 0.0940259993076324463 2.12783598899841309 12 39 53
0.084113001823425293 0.0958509966731071472 2.13326907157897949 12 39 54
0.084113001823425293 0.0974339991807937622 2.13325190544128418 12 40 54
0.0840160027146339417 0.0989049971103668213 2.13079190254211426 13 40 55
0.0837119966745376587 0.10012499988079071 2.12309694290161133 14 39 57
0.0838420018553733826 0.101860001683235168 2.12639689445495605 13 35 57
0.0835930034518241882 0.103131003677845001 2.12006211280822754 13 35 56
0.0836919993162155151 0.104829996824264526 2.12258505821228027 11 33 54
0.0836609974503517151 0.106367997825145721 2.12180900573730469 7 29 50
0.0836410000920295715 0.107917003333568573 2.12128400802612305 5 27 48
0.0833669975399971008 0.109134003520011902 2.11433506011962891 6 29 47
0.0831210017204284668 0.110377997159957886 2.1080930233001709 10 33 51
0.0829010009765625 0.111647002398967743 2.10251593589782715 14 36 54
0.083034999668598175 0.11339300125837326 2.10592198371887207 10 32 48
0.0830070003867149353 0.114918000996112823 2.10521507263183594 12 34 50
0.0829780027270317078 0.116440996527671814 2.10448408126831055 13 35 49
0.0830380022525787354 0.118088997900485992 2.10599493980407715 12 35 49
0.0830119997262954712 0.119616001844406128 2.10533595085144043 10 34 46
0.0831099972128868103 0.121322996914386749 2.10781693458557129 10 33 45
0.0830639973282814026 0.122819997370243073 2.10664892196655273 11 35 47
0.0830050036311149597 0.124297000467777252 2.10515189170837402 11 36 50
0.0829899981617927551 0.125837996602058411 2.10477995872497559 8 36 51
0.0829820036888122559 0.127388998866081238 2.10458207130432129 8 36 52
0.0828899964690208435 0.12880900502204895 2.10224199295043945 8 35 52
0.0827210023999214172 0.130104005336761475 2.0979468822479248 7 34 51
0.0826449990272521973 0.131542995572090149 2.09604191780090332 7 33 50
0.0824799984693527222 0.132833003997802734 2.09183597564697266 7 33 49
0.0824040025472640991 0.134264007210731506 2.08992505073547363 7 32 48
0.0825349986553192139 0.136031001806259155 2.09323000907897949 9 32 48
0.0827160030603408813 0.137888997793197632 2.09784197807312012 9 32 48
0.0822720006108283997 0.138696998357772827 2.08656096458435059 10 32 49
0.0816539973020553589 0.139193996787071228 2.07089996337890625 9 32 46
0.0808729976415634155 0.139386996626853943 2.05109691619873047 9 32 46
0.0808579996228218079 0.140883997082710266 2.05070996284484863 8 31 45
0.0808179974555969238 0.142336994409561157 2.04970192909240723 7 30 44
0.0807719975709915161 0.143777996301651001 2.0485389232635498 7 30 44
0.0802140012383460999 0.144295006990432739 2.03438305854797363 7 29 43
0.0806669965386390686 0.146629005670547485 2.04585909843444824 8 28 43
0.0802259966731071472 0.147339001297950745 2.03467798233032227 9 27 43
0.0803420022130012512 0.149066001176834106 2.03763198852539062 9 26 42
0.0805639997124671936 0.150994002819061279 2.0432429313659668 9 26 42
0.0805419981479644775 0.152472004294395447 2.04270291328430176 8 25 41
0.0805319994688034058 0.153970003128051758 2.04245209693908691 7 24 40
0.0804890021681785583 0.155404001474380493 2.04136109352111816 7 24 39
0.0801379978656768799 0.156235992908477783 2.03245711326599121 6 24 38
0.0805959999561309814 0.158646002411842346 2.04406309127807617 5 23 37
0.0801670029759407043 0.159311994910240173 2.03318691253662109 4 22 36
0.0801889970898628235 0.160866007208824158 2.03374004364013672 4 22 34
0.0801979973912239075 0.16239599883556366 2.03397798538208008 3 21 33
0.0800900012254714966 0.163686007261276245 2.03124189376831055 2 20 32
0.0803849995136260986 0.167316004633903503 2.03870201110839844 1 19 31
0.0803890004754066467 0.168840005993843079 2.03881597518920898 1 19 31
0.0820700004696846008 0.175463005900382996 2.08145499229431152 0 17 32
0.080472998321056366 0.176596999168395996 2.0409550666809082 0 17 32
0.0802259966731071472 0.177564993500709534 2.03467798233032227 0 17 32
0.080150999128818512 0.178908005356788635 2.03276801109313965 0 17 32
0.0801550000905990601 0.180426999926567078 2.0328679084777832 0 18 32
0.0806939974427223206 0.18316100537776947 2.04654693603515625 1 17 32
0.0809509977698326111 0.185268998146057129 2.05306291580200195 1 17 32
0.0807040035724639893 0.186223998665809631 2.04679608345031738 1 17 31
0.0797109976410865784 0.189940005540847778 2.0216219425201416 0 14 27
0.0805820003151893616 0.195051997900009155 2.04372000694274902 0 16 25
0.081277996301651001 0.198267996311187744 2.0613710880279541 0 18 24
0.0805699974298477173 0.198057994246482849 2.04341006278991699 1 18 23
0.080191001296043396 0.198634997010231018 2.03378105163574219 1 18 25
0.0799669995903968811 0.199588000774383545 2.02810907363891602 1 17 24
0.0799700021743774414 0.201101005077362061 2.02817797660827637 1 15 24
0.0798880010843276978 0.202400997281074524 2.02610993385314941 0 14 23
0.0800329968333244324 0.205781996250152588 2.02977299690246582 0 11 19
0.0801099985837936401 0.207489997148513794 2.03173303604125977 0 11 17
0.0799549967050552368 0.214621007442474365 2.02781796455383301 0 8 13
0.08012399822473526 0.219603002071380615 2.03209996223449707 0 2 5
0.0956080034375190735 -0.382735997438430786 2.37996792793273926 151 154 163
0.0949290022253990173 -0.37826201319694519 2.36305809020996094 106 111 122
0.0950080007314682007 -0.376819014549255371 2.3650209903717041 79 88 97
0.0942559987306594849 -0.372096002101898193 2.34631705284118652 72 86 95
0.0944970026612281799 -0.371297985315322876 2.35230207443237305 57 75 85
0.0944370031356811523 -0.369316011667251587 2.35080289840698242 39 59 71
0.0940430015325546265 -0.36603701114654541 2.34099888801574707 36 58 71
0.0931359976530075073 -0.360783994197845459 2.3184199333190918 42 61 76
0.0929030030965805054 -0.356447011232376099 2.31262397766113281 43 61 78
0.0928039997816085815 -0.354351997375488281 2.31016898155212402 48 65 83
0.0926980003714561462 -0.352232009172439575 2.30752110481262207 53 70 88
0.0925310030579566956 -0.349887996912002563 2.30336999893188477 53 70 88
0.0922729969024658203 -0.347203999757766724 2.29693508148193359 47 64 82
0.0924329981207847595 -0.346100002527236938 2.30093908309936523 41 59 76
0.0923070013523101807 -0.343919992446899414 2.29779410362243652 37 58 75
0.0923570021986961365 -0.342397004365921021 2.29902291297912598 37 58 75
0.0924599990248680115 -0.341071009635925293 2.30159807205200195 37 58 75
0.092497996985912323 -0.339502006769180298 2.30255293846130371 38 59 76
0.092524997889995575 -0.337888985872268677 2.30321907997131348 38 59 76
0.0922470018267631531 -0.335168987512588501 2.29629898071289062 38 59 76
0.0923729985952377319 -0.333920001983642578 2.29944396018981934 38 58 75
0.0920400023460388184 -0.331012994050979614 2.29114508628845215 38 57 73
0.092327997088432312 -0.330341994762420654 2.29832100868225098 32 50 65
0.0922110006213188171 -0.328215986490249634 2.29539203643798828 20 37 52
0.0920990034937858582 -0.326115995645523071 2.29261088371276855 15 31 47
0.0920860022306442261 -0.324368000030517578 2.29229092597961426 21 37 53
0.0921700000762939453 -0.322959989309310913 2.29438400268554688 27 43 60
0.0921140015125274658 -0.321060985326766968 2.29299497604370117 25 40 59
0.0923350006341934204 -0.32012099027633667 2.29847598075866699 23 38 56
0.0922219976782798767 -0.318024992942810059 2.29566502571105957 21 37 53
0.0917619988322257996 -0.314741998910903931 2.28421807289123535 18 34 50
0.0919459983706474304 -0.313674986362457275 2.28881406784057617 17 35 49
0.0920479968190193176 -0.312319010496139526 2.29133200645446777 20 38 52
0.0918060019612312317 -0.309801995754241943 2.28532195091247559 16 34 48
0.0914060026407241821 -0.306760996580123901 2.27535605430603027 15 33 47
0.0913000032305717468 -0.304719001054763794 2.27273201942443848 22 40 55
0.0912780016660690308 -0.302955001592636108 2.27216601371765137 25 42 58
0.0914499983191490173 -0.301838010549545288 2.27646398544311523 28 45 61
0.0917470008134841919 -0.301120996475219727 2.28385210037231445 37 52 72
0.0917939990758895874 -0.299576014280319214 2.28501105308532715 24 36 60
0.0921529978513717651 -0.299044013023376465 2.29394888877868652 15 25 51
0.092113003134727478 -0.297212004661560059 2.29295802116394043 4 15 36
0.0917949974536895752 -0.294488012790679932 2.2850348949432373 0 11 28
0.0913510024547576904 -0.291375011205673218 2.27398800849914551 1 14 24
0.0910440012812614441 -0.288713991641998291 2.26635909080505371 5 18 26
0.091303996741771698 -0.287849992513656616 2.27283000946044922 5 20 25
0.0911659970879554749 -0.285728007555007935 2.26938700675964355 3 18 23
0.0912790000438690186 -0.284395009279251099 2.27220392227172852 5 20 26
0.091495998203754425 -0.28337898850440979 2.27760100364685059 10 25 32
0.0914269983768463135 -0.281475991010665894 2.27588891983032227 8 22 30
0.091692999005317688 -0.280598998069763184 2.28251099586486816 4 16 23
0.0915369987487792969 -0.278430014848709106 2.27863502502441406 6 17 21
0.0913939997553825378 -0.276304006576538086 2.27505898475646973 13 23 25
0.091429002583026886 -0.274718999862670898 2.27592992782592773 35 43 43
0.0910879969596862793 -0.272009998559951782 2.26744294166564941 66 74 71
0.091151997447013855 -0.27051699161529541 2.26904606819152832 102 112 105
0.0912730023264884949 -0.269187986850738525 2.27205300331115723 125 136 131
0.0913629978895187378 -0.267764002084732056 2.27429103851318359 136 143 147
0.091652996838092804 -0.266920000314712524 2.28151297569274902 134 137 152
0.0924419984221458435 -0.267509013414382935 2.30116105079650879 126 130 151
0.0908159986138343811 -0.261123001575469971 2.26067399978637695 125 133 157
0.0901879966259002686 -0.257649004459381104 2.24503207206726074 130 145 169
0.0898730009794235229 -0.255089998245239258 2.23721194267272949 133 154 177
0.089787997305393219 -0.253187000751495361 2.23508691787719727 143 167 188
0.0897369980812072754 -0.251385003328323364 2.23382210731506348 129 152 170
0.0898879989981651306 -0.250144004821777344 2.23756694793701172 107 124 138
0.0897210016846656799 -0.248022004961967468 2.23342704772949219 120 131 139
0.0894339978694915771 -0.245574995875358582 2.22628092765808105 127 132 135
0.089573003351688385 -0.244298994541168213 2.22972393035888672 93 93 91
0.0895870029926300049 -0.242680996656417847 2.23007798194885254 51 50 46
0.0894870012998580933 -0.240757003426551819 2.22760009765625 39 38 35
0.0895740017294883728 -0.239335000514984131 2.22976493835449219 54 55 53
0.0893480032682418823 -0.237077996134757996 2.22412896156311035 85 88 88
0.0894870012998580933 -0.235792994499206543 2.22760009765625 121 125 127
0.0895219966769218445 -0.234230995178222656 2.22847390174865723 139 143 148
0.0894410014152526855 -0.232363000512123108 2.2264409065246582 136 139 146
0.0895759984850883484 -0.231058001518249512 2.22980308532714844 134 137 145
0.0892390012741088867 -0.228540003299713135 2.22142910957336426 139 142 151
0.0895510017871856689 -0.227681994438171387 2.22918295860290527 140 143 152
0.0898360013961791992 -0.226744994521141052 2.23627305030822754 139 142 151
0.0890339985489845276 -0.223076000809669495 2.21632504463195801 143 146 155
0.0890460014343261719 -0.221459999680519104 2.21662497520446777 147 150 158
0.0890830010175704956 -0.219904005527496338 2.21753907203674316 152 155 162
0.0891179963946342468 -0.218342006206512451 2.21839809417724609 156 159 166
0.0887669995427131653 -0.215841993689537048 2.20967602729797363 160 163 170
0.0889599993824958801 -0.214665994048118591 2.2144770622253418 161 164 171
0.0887340009212493896 -0.21247999370098114 2.2088470458984375 160 163 170
0.0887679979205131531 -0.210921004414558411 2.2097020149230957 160 163 170
0.0889599993824958801 -0.209731996059417725 2.2144770622253418 159 162 169
0.0888509973883628845 -0.207831993699073792 2.2117619514465332 159 162 169
0.0886659994721412659 -0.205760002136230469 2.20716309547424316 160 163 170
0.0889360010623931885 -0.204740002751350403 2.21386599540710449 160 163 170
0.0886629968881607056 -0.202472999691963196 2.20707607269287109 160 163 170
0.0883819982409477234 -0.200196996331214905 2.20007610321044922 161 164 171
0.0887999981641769409 -0.199503004550933838 2.21049094200134277 161 164 171
0.0891970023512840271 -0.198745995759963989 2.22038102149963379 162 165 172
0.0894720032811164856 -0.197704002261161804 2.22721695899963379 159 162 169
0.0893969982862472534 -0.195885002613067627 2.22534894943237305 159 162 169
0.0897080004215240479 -0.194909006357192993 2.23310303688049316 158 161 168
0.0895489975810050964 -0.192906007170677185 2.2291259765625 157 160 167
0.0893419981002807617 -0.190808996558189392 2.22398710250854492 157 160 167
0.0894609987735748291 -0.189409002661705017 2.22694110870361328 156 159 166
0.0893889963626861572 -0.187602996826171875 2.2251429557800293 155 158 165
0.0897409990429878235 -0.186683997511863708 2.23391890525817871 155 158 165
0.0897070020437240601 -0.184954002499580383 2.23306608200073242 153 157 161
0.0895769968628883362 -0.183028995990753174 2.22983098030090332 153 157 160
0.0896330028772354126 -0.181486994028091431 2.23123598098754883 153 157 160
0.0899540036916732788 -0.180472999811172485 2.23921108245849609 153 157 160
0.0897509977221488953 -0.178406000137329102 2.23415303230285645 153 157 160
0.0894540026783943176 -0.176163002848625183 2.2267758846282959 153 157 160
0.0895500034093856812 -0.174695998430252075 2.2291719913482666 153 157 160
0.089447997510433197 -0.17284199595451355 2.22661495208740234 153 157 160
0.0894899964332580566 -0.171269997954368591 2.22767210006713867 152 156 159
0.0895040035247802734 -0.169641003012657166 2.22801303863525391 152 156 159
0.0893530026078224182 -0.167702004313468933 2.22424888610839844 152 156 159
0.0894870012998580933 -0.166299998760223389 2.22760009765625 152 156 159
0.0893549993634223938 -0.164401993155479431 2.2243049144744873 152 156 159
0.0893030017614364624 -0.162654995918273926 2.22300291061401367 152 156 159
0.0892810001969337463 -0.160964995622634888 2.22247600555419922 152 156 158
0.0893279984593391418 -0.15939900279045105 2.22364711761474609 151 155 158
0.0894910022616386414 -0.158034995198249817 2.22770309448242188 150 154 155
0.0894540026783943176 -0.156314998865127563 2.2267758846282959 150 154 153
0.0895769968628883362 -0.154872998595237732 2.22983098030090332 149 153 152
0.0894230008125305176 -0.152953997254371643 2.22600293159484863 148 152 151
0.0893739983439445496 -0.151216998696327209 2.22477197647094727 146 150 149
0.089582003653049469 -0.149913996458053589 2.22996807098388672 145 149 148
0.0895629972219467163 -0.148225992918014526 2.2294929027557373 144 149 145
0.0896250009536743164 -0.14666999876499176 2.23102402687072754 143 148 144
0.0895370021462440491 -0.144870996475219727 2.22883892059326172 141 146 142
0.089304998517036438 -0.142844006419181824 2.22305703163146973 139 144 140
0.0891809985041618347 -0.140996992588043213 2.21997308731079102 136 141 135
0.0893099978566169739 -0.139549002051353455 2.22318100929260254 136 141 135
0.0894830003380775452 -0.138165995478630066 2.22750306129455566 136 141 135
0.0896029993891716003 -0.136694997549057007 2.23049211502075195 136 141 135
0.0892250016331672668 -0.134468004107475281 2.22108197212219238 133 138 132
0.0893509984016418457 -0.133004993200302124 2.22419595718383789 131 136 130
0.0894379988312721252 -0.131481006741523743 2.22636294364929199 128 133 128
0.0897300019860267639 -0.130251005291938782 2.23363089561462402 128 133 129
0.089922003448009491 -0.128867998719215393 2.23843002319335938 128 133 129
0.0901049971580505371 -0.127463996410369873 2.24296903610229492 126 131 127
0.0896459966897964478 -0.125156998634338379 2.23154211044311523 123 129 125
0.0894619971513748169 -0.123246997594833374 2.22697806358337402 120 126 120
0.0893319994211196899 -0.121416002511978149 2.22374606132507324 118 123 118
0.0891570001840591431 -0.119529001414775848 2.21937990188598633 116 121 114
0.0892670005559921265 -0.118024997413158417 2.22210597991943359 111 116 109
0.0891949981451034546 -0.116282001137733459 2.22033405303955078 104 110 100
0.0887070000171661377 -0.114004999399185181 2.20816898345947266 95 102 89
0.0887930020689964294 -0.112474001944065094 2.21032094955444336 90 97 84
0.0892219990491867065 -0.111368000507354736 2.22099900245666504 82 92 77
0.0893099978566169739 -0.109825998544692993 2.2231910228729248 65 78 60
0.089134998619556427 -0.107963003218173981 2.2188420295715332 39 54 34
0.089211001992225647 -0.10640600323677063 2.22073006629943848 17 30 13
0.0891709998250007629 -0.104708999395370483 2.21973109245300293 0 8 0
0.0889329984784126282 -0.102784998714923859 2.21379804611206055 0 4 2
0.0890600010752677917 -0.101285003125667572 2.21696710586547852 0 4 3
0.088763996958732605 -0.0993070006370544434 2.20959591865539551 0 4 3
0.0892610028386116028 -0.09821300208568573 2.22196507453918457 0 3 2
0.0893829986453056335 -0.0966949984431266785 2.22500991821289062 0 3 2
0.0893519967794418335 -0.0950089991092681885 2.22422599792480469 0 3 2
0.0891970023512840271 -0.0931949988007545471 2.22038102149963379 0 3 2
0.0888919979333877563 -0.0912330001592636108 2.21279096603393555 0 2 2
0.089313998818397522 -0.0900150015950202942 2.22329306602478027 1 2 2
0.089626997709274292 -0.0886730030179023743 2.23107504844665527 1 2 3
0.0906940028071403503 -0.0880509987473487854 2.25763797760009766 1 2 4
0.0904180034995079041 -0.0861110016703605652 2.25076198577880859 0 2 4
0.0900290012359619141 -0.084077000617980957 2.2410891056060791 0 2 4
0.0900430008769035339 -0.0824249982833862305 2.24143695831298828 0 2 4
0.0896409973502159119 -0.0803989991545677185 2.23142290115356445 0 3 4
0.0893990024924278259 -0.0785290002822875977 2.2254021167755127 0 2 4
0.0893910005688667297 -0.0752160027623176575 2.22519111633300781 0 1 3
0.0899059996008872986 -0.0739879980683326721 2.23802089691162109 0 1 3
0.0910689979791641235 -0.0732610002160072327 2.26698207855224609 0 1 3
0.0913830026984214783 -0.071823999285697937 2.27478194236755371 0 1 3
0.0905319973826408386 -0.0694810003042221069 2.25359511375427246 0 1 3
0.0904780030250549316 -0.0677670016884803772 2.25225496292114258 0 2 4
0.0902419984340667725 -0.065921001136302948 2.24638009071350098 0 3 4
0.0896769985556602478 -0.0638509988784790039 2.23233294486999512 0 3 4
0.0898889973759651184 -0.0623399987816810608 2.23759889602661133 0 3 4
0.0917100012302398682 -0.0568200014531612396 2.28292298316955566 0 3 4
0.0915480032563209534 -0.0550259985029697418 2.27888894081115723 0 3 3
0.0911120027303695679 -0.0530799999833106995 2.26803803443908691 0 3 2
0.0867509990930557251 -0.0425189994275569916 2.15948200225830078 0 3 3
0.0939769968390464783 -0.044323999434709549 2.33937311172485352 0 3 1
0.0891489982604980469 -0.0387500002980232239 2.21919107437133789 1 7 3
0.0898699983954429626 -0.0374009981751441956 2.23712897300720215 0 5 1
0.0931610018014907837 -0.035326000303030014 2.31905102729797363 0 5 4
0.0931669995188713074 -0.0336060002446174622 2.31919503211975098 1 9 12
0.0934500023722648621 -0.0285240001976490021 2.32625293731689453 25 36 52
0.0926240012049674988 -0.0265590008348226547 2.30567002296447754 19 34 58
0.0929500013589859009 -0.0249339994043111801 2.31379795074462891 22 40 66
0.0931639969348907471 -0.0232689995318651199 2.31912493705749512 25 47 74
0.0932999998331069946 -0.0215780008584260941 2.32252097129821777 26 52 79
0.0932710021734237671 -0.0198470000177621841 2.32179808616638184 22 53 81
0.0936399996280670166 -0.0181939993053674698 2.33097004890441895 23 55 83
0.0940689966082572937 -0.0165379997342824936 2.34165000915527344 27 60 87
0.0940300002694129944 -0.0147919999435544014 2.34068489074707031 30 63 90
0.0940309986472129822 -0.0130540002137422562 2.34071207046508789 29 60 85
0.0942389965057373047 -0.0113399997353553772 2.34589099884033203 28 58 82
0.0933910012245178223 -0.00951199978590011597 2.32478189468383789 27 58 79
0.09276600182056427 -0.00773299997672438622 2.3092188835144043 27 56 77
0.092462003231048584 -0.00599800003692507744 2.30164504051208496 25 53 75
0.092462003231048584 -0.00428800005465745926 2.30164504051208496 24 52 73
0.0925640016794204712 -0.00258100009523332119 2.30419492721557617 22 51 72
0.0925180017948150635 -0.000869999988935887814 2.30304288864135742 22 50 70
0.0923930034041404724 0.000839999993331730366 2.29993009567260742 20 46 65
0.092537999153137207 0.00255200010724365711 2.30353403091430664 21 46 65
0.0925529971718788147 0.00426399987190961838 2.30391097068786621 22 45 63
0.092537999153137207 0.00597399985417723656 2.30353403091430664 22 45 63
0.0927850008010864258 0.00770600000396370888 2.30968308448791504 22 45 63
0.0928580015897750854 0.00942900031805038452 2.31150102615356445 22 44 64
0.09276600182056427 0.0111349998041987419 2.3092188835144043 22 44 65
0.0923840031027793884 0.0127969998866319656 2.29969692230224609 22 44 67
0.0926830023527145386 0.0145519999787211418 2.30714797973632812 21 45 69
0.0917880013585090637 0.0161090008914470673 2.28487896919250488 21 45 70
0.091853998601436615 0.0178190004080533981 2.28650498390197754 20 46 72
0.0918689966201782227 0.019519999623298645 2.28689193725585938 20 46 72
0.0911659970879554749 0.0261129997670650482 2.26938700675964355 23 45 69
0.0904949977993965149 0.0275940001010894775 2.25269007682800293 23 44 67
0.0906289964914321899 0.0293109994381666183 2.25601005554199219 25 46 67
0.0907989963889122009 0.0310449991375207901 2.26024889945983887 26 47 68
0.0904980003833770752 0.0326149985194206238 2.25275993347167969 27 48 69
0.0898099988698959351 0.0356880016624927521 2.23564410209655762 26 46 70
0.0889599993824958801 0.0369950011372566223 2.2144770622253418 25 46 67
0.0885130017995834351 0.0384460017085075378 2.20335102081298828 22 43 63
0.0883309990167617798 0.0399999991059303284 2.19882488250732422 12 33 52
0.0881259962916374207 0.0415370017290115356 2.19370698928833008 11 32 51
0.0878399983048439026 0.0430260002613067627 2.18658304214477539 8 29 46
0.0876289978623390198 0.044543001800775528 2.18134689331054688 4 25 42
0.0874570012092590332 0.0460730008780956268 2.17706990242004395 0 21 40
0.0872249975800514221 0.0475630015134811401 2.17127394676208496 0 18 37
0.0872439965605735779 0.0491870008409023285 2.17175388336181641 0 15 34
0.0875810012221336365 0.050996001809835434 2.18013811111450195 0 12 29
0.0875520035624504089 0.0525979995727539062 2.17942905426025391 0 7 23
0.0874499976634979248 0.054152999073266983 2.17687892913818359 0 10 26
0.0873090028762817383 0.0556810013949871063 2.17337393760681152 0 13 28
0.0874110013246536255 0.0573620013892650604 2.17592096328735352 1 16 31
0.0872600004076957703 0.0588760003447532654 2.17216610908508301 4 21 35
0.0874169990420341492 0.0605980008840560913 2.17606592178344727 9 25 41
0.0869520008563995361 0.0618840008974075317 2.16448593139648438 13 32 46
0.0868169963359832764 0.0633929967880249023 2.16113901138305664 18 36 51
0.087117999792098999 0.0652230009436607361 2.16862201690673828 18 37 52
0.0867109969258308411 0.0665220022201538086 2.15849900245666504 17 37 53
0.0865940004587173462 0.0680330023169517517 2.1555778980255127 17 38 54
