ply
format ascii 1.0
element vertex 653
property float x
property float y
property float z
property uchar red
property uchar green
property uchar blue
end_header
-0.00752899982035160065 0.0819320008158683777 2.0621180534362793 6 25 32
-0.00751199992373585701 0.0832649990916252136 2.0572049617767334 7 25 32
-0.00749399978667497635 0.0845910012722015381 2.05230307579040527 8 24 31
-0.00749700004234910011 0.0861530005931854248 2.05320096015930176 9 25 32
-0.007476000115275383 0.0874330028891563416 2.04746603965759277 12 25 33
-0.00749500002712011337 0.0891849994659423828 2.0527949333190918 12 25 32
-0.00751599995419383049 0.0909560024738311768 2.05835390090942383 13 24 30
-0.00754000013694167137 0.0927809998393058777 2.06494998931884766 12 24 30
-0.00753099983558058739 0.0942070037126541138 2.06258893013000488 10 23 29
-0.00753299985080957413 0.0957629978656768799 2.0630950927734375 9 22 28
-0.00751999998465180397 0.0971250012516975403 2.05949902534484863 9 22 28
-0.00754200015217065811 0.1004830002784729 2.06562495231628418 8 21 27
-0.00755799980834126472 0.102227002382278442 2.06988000869750977 8 21 27
-0.00756399985402822495 0.10385499894618988 2.07168292999267578 8 21 27
-0.00756900012493133545 0.106995001435279846 2.07289004325866699 8 21 27
-0.00755000021308660507 0.108259998261928558 2.06765389442443848 8 21 27
-0.00755000021308660507 0.109796002507209778 2.06765389442443848 8 21 27
-0.00754600018262863159 0.111272998154163361 2.06655788421630859 8 21 27
-0.00755599979311227798 0.112967997789382935 2.06948399543762207 6 19 25
-0.0075619998387992382 0.114595003426074982 2.07111310958862305 6 19 25
-0.00755999982357025146 0.116093002259731293 2.07039999961853027 6 19 25
-0.00753800012171268463 0.117288000881671906 2.06435894966125488 6 19 25
-0.00753899989649653435 0.118836000561714172 2.06461191177368164 6 19 25
-0.00753600010648369789 0.120323002338409424 2.06381988525390625 6 19 25
-0.00753000006079673767 0.121766000986099243 2.06228804588317871 6 19 25
-0.00752600003033876419 0.123228996992111206 2.06114697456359863 6 19 25
-0.00753800012171268463 0.124962002038955688 2.06447696685791016 6 19 25
-0.00753200007602572441 0.126388996839523315 2.06274008750915527 6 19 25
-0.00756500009447336197 0.12849000096321106 2.07192111015319824 7 20 26
-0.00755799980834126472 0.129896998405456543 2.06980991363525391 7 20 26
-0.00755399977788329124 0.131367996335029602 2.06876301765441895 7 20 26
-0.00763599993661046028 0.14211699366569519 2.09127688407897949 4 17 23
-0.0076720002107322216 0.144339993596076965 2.10101795196533203 3 16 22
-0.00771899987012147903 0.146813005208969116 2.11415910720825195 3 16 22
-0.00769999995827674866 0.148016005754470825 2.10892200469970703 2 15 21
-0.00769100012257695198 0.149405002593994141 2.10642194747924805 2 15 21
-0.00761200021952390671 0.149415001273155212 2.08473491668701172 1 15 22
-0.00760600017383694649 0.150850996375083923 2.08318090438842773 1 15 24
-0.00762399984523653984 0.15275999903678894 2.0881199836730957 1 16 25
-0.0076270001009106636 0.154359996318817139 2.08879303932189941 2 17 26
-0.00763100013136863708 0.15599900484085083 2.08995604515075684 3 18 27
-0.00763999996706843376 0.157728999853134155 2.0923159122467041 5 20 29
-0.00763599993661046028 0.159204006195068359 2.09127688407897949 6 21 30
-0.0076520000584423542 0.161085993051528931 2.09554791450500488 7 22 31
-0.00766099989414215088 0.165966004133224487 2.09821391105651855 8 22 33
-0.00766299990937113762 0.167552992701530457 2.09857392311096191 6 23 33
-0.00765499984845519066 0.16895100474357605 2.09657907485961914 6 24 34
-0.00763399992138147354 0.170028001070022583 2.09067106246948242 6 25 35
-0.00763900019228458405 0.17169499397277832 2.09206295013427734 5 27 36
-0.00764800002798438072 0.173457995057106018 2.09458708763122559 4 28 37
-0.00764100020751357079 0.176396995782852173 2.09253096580505371 6 26 39
-0.00763399992138147354 0.177802994847297668 2.09079194068908691 7 25 40
-0.00769399991258978844 0.180750995874404907 2.10705709457397461 8 25 40
-0.00775999994948506355 0.183880001306533813 2.12512493133544922 8 25 40
-0.00777400005608797073 0.185799002647399902 2.12903189659118652 7 25 40
-0.00779099995270371437 0.187796995043754578 2.13376998901367188 7 26 40
-0.00778299989178776741 0.189183995127677917 2.13153505325317383 7 26 40
-0.00776399997994303703 0.190292000770568848 2.12622594833374023 7 26 40
-0.00772299990057945251 0.190874993801116943 2.11518001556396484 6 27 39
-0.00770899979397654533 0.192090004682540894 2.11126995086669922 6 27 39
-0.00764100020751357079 0.191953003406524658 2.09267592430114746 5 27 38
-0.00763599993661046028 0.196483999490737915 2.09127688407897949 2 25 36
-0.00764499977231025696 0.198276996612548828 2.09380888938903809 1 24 35
-0.00762100005522370338 0.200761005282402039 2.08729696273803711 3 23 32
-0.00763100013136863708 0.202556997537612915 2.08982300758361816 4 22 30
-0.00759200006723403931 0.206176996231079102 2.07936811447143555 3 20 28
-0.00761999981477856636 0.210014998912811279 2.08681201934814453 2 19 27
-0.00761299999430775642 0.211381003260612488 2.08499407768249512 1 18 26
-0.00760099990293383598 0.21260400116443634 2.08181095123291016 2 19 27
-0.00761200021952390671 0.214445993304252625 2.0846869945526123 2 19 27
-0.00762999989092350006 0.216515004634857178 2.0897059440612793 2 19 27
-0.00762799987569451332 0.21799999475479126 2.0890660285949707 2 19 27
-0.00764600001275539398 0.220080003142356873 2.09408998489379883 2 19 27
-0.00764100020751357079 0.221478000283241272 2.09260010719299316 2 19 27
-0.00763399992138147354 0.222828999161720276 2.09069490432739258 2 19 27
-0.00763599993661046028 0.229103997349739075 2.09127688407897949 0 5 18
-0.0076569998636841774 0.234398007392883301 2.09694790840148926 204 214 225
-0.00763500016182661057 0.236829996109008789 2.09091401100158691 241 254 255
-0.00754899997264146805 0.23723900318145752 2.06740999221801758 123 139 129
-0.00785399973392486572 0.248426005244255066 2.15097498893737793 132 148 137
-0.00608700001612305641 0.0116450004279613495 2.09273195266723633 139 142 148
-0.00609500007703900337 0.0132170002907514572 2.0954890251159668 88 96 102
-0.00608299998566508293 0.0147449998185038567 2.09143495559692383 38 49 56
-0.00607699993997812271 0.0162819996476173401 2.08929610252380371 14 25 32
-0.00607800018042325974 0.0178369991481304169 2.0896461009979248 0 11 19
-0.00608999980613589287 0.0194269996136426926 2.0937800407409668 1 12 20
-0.00608500000089406967 0.0209660008549690247 2.09216403961181641 2 14 23
-0.00608500000089406967 0.0225200001150369644 2.09220004081726074 3 12 23
-0.00608599977567791939 0.0240770000964403152 2.0924229621887207 7 14 26
-0.00610399991273880005 0.0257070008665323257 2.09857392311096191 10 16 28
-0.00611199997365474701 0.0273020006716251373 2.10143589973449707 7 11 22
-0.00609399983659386635 0.0287800002843141556 2.09533095359802246 4 9 19
-0.00611500022932887077 0.0304380003362894058 2.10235595703125 0 7 17
-0.00610700016841292381 0.0319559983909130096 2.09950900077819824 0 5 15
-0.00611399998888373375 0.0335579998791217804 2.10219097137451172 0 6 16
-0.00611500022932887077 0.0351240001618862152 2.10247111320495605 0 8 17
-0.00610399991273880005 0.0366180017590522766 2.09857392311096191 0 8 17
-0.00607499992474913597 0.0379969999194145203 2.08868288993835449 0 8 16
-0.00608000019565224648 0.039579000324010849 2.09032392501831055 0 10 16
-0.00608200021088123322 0.0411479994654655457 2.0911400318145752 2 16 21
-0.00604399992153048515 0.0424339994788169861 2.0780799388885498 8 23 26
-0.00604199990630149841 0.0439600013196468353 2.07725095748901367 13 29 32
-0.00599300023168325424 0.0451349988579750061 2.06043195724487305 14 32 36
-0.00599400000646710396 0.046673998236656189 2.0608220100402832 13 31 35
-0.00598900020122528076 0.0481659993529319763 2.05917191505432129 10 29 33
-0.00597199983894824982 0.0495549999177455902 2.05334711074829102 8 26 33
-0.00597300007939338684 0.0510889999568462372 2.05368709564208984 7 24 32
-0.00597199983894824982 0.0526049993932247162 2.05332398414611816 7 24 32
-0.00598999997600913048 0.0542879998683929443 2.05929994583129883 7 24 32
-0.00599400000646710396 0.0558630004525184631 2.06098294258117676 7 24 32
-0.0059960000216960907 0.0574069991707801819 2.06145811080932617 7 24 32
-0.00600099982693791389 0.0589930005371570587 2.06337499618530273 7 24 32
-0.00600899988785386086 0.0605969987809658051 2.06582808494567871 7 24 32
-0.00601400015875697136 0.062189001590013504 2.0677189826965332 7 24 32
-0.00602000020444393158 0.0637850016355514526 2.0696868896484375 7 24 32
-0.0060209999792277813 0.065330997109413147 2.06997203826904297 7 24 32
-0.00602200021967291832 0.0668810009956359863 2.07033491134643555 7 24 32
-0.00602599978446960449 0.068470001220703125 2.07188105583190918 7 24 32
-0.00602900004014372826 0.0700419992208480835 2.07287788391113281 7 24 32
-0.006031000055372715 0.0716089978814125061 2.07365202903747559 7 24 32
-0.00602900004014372826 0.0731230005621910095 2.07293009757995605 7 24 32
-0.00601899996399879456 0.0745370015501976013 2.0694279670715332 7 24 32
-0.00601000012829899788 0.0759600028395652771 2.06632590293884277 6 23 31
-0.00600099982693791389 0.0773800015449523926 2.063262939453125 6 23 31
-0.00600099982693791389 0.0789109990000724792 2.0632328987121582 6 23 31
-0.00599499978125095367 0.0803690031170845032 2.06130409240722656 6 23 31
-0.00597500009462237358 0.0816269963979721069 2.05443096160888672 5 24 31
-0.00595899997279047966 0.0829270035028457642 2.04885601997375488 5 24 31
-0.00594699988141655922 0.0842780023813247681 2.04471993446350098 6 23 30
-0.00594200007617473602 0.0857240036129951477 2.04297208786010742 8 23 31
-0.00591799989342689514 0.0868870019912719727 2.03467798233032227 11 24 32
-0.00599499978125095367 0.0910829976201057434 2.06122994422912598 12 23 29
-0.00600099982693791389 0.0927039980888366699 2.0632328987121582 11 23 29
-0.00598300015553832054 0.0939590036869049072 2.05716204643249512 9 22 28
-0.00598799996078014374 0.0955670028924942017 2.05887293815612793 8 21 27
-0.00599300023168325424 0.10022599995136261 2.06034088134765625 7 20 26
-0.00599199999123811722 0.101738996803760529 2.05998706817626953 7 20 26
-0.00600299984216690063 0.103469997644424438 2.06400489807128906 7 20 26
-0.00601400015875697136 0.105189003050327301 2.06765389442443848 7 20 26
-0.00599199999123811722 0.106329001486301422 2.05998706817626953 7 20 26
-0.00599199999123811722 0.107859000563621521 2.05998706817626953 7 20 26
-0.00599199999123811722 0.10938899964094162 2.05998706817626953 7 20 26
-0.00599199999123811722 0.110918998718261719 2.05998706817626953 7 20 26
-0.00598700018599629402 0.112355001270771027 2.05826306343078613 4 17 23
-0.00598500017076730728 0.113853000104427338 2.05770397186279297 4 17 23
-0.00598500017076730728 0.115373000502586365 2.05754899978637695 4 17 23
-0.005985999945551157 0.116930000483989716 2.05805206298828125 4 17 23
-0.005985999945551157 0.11845099925994873 2.0579218864440918 4 17 23
-0.00598300015553832054 0.119919002056121826 2.05687904357910156 4 17 23
-0.0059910002164542675 0.121625997126102448 2.05992388725280762 4 17 23
-0.00596700003370642662 0.122662998735904694 2.05167698860168457 5 18 24
-0.00597700010985136032 0.124389000236988068 2.05501294136047363 5 18 24
-0.00597700010985136032 0.125920996069908142 2.05510091781616211 5 18 24
-0.00600299984216690063 0.127986997365951538 2.06379795074462891 6 19 25
-0.00607499992474913597 0.132636994123458862 2.08875703811645508 7 20 26
-0.00612000003457069397 0.135187000036239624 2.10430097579956055 8 21 27
-0.00606400007382035255 0.141686007380485535 2.08493399620056152 6 19 25
-0.00607200013473629951 0.143420994281768799 2.0876469612121582 5 18 24
-0.00611899979412555695 0.146101996302604675 2.1039130687713623 4 17 23
-0.00613299990072846413 0.147998005151748657 2.10866498947143555 3 16 22
-0.00611899979412555695 0.149224996566772461 2.10388994216918945 2 15 21
-0.00610700016841292381 0.15047900378704071 2.09957289695739746 1 15 21
-0.00602700002491474152 0.150040999054908752 2.07198691368103027 0 15 22
-0.00608000019565224648 0.152924001216888428 2.09036898612976074 1 15 24
-0.00607200013473629951 0.155827000737190247 2.0876469612121582 3 17 26
-0.00607200013473629951 0.157377004623413086 2.0876469612121582 5 19 28
-0.00611300021409988403 0.164682000875473022 2.10171699523925781 7 21 30
-0.00611899979412555695 0.166397005319595337 2.10365605354309082 7 21 32
-0.00609700009226799011 0.167368993163108826 2.09626388549804688 6 22 32
-0.00612400006502866745 0.175923004746437073 2.10546088218688965 4 27 36
-0.00617399998009204865 0.18367399275302887 2.12275505065917969 7 25 39
-0.00619099987670779228 0.185762003064155579 2.12860608100891113 7 25 39
-0.00619800016283988953 0.187540993094444275 2.13085794448852539 7 25 39
-0.0061619998887181282 0.189593002200126648 2.11841511726379395 6 25 39
-0.00613299990072846413 0.190272003412246704 2.1085059642791748 6 26 38
-0.00609100004658102989 0.190546005964279175 2.09429597854614258 6 26 37
-0.00605800002813339233 0.191048994660377502 2.08282804489135742 5 26 37
-0.00608000019565224648 0.197938993573188782 2.09023904800415039 1 23 34
-0.00601299991831183434 0.198832005262374878 2.06723403930664062 3 22 32
-0.0060160001739859581 0.209698006510734558 2.06839299201965332 1 18 26
-0.00599199999123811722 0.210400998592376709 2.06023406982421875 1 18 26
-0.0060209999792277813 0.214491993188858032 2.07017898559570312 1 18 26
-0.00601899996399879456 0.215940997004508972 2.06933093070983887 1 18 26
-0.00602900004014372826 0.217860996723175049 2.07297992706298828 1 18 26
-0.00602700002491474152 0.219295993447303772 2.07198691368103027 1 18 26
-0.00604500016197562218 0.235397994518280029 2.07826900482177734 241 254 255
-0.00623599998652935028 0.247633993625640869 2.14412188529968262 132 148 137
-0.00452399998903274536 0.0100710000842809677 2.08863592147827148 139 141 148
-0.00453499983996152878 0.0116510000079870224 2.09378695487976074 82 87 97
-0.00452500022947788239 0.0131780002266168594 2.08930301666259766 37 47 56
-0.00452399998903274536 0.0147270001471042633 2.08891201019287109 12 26 34
-0.00451799994334578514 0.0162560008466243744 2.08602595329284668 3 16 25
-0.00452199997380375862 0.0178210008889436722 2.08785796165466309 2 14 22
-0.0045309998095035553 0.0194109994918107986 2.09202194213867188 5 21 29
-0.00452399998903274536 0.0209320001304149628 2.08879709243774414 11 24 34
-0.00452500022947788239 0.0224910005927085876 2.08948397636413574 9 18 30
-0.00453400006517767906 0.0240909997373819351 2.09365105628967285 5 12 26
-0.00453200004994869232 0.025631999596953392 2.09246397018432617 5 10 24
-0.0045360000804066658 0.0272090006619691849 2.0942380428314209 3 8 18
-0.0045360000804066658 0.0287699997425079346 2.0946040153503418 0 6 15
-0.0045309998095035553 0.0302850008010864258 2.09185004234313965 0 4 14
-0.00453699985519051552 0.0318819992244243622 2.09465193748474121 0 4 14
-0.00453899987041950226 0.0334560014307498932 2.09580492973327637 0 6 16
-0.00453200004994869232 0.0349610000848770142 2.09273195266723633 0 9 18
-0.00452800001949071884 0.0364830009639263153 2.09084892272949219 0 10 18
-0.00452100019901990891 0.0379699990153312683 2.0872349739074707 1 12 20
-0.00451700016856193542 0.0394859984517097473 2.08539700508117676 5 19 25
-0.00450700009241700172 0.0409509986639022827 2.0811150074005127 9 24 29
-0.00447800010442733765 0.0422229990363121033 2.06772398948669434 14 29 32
-0.00447000004351139069 0.0436789989471435547 2.06397390365600586 16 32 35
-0.00447200005874037743 0.0452260002493858337 2.06461191177368164 13 31 35
-0.00447499984875321388 0.0467920005321502686 2.0660250186920166 9 27 32
-0.00446199998259544373 0.0481909997761249542 2.06023406982421875 3 22 28
-0.00445199990645051003 0.0496079996228218079 2.05554008483886719 3 22 28
-0.00444199983030557632 0.0510260015726089478 2.05114603042602539 7 24 32
-0.00444300007075071335 0.0525580011308193207 2.05149507522583008 6 23 31
-0.00445399992167949677 0.0542149990797042847 2.05652809143066406 6 23 31
-0.00445999996736645699 0.0558150000870227814 2.05922698974609375 6 23 31
-0.00446699978783726692 0.0574380010366439819 2.06258893013000488 6 23 31
-0.0044709998182952404 0.0590209998190402985 2.06435894966125488 6 23 31
-0.00446800002828240395 0.0605119988322257996 2.06291794776916504 6 23 31
-0.0044709998182952404 0.0620840005576610565 2.06423306465148926 5 22 30
-0.0044709998182952404 0.0636160001158714294 2.06419801712036133 3 20 28
-0.00446800002828240395 0.0651170015335083008 2.06317901611328125 3 20 28
-0.0044809998944401741 0.0668329969048500061 2.06885910034179688 3 20 28
-0.00448000011965632439 0.0683559998869895935 2.06844902038574219 3 20 28
-0.00448299990966916084 0.0699480026960372925 2.0700829029083252 4 21 29
-0.00448699994012713432 0.0715439990162849426 2.07178401947021484 4 21 29
-0.00447699986398220062 0.0729259997606277466 2.06733989715576172 4 21 29
-0.00447200005874037743 0.0743689984083175659 2.06475305557250977 4 21 29
-0.00446699978783726692 0.0758280009031295776 2.06274509429931641 6 23 31
-0.00446300022304058075 0.0772909969091415405 2.06089305877685547 6 23 31
-0.00444300007075071335 0.0784659981727600098 2.05157709121704102 6 23 31
-0.00443200021982192993 0.079783998429775238 2.04629898071289062 5 23 31
-0.00441699987277388573 0.0810299962759017944 2.03942108154296875 5 24 31
-0.00442800018936395645 0.0827590003609657288 2.04469609260559082 5 23 30
-0.00440199999138712883 0.0837830007076263428 2.03271293640136719 6 23 30
-0.00439999997615814209 0.0852520018815994263 2.03173303604125977 8 23 30
-0.00439799996092915535 0.0867109969258308411 2.03055691719055176 10 24 32
-0.00441600009799003601 0.0885780006647109985 2.03881597518920898 11 23 31
-0.00443099997937679291 0.0904129967093467712 2.0460660457611084 11 22 28
-0.00443500000983476639 0.0920170024037361145 2.04794502258300781 10 22 28
-0.00442000012844800949 0.0932020023465156555 2.04059600830078125 8 21 27
-0.00441400008276104927 0.0946099981665611267 2.03827595710754395 7 20 26
-0.00441299984231591225 0.0991280004382133484 2.0377800464630127 6 19 25
-0.00441200006753206253 0.100608997046947479 2.03711104393005371 6 19 25
-0.0044459998607635498 0.102913998067378998 2.05290889739990234 6 19 25
-0.00443299999460577965 0.104139998555183411 2.04703092575073242 6 19 25
-0.00442800018936395645 0.105520002543926239 2.0443110466003418 6 19 25
-0.00441400008276104927 0.106714002788066864 2.03812599182128906 6 19 25
-0.00442499993368983269 0.108485996723175049 2.04297208786010742 6 19 25
-0.00442499993368983269 0.110003001987934113 2.04297208786010742 5 18 24
-0.00441499985754489899 0.111285999417304993 2.03868293762207031 3 16 22
-0.00441699987277388573 0.112829998135566711 2.03922104835510254 3 16 22
-0.00442600017413496971 0.114579997956752777 2.04341006278991699 3 16 22
-0.00443099997937679291 0.116233997046947479 2.04580092430114746 3 16 22
-0.00442899996414780617 0.117716997861862183 2.04517889022827148 3 16 22
-0.00443799979984760284 0.119464002549648285 2.04907488822937012 3 16 22
-0.00445399992167949677 0.121426999568939209 2.05654406547546387 3 16 22
-0.00443200021982192993 0.122336998581886292 2.04621601104736328 3 16 22
-0.00444700010120868683 0.124274998903274536 2.05313396453857422 4 17 23
-0.00444199983030557632 0.125671997666358948 2.05103397369384766 4 17 23
-0.00446699978783726692 0.127893999218940735 2.06230592727661133 5 18 24
-0.00448299990966916084 0.12990899384021759 2.07001090049743652 6 19 25
-0.00450300006195902824 0.132020995020866394 2.07904291152954102 7 20 26
-0.00451500015333294868 0.133932992815971375 2.08477401733398438 8 21 27
-0.00450900010764598846 0.13993699848651886 2.08194208145141602 10 23 29
-0.00448800018057227135 0.140832006931304932 2.07236099243164062 8 21 27
-0.00451700016856193542 0.143271997570991516 2.08547592163085938 7 20 26
-0.00452399998903274536 0.145050004124641418 2.08877301216125488 5 18 24
-0.0045360000804066658 0.146991997957229614 2.09433102607727051 4 17 23
-0.00452500022947788239 0.148197993636131287 2.0894019603729248 3 16 22
-0.00452399998903274536 0.149720996618270874 2.08900690078735352 2 15 21
-0.00453200004994869232 0.151532992720603943 2.09260010719299316 0 13 21
-0.00450199982151389122 0.152077004313468933 2.07879209518432617 1 14 22
-0.00449999980628490448 0.153556004166603088 2.07790994644165039 2 15 23
-0.00449999980628490448 0.155076995491981506 2.07760310173034668 3 16 24
-0.00450900010764598846 0.156945005059242249 2.08190798759460449 5 18 26
-0.00452300021424889565 0.158974006772041321 2.08825111389160156 5 19 27
-0.00451799994334578514 0.160346999764442444 2.08593201637268066 6 20 28
-0.00452300021424889565 0.162073001265525818 2.08821892738342285 7 21 30
-0.00453400006517767906 0.164021000266075134 2.09328508377075195 7 21 30
-0.00453299982473254204 0.16555100679397583 2.09296894073486328 7 21 30
-0.00451399991288781166 0.166391998529434204 2.08403110504150391 6 21 30
-0.00451900018379092216 0.169683992862701416 2.08644008636474609 6 24 32
-0.00452800001949071884 0.171600997447967529 2.09091401100158691 6 25 33
-0.00450900010764598846 0.172407999634742737 2.08190798759460449 4 26 33
-0.00453000003471970558 0.174765005707740784 2.09160709381103516 4 27 35
-0.00451300013810396194 0.175648003816604614 2.08365011215209961 5 26 36
-0.00457399990409612656 0.181161001324653625 2.11183810234069824 7 25 37
-0.00455700000748038292 0.182059004902839661 2.1040799617767334 7 25 37
-0.0045810001902282238 0.184589996933937073 2.11518001556396484 7 25 37
-0.00461499998345971107 0.187526002526283264 2.1306910514831543 7 25 38
-0.00457500014454126358 0.187484994530677795 2.11239409446716309 6 25 38
-0.0045710001140832901 0.188896000385284424 2.11062502861022949 6 25 38
-0.00454200012609362602 0.18923400342464447 2.09700608253479004 6 26 37
-0.00448000011965632439 0.195880994200706482 2.06850099563598633 1 23 34
-0.0044459998607635498 0.195903003215789795 2.05263710021972656 2 23 33
-0.00443700002506375313 0.197034001350402832 2.0485389232635498 3 22 31
-0.00446399999782443047 0.207440003752708435 2.06122994422912598 1 18 26
-0.00444500008597970009 0.208066001534461975 2.05230307579040527 0 17 25
-0.00444999989122152328 0.209843993186950684 2.05478811264038086 0 17 25
-0.00445199990645051003 0.211447998881340027 2.05554008483886719 0 17 25
-0.00444999989122152328 0.212901994585990906 2.05483794212341309 0 17 25
-0.00444300007075071335 0.214063003659248352 2.05133295059204102 0 17 25
-0.0044459998607635498 0.215719997882843018 2.05260300636291504 0 17 25
-0.0044459998607635498 0.217245995998382568 2.05261707305908203 0 17 25
-0.00443000020459294319 0.217996001243591309 2.04535388946533203 0 17 25
-0.00441699987277388573 0.218862995505332947 2.03927803039550781 1 17 25
-0.00446899980306625366 0.227564007043838501 2.0632328987121582 0 3 19
-0.00442400015890598297 0.234375 2.04245209693908691 120 136 126
-0.00297600007615983486 0.00853100046515464783 2.09137201309204102 128 127 136
-0.00298100011423230171 0.0101020000874996185 2.09501791000366211 71 73 84
-0.00297600007615983486 0.011638999916613102 2.09157705307006836 29 35 47
-0.00297400006093084812 0.0131810000166296959 2.08982300758361816 9 19 30
-0.0029780000913888216 0.0147550003603100777 2.09290790557861328 2 15 24
-0.00297900009900331497 0.0163119994103908539 2.09315299987792969 7 25 32
-0.00297600007615983486 0.017850000411272049 2.09121298789978027 7 25 32
-0.0029780000913888216 0.0194140002131462097 2.09242105484008789 3 19 28
-0.00297700008377432823 0.0209669992327690125 2.09224295616149902 4 17 28
-0.00297600007615983486 0.0225079990923404694 2.09101295471191406 7 16 29
-0.00297700008377432823 0.0240710005164146423 2.09190893173217773 4 9 25
-0.00297700008377432823 0.0256260000169277191 2.09198307991027832 0 3 16
-0.00297500006854534149 0.027165999636054039 2.0909430980682373 0 4 13
-0.00297900009900331497 0.0287510007619857788 2.09327292442321777 0 4 12
-0.00298799993470311165 0.030398000031709671 2.09962105751037598 0 3 13
-0.00297700008377432823 0.0318460017442703247 2.09227299690246582 0 4 13
-0.0029829998966306448 0.0334599986672401428 2.09606599807739258 0 7 16
-0.0029780000913888216 0.0349630005657672882 2.09280896186828613 5 15 24
-0.00297500006854534149 0.0364830009639263153 2.09084892272949219 14 25 34
-0.00297000003047287464 0.0379649996757507324 2.08693599700927734 19 32 40
-0.00296199996955692768 0.039406999945640564 2.0812220573425293 21 35 41
-0.00295599992386996746 0.0408699996769428253 2.07701206207275391 18 33 38
-0.00294900010339915752 0.0423169992864131927 2.07231497764587402 15 31 35
-0.00294900010339915752 0.0438559986650943756 2.07233309745788574 11 29 34
-0.00293700001202523708 0.0452120006084442139 2.06395411491394043 9 27 33
-0.00293199997395277023 0.0466680005192756653 2.06053400039672852 8 26 33
-0.00292399991303682327 0.0480609983205795288 2.05467391014099121 7 26 33
-0.00291900010779500008 0.0495110005140304565 2.05151891708374023 7 25 32
-0.00292199989780783653 0.0510750003159046173 2.05314803123474121 7 23 32
-0.00291700009256601334 0.0525190010666847229 2.0499570369720459 8 23 31
-0.00291800010018050671 0.0540499985218048096 2.05028390884399414 6 23 31
-0.00291900010779500008 0.0556010007858276367 2.05133295059204102 6 23 31
-0.00292599992826581001 0.0572640001773834229 2.0563209056854248 5 22 30
-0.00293600000441074371 0.0589849986135959625 2.0630950927734375 5 22 30
-0.00294000003486871719 0.060605999082326889 2.0661320686340332 4 21 29
-0.00292999995872378349 0.0619230009615421295 2.05887293815612793 3 20 28
-0.00292699993588030338 0.063381001353263855 2.05657696723937988 2 19 27
-0.00292799994349479675 0.0649389997124671936 2.05754899978637695 2 19 27
-0.00292999995872378349 0.0665260031819343567 2.05934810638427734 2 19 27
-0.00293199997395277023 0.0680880025029182434 2.06034088134765625 2 19 27
-0.00293199997395277023 0.0696299970149993896 2.06066608428955078 2 19 27
-0.00293399998918175697 0.0711949989199638367 2.06168198585510254 1 18 26
-0.0029329999815672636 0.0727159976959228516 2.06139492988586426 1 18 26
-0.00293499999679625034 0.0742840021848678589 2.0623929500579834 3 20 28
-0.00293800001963973045 0.075906999409198761 2.06489109992980957 6 23 31
-0.00293700001202523708 0.077413998544216156 2.06416201591491699 6 23 31
-0.00293600000441074371 0.0789130032062530518 2.063262939453125 6 23 31
-0.00292799994349479675 0.0802169963717460632 2.05741500854492188 5 23 31
-0.00293399998918175697 0.0819199979305267334 2.06181597709655762 5 24 31
-0.00292999995872378349 0.0833429992198944092 2.05913400650024414 5 24 31
-0.00293600000441074371 0.0881209969520568848 2.06356501579284668 8 22 30
-0.00293399998918175697 0.0895750001072883606 2.06175804138183594 9 21 29
-0.00292999995872378349 0.0909700021147727966 2.05866694450378418 10 21 27
-0.00293700001202523708 0.0927240028977394104 2.06367802619934082 9 21 27
-0.00293700001202523708 0.0942569971084594727 2.06367802619934082 7 20 26
-0.00294200005009770393 0.0959480032324790955 2.06710100173950195 7 20 26
-0.00293700001202523708 0.0973469987511634827 2.06419801712036133 7 20 26
-0.00293399998918175697 0.0987690016627311707 2.06188201904296875 6 19 25
-0.00293900002725422382 0.100468002259731293 2.06531405448913574 5 18 24
-0.00293600000441074371 0.101896002888679504 2.06316900253295898 5 18 24
-0.00292999995872378349 0.103205002844333649 2.05870604515075684 5 18 24
-0.00292699993588030338 0.10464700311422348 2.05699491500854492 5 18 24
-0.00292499992065131664 0.106099002063274384 2.05554008483886719 5 18 24
-0.00292699993588030338 0.107688002288341522 2.05671191215515137 5 18 24
-0.00292899995110929012 0.109313003718852997 2.05855488777160645 5 18 24
-0.00292599992826581001 0.110728003084659576 2.05643105506896973 4 17 23
-0.00290800002403557301 0.111543998122215271 2.04341006278991699 2 15 21
-0.00289899995550513268 0.112724997103214264 2.03730988502502441 2 15 21
-0.00291000003926455975 0.114647001028060913 2.04460310935974121 2 15 21
-0.00291700009256601334 0.116447001695632935 2.04956507682800293 3 16 22
-0.00292699993588030338 0.118390999734401703 2.05687904357910156 3 16 22
-0.00292599992826581001 0.119889996945858002 2.05638408660888672 3 16 22
-0.00292399991303682327 0.121340997517108917 2.05510091781616211 3 16 22
-0.00291900010779500008 0.122648000717163086 2.05142498016357422 3 16 22
-0.00292099989019334316 0.124232001602649689 2.05242300033569336 4 17 23
-0.00291900010779500008 0.125682994723320007 2.05122590065002441 4 17 23
-0.00293499999679625034 0.127903997898101807 2.06246089935302734 5 18 24
-0.00293099996633827686 0.129251003265380859 2.0595240592956543 6 19 25
-0.00293499999679625034 0.130976006388664246 2.06258893013000488 7 20 26
-0.00294200005009770393 0.132822006940841675 2.06747698783874512 8 21 27
-0.00293499999679625034 0.134039998054504395 2.06258893013000488 9 22 28
-0.00293499999679625034 0.135558992624282837 2.06239795684814453 9 22 28
-0.00294400006532669067 0.140571996569633484 2.06853890419006348 10 23 29
-0.00295099988579750061 0.142456993460655212 2.07361197471618652 8 21 27
-0.00295000011101365089 0.143937006592750549 2.07274389266967773 6 19 25
-0.00294700008817017078 0.146908000111579895 2.07121491432189941 3 16 22
-0.00295299990102648735 0.14873899519443512 2.07529902458190918 3 16 22
-0.00295199989341199398 0.150232002139091492 2.0746300220489502 0 13 19
-0.00296399998478591442 0.15238499641418457 2.08299899101257324 1 14 22
-0.00293800001963973045 0.152588993310928345 2.06482601165771484 2 15 23
-0.00294400006532669067 0.154415994882583618 2.06874704360961914 3 16 24
-0.00294800009578466415 0.156158000230789185 2.07146906852722168 5 18 26
-0.00294800009578466415 0.157736003398895264 2.07198691368103027 6 19 27
-0.00295099988579750061 0.159410998225212097 2.07376503944396973 6 19 27
-0.00294800009578466415 0.160772994160652161 2.07146906852722168 7 20 29
-0.00296299997717142105 0.163176998496055603 2.08251094818115234 7 20 28
-0.0029680000152438879 0.1649789959192276 2.08573102951049805 7 20 29
-0.00294800009578466415 0.165375992655754089 2.07129693031311035 7 21 30
-0.00294500007294118404 0.166752994060516357 2.06930303573608398 7 22 30
-0.00294700008817017078 0.171480998396873474 2.07070493698120117 5 26 32
-0.00294100004248321056 0.17424599826335907 2.06701993942260742 6 25 35
-0.00294600008055567741 0.176054999232292175 2.07023501396179199 6 25 36
-0.00292699993588030338 0.194812998175621033 2.05722808837890625 3 23 34
-0.00291100004687905312 0.195237994194030762 2.0456700325012207 3 22 33
-0.00293700001202523708 0.209261000156402588 2.0640869140625 0 17 25
-0.00292599992826581001 0.210019007325172424 2.05649900436401367 0 16 24
-0.0029329999815672636 0.212028995156288147 2.06119203567504883 0 16 24
-0.00291400006972253323 0.21218399703502655 2.04790401458740234 0 16 24
-0.00291000003926455975 0.216445997357368469 2.04505610466003418 0 16 24
-0.00288500008173286915 0.217617005109786987 2.02766299247741699 0 16 24
-0.00287199998274445534 0.218092992901802063 2.01813507080078125 1 13 23
-0.00294800009578466415 0.234626993536949158 2.07146906852722168 238 252 253
-0.00141999998595565557 0.00541300000622868538 2.08726406097412109 165 166 168
-0.00142300000879913568 0.00697899982333183289 2.09194707870483398 107 107 115
-0.00142400001641362906 0.00853800028562545776 2.09301900863647461 53 54 65
-0.00142099999357014894 0.0100689996033906937 2.08825111389160156 22 25 37
-0.00142200000118464231 0.0116290003061294556 2.08982300758361816 7 13 26
-0.00142099999357014894 0.0131719997152686119 2.0884239673614502 2 12 24
-0.00142300000879913568 0.0147519996389746666 2.09237909317016602 1 17 26
-0.00142200000118464231 0.01628899946808815 2.09027409553527832 3 21 28
-0.00142200000118464231 0.0178369991481304169 2.08972001075744629 3 21 28
-0.00142099999357014894 0.0193799994885921478 2.08871698379516602 1 16 24
-0.00141999998595565557 0.02091200090944767 2.08675289154052734 0 11 21
-0.00141699996311217546 0.0224239993840456009 2.08326292037963867 0 8 22
-0.0014189999783411622 0.0240080002695322037 2.08641910552978516 0 5 21
-0.00142300000879913568 0.0256210006773471832 2.09161710739135742 0 3 17
-0.00142400001641362906 0.0271899998188018799 2.09278297424316406 0 5 16
-0.00142099999357014894 0.0286849997937679291 2.08848404884338379 1 11 20
-0.00142200000118464231 0.0302559994161128998 2.08982300758361816 5 15 24
-0.0014189999783411622 0.031741999089717865 2.08547592163085938 9 20 29
-0.00141699996311217546 0.0332549996674060822 2.08318090438842773 14 25 34
-0.00141799997072666883 0.034823000431060791 2.08442091941833496 19 32 40
-0.0014189999783411622 0.0363899990916252136 2.08552098274230957 25 39 47
-0.00141699996311217546 0.037882000207901001 2.08236098289489746 25 40 47
-0.00141599995549768209 0.0394230000674724579 2.08210110664367676 19 34 40
-0.00141100003384053707 0.0408230014145374298 2.07461810111999512 16 32 36
-0.00141200004145503044 0.0423800013959407806 2.07543206214904785 12 29 33
-0.00140900001861155033 0.0438270010054111481 2.07094502449035645 9 27 32
-0.00140299997292459011 0.0451680012047290802 2.06194710731506348 7 24 31
-0.00139899994246661663 0.0465839989483356476 2.05683803558349609 7 24 31
-0.00139500002842396498 0.0479670017957687378 2.05064988136291504 7 24 32
-0.00139800005126744509 0.0495969988405704498 2.05509209632873535 6 22 30
-0.00139600003603845835 0.0510689988732337952 2.05290889739990234 4 18 27
-0.00139500002842396498 0.0525219999253749847 2.05009007453918457 4 19 27
-0.00139400002080947161 0.0540239997208118439 2.04931402206420898 2 19 27
-0.00139400002080947161 0.0555570013821125031 2.04968810081481934 2 19 27
-0.00139600003603845835 0.0571460016071796417 2.05208206176757812 2 19 27
-0.00139999995008111 0.0588440001010894775 2.05817794799804688 2 19 27
-0.00139899994246661663 0.0603340007364749908 2.05683803558349609 1 18 26
-0.00139700004365295172 0.0617480017244815826 2.05306291580200195 1 18 26
-0.00139500002842396498 0.06320200115442276 2.05076098442077637 2 19 27
-0.00139300001319497824 0.064641997218132019 2.04811596870422363 2 19 27
-0.00139999995008111 0.0664950013160705566 2.05840897560119629 2 19 27
-0.00140399998053908348 0.0682059973478317261 2.06389307975769043 2 19 27
-0.00140499998815357685 0.0697769969701766968 2.06502604484558105 2 19 27
-0.00140700000338256359 0.0714029967784881592 2.06769895553588867 2 19 27
-0.00140700000338256359 0.072986997663974762 2.06907010078430176 2 19 27
-0.00140599999576807022 0.0744369998574256897 2.06664800643920898 3 20 28
-0.00140499998815357685 0.0759179964661598206 2.06519603729248047 6 23 31
-0.00140399998053908348 0.0774110034108161926 2.06407999992370605 6 23 31
-0.00140399998053908348 0.0789230018854141235 2.06354594230651855 6 23 31
-0.00139700004365295172 0.0800430029630661011 2.05294895172119141 6 23 31
-0.00139700004365295172 0.0816110000014305115 2.05403590202331543 5 24 31
-0.00139800005126744509 0.0831980034708976746 2.05554008483886719 6 24 31
-0.00139800005126744509 0.0847240015864372253 2.05554008483886719 7 24 31
-0.00140399998053908348 0.0865989997982978821 2.06381988525390625 7 22 29
-0.00140099995769560337 0.0879710018634796143 2.06006598472595215 6 20 28
-0.00139999995008111 0.0894289985299110413 2.05839204788208008 7 20 27
-0.00139999995008111 0.0909669995307922363 2.05861806869506836 9 20 26
-0.00139999995008111 0.0924689993262290955 2.05800199508666992 8 20 26
-0.00140199996531009674 0.0941509976983070374 2.06135201454162598 7 20 26
-0.00140299997292459011 0.0957190021872520447 2.06214690208435059 7 20 26
-0.00140199996531009674 0.0971790030598640442 2.06064009666442871 7 20 26
-0.00140199996531009674 0.100263997912406921 2.06112194061279297 4 17 23
-0.00139500002842396498 0.101246997714042664 2.05003499984741211 4 17 23
-0.00138999999035149813 0.102404996752738953 2.04275989532470703 4 17 23
-0.00138599995989352465 0.103629998862743378 2.03701210021972656 4 17 23
-0.00138599995989352465 0.105181001126766205 2.03775191307067871 4 17 23
-0.00138699996750801802 0.106784999370574951 2.03947806358337402 4 17 23
-0.0013909999979659915 0.108576998114585876 2.04469609260559082 4 17 23
-0.00138799997512251139 0.109857000410556793 2.04026603698730469 3 16 22
-0.00138499995227903128 0.111111000180244446 2.03546309471130371 1 14 20
-0.00138399994466453791 0.112579002976417542 2.03467798233032227 2 15 21
-0.00139600003603845835 0.115036003291606903 2.05154299736022949 2 15 21
-0.00140199996531009674 0.117081999778747559 2.06074094772338867 3 16 22
-0.00140199996531009674 0.11859700083732605 2.06046891212463379 4 17 23
-0.00140399998053908348 0.120343998074531555 2.0641789436340332 4 17 23
-0.00140399998053908348 0.121886998414993286 2.06433892250061035 5 18 24
-0.00140099995769560337 0.123113997280597687 2.05922293663024902 5 18 24
-0.00140099995769560337 0.124682001769542694 2.0598599910736084 8 21 27
-0.00139800005126744509 0.125902995467185974 2.05481290817260742 8 21 27
-0.00139899994246661663 0.127537995576858521 2.05656003952026367 8 21 27
-0.00139500002842396498 0.128725007176399231 2.05113792419433594 8 21 27
-0.0013909999979659915 0.129889994859695435 2.04549694061279297 8 21 27
-0.00139600003603845835 0.131807997822761536 2.05169510841369629 8 21 27
-0.0013909999979659915 0.132912993431091309 2.04524588584899902 8 21 27
-0.0013909999979659915 0.134386003017425537 2.04454302787780762 8 21 27
-0.00138499995227903128 0.138365000486373901 2.0360560417175293 8 21 27
-0.00140099995769560337 0.14762599766254425 2.05976390838623047 5 17 23
-0.00140599999576807022 0.149653002619743347 2.06663894653320312 0 9 15
-0.00141699996311217546 0.15238499641418457 2.08299899101257324 0 9 16
-0.00140399998053908348 0.15256500244140625 2.06449604034423828 0 10 16
-0.00140399998053908348 0.154036998748779297 2.06367802619934082 0 10 17
-0.00140599999576807022 0.155824005603790283 2.06704497337341309 1 11 18
-0.00140599999576807022 0.157314002513885498 2.06645488739013672 1 13 19
-0.00140900001861155033 0.159170001745223999 2.07062506675720215 4 15 22
-0.00140599999576807022 0.160394996404647827 2.06659507751464844 5 15 24
-0.0014100000262260437 0.162467002868652344 2.07344198226928711 5 16 25
-0.00142099999357014894 0.16517600417137146 2.08821892738342285 6 17 26
-0.00140399998053908348 0.164761006832122803 2.06360006332397461 5 18 27
-0.00139800005126744509 0.165644004940986633 2.05554008483886719 6 20 28
-0.00140399998053908348 0.167896002531051636 2.0644528865814209 5 22 29
-0.00140299997292459011 0.170808002352714539 2.06258893013000488 5 25 32
-0.00140399998053908348 0.175524994730949402 2.06400489807128906 6 24 35
-0.00142900005448609591 0.181771993637084961 2.10077309608459473 6 24 35
-0.00139200000558048487 0.193728998303413391 2.04578399658203125 2 22 33
-0.00138799997512251139 0.194702997803688049 2.04006099700927734 2 21 32
-0.00139200000558048487 0.207413002848625183 2.04585909843444824 0 17 25
-0.0013909999979659915 0.208869993686676025 2.04524588584899902 0 16 24
-0.00138899998273700476 0.210070997476577759 2.04215288162231445 0 15 23
-0.00138499995227903128 0.210952997207641602 2.0360260009765625 0 15 23
-0.00138399994466453791 0.212380006909370422 2.03520798683166504 0 15 23
-0.00138399994466453791 0.213835999369621277 2.03467798233032227 0 15 23
-0.00138599995989352465 0.215672999620437622 2.03775811195373535 0 15 23
-0.00138699996750801802 0.217247992753982544 2.03832888603210449 0 15 23
-0.00138000003062188625 0.217767000198364258 2.02906203269958496 0 15 23
-0.00138799997512251139 0.225038006901741028 2.04032611846923828 0 4 20
0.00013099999341648072 0.00386300007812678814 2.08751296997070312 155 163 163
0.00013099999341648072 0.00541799981147050858 2.08916497230529785 101 107 112
0.00013099999341648072 0.00699200015515089035 2.09578800201416016 39 42 52
0.00013099999341648072 0.00851599965244531631 2.08775901794433594 5 7 20
0.000130000000353902578 0.0100570004433393478 2.0856928825378418 0 3 16
0.00013099999341648072 0.0116259995847940445 2.08923101425170898 0 4 17
0.00013099999341648072 0.0131689999252557755 2.08794593811035156 0 7 18
0.00013099999341648072 0.0147529998794198036 2.09257602691650391 0 13 21
0.00013099999341648072 0.0162840001285076141 2.08955097198486328 0 13 19
0.000130000000353902578 0.0177900008857250214 2.08417105674743652 0 14 20
0.000130000000353902578 0.0193380005657672882 2.08419990539550781 0 13 21
0.000130000000353902578 0.0208609998226165771 2.08167505264282227 0 8 18
0.000130000000353902578 0.0224510002881288528 2.0857689380645752 0 5 18
0.00013099999341648072 0.0240199994295835495 2.08748006820678711 1 7 23
0.00013099999341648072 0.0255919992923736572 2.08924007415771484 3 12 25
0.000130000000353902578 0.0271080005913972855 2.08650398254394531 5 17 26
0.000130000000353902578 0.0286209993064403534 2.0837860107421875 11 25 34
0.000130000000353902578 0.0301360003650188446 2.08151102066040039 19 32 43
0.000130000000353902578 0.0316109992563724518 2.07683396339416504 25 37 49
0.000130000000353902578 0.0332150012254714966 2.08071398735046387 26 39 51
0.000130000000353902578 0.0347959995269775391 2.08282804489135742 26 40 51
0.000130000000353902578 0.0363340005278587341 2.08232903480529785 25 41 50
0.000130000000353902578 0.0379140004515647888 2.08412790298461914 21 38 45
0.000130000000353902578 0.0393400005996227264 2.07767796516418457 14 31 38
0.000130000000353902578 0.040886998176574707 2.07787489891052246 11 28 35
0.000130000000353902578 0.0423620007932186127 2.07454204559326172 8 26 32
0.000128999992739409208 0.0436920002102851868 2.06456303596496582 6 23 30
0.000128999992739409208 0.0451459996402263641 2.06094598770141602 4 21 28
0.000128999992739409208 0.0466089993715286255 2.05795192718505859 4 21 28
0.000128999992739409208 0.0481219999492168427 2.05729794502258301 5 20 29
0.000127999999676831067 0.0494860000908374786 2.05046510696411133 4 18 27
0.000127999999676831067 0.0511029995977878571 2.05426406860351562 2 16 25
0.000127999999676831067 0.0525479987263679504 2.05109095573425293 2 16 25
0.000127999999676831067 0.0541139990091323853 2.0527338981628418 2 16 25
0.000127999999676831067 0.0555710010230541229 2.05021500587463379 2 16 25
0.000127999999676831067 0.0571089982986450195 2.05077409744262695 2 17 26
0.000127999999676831067 0.0585520006716251373 2.04797101020812988 2 17 26
0.000127999999676831067 0.059969000518321991 2.04442095756530762 1 18 26
0.000127999999676831067 0.0615370012819766998 2.04603409767150879 1 18 26
0.000127999999676831067 0.0631299987435340881 2.04841709136962891 1 18 26
0.000127999999676831067 0.0647810027003288269 2.05253410339355469 1 18 26
0.000128999992739409208 0.0666330009698867798 2.06267809867858887 2 19 27
0.000128999992739409208 0.0682360008358955383 2.06480193138122559 3 20 28
0.000128999992739409208 0.0697389990091323853 2.06390595436096191 4 21 29
0.000128999992739409208 0.0712980031967163086 2.06465911865234375 4 21 29
0.000128999992739409208 0.0727939978241920471 2.06358599662780762 5 22 30
0.000128999992739409208 0.0743120014667510986 2.06319189071655273 6 23 31
0.000128999992739409208 0.0756170004606246948 2.05700492858886719 7 24 32
0.000127999999676831067 0.0770400017499923706 2.05418992042541504 7 24 32
0.000128999992739409208 0.0786999985575675964 2.05770397186279297 7 24 32
0.000127999999676831067 0.0800269991159439087 2.05253410339355469 7 24 32
0.000127999999676831067 0.0813520029187202454 2.04751300811767578 6 25 32
0.000127999999676831067 0.0831060037016868591 2.0532839298248291 6 24 31
0.000127999999676831067 0.0846489965915679932 2.05370903015136719 7 24 31
0.000128999992739409208 0.0863780006766319275 2.05855488777160645 7 22 29
0.000128999992739409208 0.0878209993243217468 2.05654406547546387 6 19 27
0.000127999999676831067 0.0887930020689964294 2.04375290870666504 7 19 26
0.000127999999676831067 0.0901670008897781372 2.04050302505493164 8 19 25
0.000127999999676831067 0.0917230024933815002 2.0414121150970459 7 19 25
0.000127999999676831067 0.0933289974927902222 2.04335904121398926 6 19 25
0.000127999999676831067 0.0947899967432022095 2.04214000701904297 6 19 25
0.000127999999676831067 0.0962240025401115417 2.04039096832275391 6 19 25
0.000127999999676831067 0.098043002188205719 2.04672598838806152 5 18 24
0.000127999999676831067 0.0994120016694068909 2.04360795021057129 4 17 23
0.000127999999676831067 0.100835002958774567 2.04169702529907227 4 17 23
0.000127000006614252925 0.102035999298095703 2.03540301322937012 4 17 23
0.000127000006614252925 0.103197000920772552 2.02850198745727539 4 17 23
0.000127000006614252925 0.104726999998092651 2.02895808219909668 4 17 23
0.000127000006614252925 0.10623999685049057 2.02906203269958496 4 17 23
0.000127000006614252925 0.108108997344970703 2.03587603569030762 4 17 23
0.000127000006614252925 0.109352998435497284 2.03089308738708496 3 16 22
0.000127999999676831067 0.111977003514766693 2.05133295059204102 2 15 21
0.000127999999676831067 0.113430999219417572 2.0500800609588623 2 15 21
0.000128999992739409208 0.115259997546672821 2.05554008483886719 3 16 22
0.000128999992739409208 0.116839997470378876 2.05647706985473633 3 16 22
0.000128999992739409208 0.118458002805709839 2.05804300308227539 4 17 23
0.000128999992739409208 0.119953997433185577 2.0574800968170166 5 18 24
0.000127999999676831067 0.121095001697540283 2.05092406272888184 5 18 24
0.000127999999676831067 0.1221809983253479 2.04360795021057129 6 19 25
0.000127999999676831067 0.123605996370315552 2.04207992553710938 9 22 28
0.000127000006614252925 0.12489599734544754 2.03837299346923828 9 22 28
0.000127000006614252925 0.126356005668640137 2.03749799728393555 9 22 28
0.000127000006614252925 0.12761099636554718 2.03338909149169922 9 22 28
0.000127000006614252925 0.128811001777648926 2.02850198745727539 9 22 28
0.000127000006614252925 0.130570992827415466 2.03244805335998535 9 22 28
0.000127000006614252925 0.13181699812412262 2.02838802337646484 8 21 27
0.000127000006614252925 0.133221998810768127 2.02684211730957031 9 22 28
0.000128999992739409208 0.138310998678207397 2.05776095390319824 9 22 28
0.000128999992739409208 0.152949005365371704 2.0696868896484375 0 9 13
0.000128999992739409208 0.15440000593662262 2.06853890419006348 0 9 15
0.000128999992739409208 0.155470997095108032 2.06236100196838379 0 9 15
0.000128999992739409208 0.157544001936912537 2.06946492195129395 0 11 17
0.000128999992739409208 0.158923998475074768 2.06743097305297852 2 13 19
0.000128999992739409208 0.160510003566741943 2.0680699348449707 3 14 20
0.000130000000353902578 0.16249200701713562 2.07376503944396973 5 15 22
0.000130000000353902578 0.164943993091583252 2.08528709411621094 5 15 24
0.000128999992739409208 0.16635499894618988 2.06435894966125488 5 19 26
0.000128999992739409208 0.167743995785713196 2.06258893013000488 5 21 28
0.000130000000353902578 0.174094006419181824 2.08357906341552734 5 25 32
0.000128999992739409208 0.175568997859954834 2.06451988220214844 5 23 33
0.000132999994093552232 0.184369996190071106 2.13079190254211426 6 24 34
0.000132999994093552232 0.186165004968643188 2.1332240104675293 6 24 34
0.000128999992739409208 0.183636993169784546 2.06904006004333496 8 26 36
0.000128999992739409208 0.192816004157066345 2.06859207153320312 3 21 33
0.000127000006614252925 0.193359002470970154 2.02597904205322266 2 20 31
0.000127999999676831067 0.20014500617980957 2.04923701286315918 1 18 26
0.000128999992739409208 0.202980995178222656 2.06258893013000488 1 18 26
0.000128999992739409208 0.206414997577667236 2.06629109382629395 1 18 26
0.000128999992739409208 0.207488998770713806 2.06171607971191406 1 18 26
0.000128999992739409208 0.209068000316619873 2.06218504905700684 1 18 26
0.000127999999676831067 0.20885099470615387 2.04505610466003418 0 16 24
0.000127999999676831067 0.21010899543762207 2.04252195358276367 0 14 22
0.000127000006614252925 0.211183995008468628 2.0382540225982666 0 14 22
0.000127000006614252925 0.21209600567817688 2.03248405456542969 0 14 22
0.000127000006614252925 0.213646993041038513 2.03288388252258301 0 14 22
