ply
format ascii 1.0
element vertex 647
property float x
property float y
property float z
property uchar red
property uchar green
property uchar blue
end_header
-0.0170019995421171188 0.106680996716022491 2.09698295593261719 6 19 28
-0.0169949997216463089 0.108191996812820435 2.09608101844787598 6 19 28
-0.01699800044298172 0.109769001603126526 2.09646391868591309 6 19 28
-0.0169929992407560349 0.111294999718666077 2.0958869457244873 5 19 28
-0.0170729998499155045 0.113381996750831604 2.10572290420532227 5 19 28
-0.0171549990773200989 0.11549600213766098 2.11579990386962891 4 18 27
-0.0171850007027387619 0.117274999618530273 2.11954188346862793 4 18 27
-0.0172049999237060547 0.118987999856472015 2.12202095985412598 3 17 27
-0.0173090007156133652 0.121289998292922974 2.13479089736938477 3 17 28
-0.017340000718832016 0.123094998300075531 2.1386110782623291 3 17 30
-0.0173889994621276855 0.125038996338844299 2.1446990966796875 2 15 31
-0.0173380002379417419 0.126258000731468201 2.13836789131164551 2 15 32
-0.0173279996961355209 0.127770006656646729 2.1371009349822998 2 15 32
-0.0173460002988576889 0.129492998123168945 2.13933110237121582 0 12 27
-0.0173470005393028259 0.131095007061958313 2.13954305648803711 0 17 29
-0.017331000417470932 0.1325560063123703 2.13748598098754883 4 23 30
-0.0173090007156133652 0.133976995944976807 2.13482999801635742 7 26 32
-0.0173620004206895828 0.135977998375892639 2.14136695861816406 10 30 31
-0.0173760000616312027 0.137675002217292786 2.14302396774291992 13 31 31
-0.0173790007829666138 0.13929399847984314 2.1434481143951416 11 29 29
-0.0174570009112358093 0.14151899516582489 2.15306806564331055 10 25 28
-0.0174950007349252701 0.143428996205329895 2.1577448844909668 10 23 29
-0.0174950007349252701 0.145036995410919189 2.15781998634338379 7 17 27
-0.0175919998437166214 0.147449001669883728 2.1697390079498291 8 18 30
-0.0173589996993541718 0.147088006138801575 2.14101290702819824 9 16 31
-0.0173669997602701187 0.148744001984596252 2.14197111129760742 0 3 21
-0.01731099933385849 0.149851992726325989 2.13507795333862305 1 2 20
-0.0172630008310079575 0.151013001799583435 2.12909698486328125 52 59 76
-0.0172700006514787674 0.152660995721817017 2.13001799583435059 143 147 160
-0.0172949992120265961 0.156050994992256165 2.1331028938293457 221 213 211
-0.0173899997025728226 0.191957995295524597 2.14483809471130371 170 170 162
-0.0176149997860193253 0.196051999926567078 2.17254996299743652 164 165 157
-0.0174860004335641861 0.196216002106666565 2.15662407875061035 164 165 157
-0.0174800008535385132 0.197754994034767151 2.15593409538269043 167 169 159
-0.0174649991095066071 0.19918900728225708 2.15412092208862305 168 172 160
-0.0174470003694295883 0.200577005743980408 2.1518549919128418 166 173 158
-0.0162339992821216583 -0.108886003494262695 2.20416092872619629 154 177 187
-0.0162700004875659943 -0.107490003108978271 2.20910906791687012 150 172 182
-0.0162550006061792374 -0.10574900358915329 2.20702791213989258 145 166 178
-0.0162179991602897644 -0.102237001061439514 2.20200395584106445 141 160 175
-0.0164139997214078903 -0.100164003670215607 2.22865104675292969 134 154 169
-0.0164509993046522141 -0.0987299978733062744 2.23366689682006836 132 155 169
-0.0166090000420808792 -0.0963250026106834412 2.25504302978515625 135 157 172
-0.0166139993816614151 -0.0946799963712692261 2.25574588775634766 135 158 172
-0.016638999804854393 -0.0931459963321685791 2.25918793678283691 134 156 171
-0.0165769997984170914 -0.0844400003552436829 2.25077605247497559 105 127 142
-0.0165890008211135864 -0.0828260034322738647 2.25233697891235352 99 121 136
-0.0166260004043579102 -0.081335999071598053 2.25742101669311523 94 117 131
-0.0167149994522333145 -0.0800829976797103882 2.26941990852355957 91 114 128
-0.0166950002312660217 -0.0783030018210411072 2.26669907569885254 94 116 129
-0.0167040005326271057 -0.0766649991273880005 2.26803803443908691 98 118 129
-0.0167050007730722427 -0.0749799981713294983 2.2680509090423584 104 122 134
-0.0166849996894598007 -0.0732079967856407166 2.26533007621765137 113 130 140
-0.0167069993913173676 -0.0716189965605735779 2.26831293106079102 128 142 153
-0.0166849996894598007 -0.0698459967970848083 2.26543498039245605 148 161 170
-0.0166820008307695389 -0.068148002028465271 2.26492404937744141 167 180 186
-0.0165689997375011444 -0.0610050000250339508 2.24968099594116211 211 220 223
-0.0165560003370046616 -0.0592859983444213867 2.24786901473999023 209 216 222
-0.0164269991219043732 -0.0538560003042221069 2.23040103912353516 154 155 168
-0.0164269991219043732 -0.0521980002522468567 2.23034501075744629 127 129 143
-0.0164800006896257401 -0.0507039986550807953 2.23754501342773438 101 103 117
-0.016478000208735466 -0.0490369983017444611 2.23732495307922363 78 80 94
-0.0165160000324249268 -0.0474830009043216705 2.24238204956054688 51 54 68
-0.0165160000324249268 -0.0458180010318756104 2.24244999885559082 30 33 47
-0.0165149997919797897 -0.0441499985754489899 2.24231791496276855 10 16 29
-0.0165449995547533035 -0.0425609983503818512 2.24632501602172852 3 5 20
-0.0165519993752241135 -0.0409110002219676971 2.24737310409545898 0 8 24
-0.0165650006383657455 -0.0392719991505146027 2.24907994270324707 2 18 33
-0.0165960006415843964 -0.037671998143196106 2.25331807136535645 7 26 44
-0.0165929999202489853 -0.0359920002520084381 2.25294804573059082 7 27 48
-0.0165860000997781754 -0.0343029983341693878 2.25191211700439453 8 31 52
-0.0165849998593330383 -0.0326300002634525299 2.25186610221862793 12 34 57
-0.0165640003979206085 -0.030918000265955925 2.24898004531860352 17 38 63
-0.0165410004556179047 -0.0292060002684593201 2.24579095840454102 22 42 68
-0.0165199991315603256 -0.0275040008127689362 2.24305009841918945 26 46 71
-0.0164800006896257401 -0.0257740002125501633 2.23749899864196777 27 49 70
-0.0164170004427433014 -0.0240199994295835495 2.22898006439208984 29 53 71
-0.01628899946808815 -0.0221900008618831635 2.21160292625427246 27 51 67
-0.0162540003657341003 -0.0205039996653795242 2.20693802833557129 23 47 63
-0.0162470005452632904 -0.018856000155210495 2.20592308044433594 20 43 61
-0.0162380002439022064 -0.0172080006450414658 2.20467996597290039 17 40 60
-0.0162339992821216583 -0.0155670000240206718 2.20419001579284668 16 39 60
-0.0161979999393224716 -0.0138980001211166382 2.19920802116394043 17 39 61
-0.0161659996956586838 -0.012241000309586525 2.19493699073791504 18 39 61
-0.0161620005965232849 -0.010607999749481678 2.19437694549560547 22 43 65
-0.0161710008978843689 -0.00898300018161535263 2.19558310508728027 23 44 66
-0.0161899998784065247 -0.0073609999381005764 2.19818401336669922 24 44 69
-0.0161990001797676086 -0.00573199987411499023 2.19947099685668945 24 44 68
-0.0162029992789030075 -0.00409899977967143059 2.19994997978210449 22 42 67
-0.0161789990961551666 -0.0024610001128166914 2.19670200347900391 19 39 65
-0.0161869991570711136 -0.000829999975394457579 2.19771504402160645 16 36 62
-0.0161830000579357147 0.000801999995019286871 2.19721794128417969 15 35 59
-0.0161920003592967987 0.00243599992245435715 2.19838905334472656 16 37 56
-0.0162240006029605865 0.00407700007781386375 2.20278000831604004 15 36 53
-0.0162499994039535522 0.00572199979797005653 2.20635294914245605 14 36 51
-0.016296999529004097 0.00738199986517429352 2.21269989013671875 14 35 49
-0.016297999769449234 0.00902600027620792389 2.21284794807434082 13 34 48
-0.0162129998207092285 0.0106140002608299255 2.20127701759338379 14 32 46
-0.016154000535607338 0.0122050000354647636 2.19327902793884277 13 31 44
-0.0160280000418424606 0.0137259997427463531 2.17619490623474121 14 31 45
-0.0151639999821782112 0.0160450004041194916 2.0589449405670166 18 33 49
-0.015041000209748745 0.0204649996012449265 2.04216289520263672 8 21 46
-0.0149990003556013107 0.0219209995120763779 2.03647589683532715 6 19 46
-0.0149320000782608986 0.0233290009200572968 2.02741599082946777 6 19 48
-0.0148350000381469727 0.0246729999780654907 2.01423501968383789 5 23 48
-0.014852999709546566 0.0262010004371404648 2.01661896705627441 4 27 47
-0.0155959995463490486 0.0322309993207454681 2.11757302284240723 15 40 57
-0.0156070003286004066 0.0338269993662834167 2.119049072265625 13 36 54
-0.0155769996345043182 0.0353320017457008362 2.11490511894226074 8 29 48
-0.0155039997771382332 0.0367310009896755219 2.10504293441772461 1 21 40
-0.0154090002179145813 0.0380599983036518097 2.09217190742492676 0 18 37
-0.0152939995750784874 0.0393179990351200104 2.07654690742492676 4 25 42
-0.0152230001986026764 0.0406690016388893127 2.06683111190795898 5 26 43
-0.0151720000430941582 0.0420639999210834503 2.05995297431945801 7 28 45
-0.0151789998635649681 0.0436140000820159912 2.06088590621948242 8 29 46
-0.015292000025510788 0.0454800017178058624 2.07619500160217285 9 29 46
-0.0153099996969103813 0.0470799989998340607 2.07876300811767578 10 28 46
-0.0152740003541111946 0.0485090017318725586 2.07383108139038086 9 28 45
-0.0152390003204345703 0.049936000257730484 2.06911802291870117 8 27 44
-0.0152089996263384819 0.0513710007071495056 2.06504702568054199 7 26 41
-0.0151680000126361847 0.0527620017528533936 2.05944991111755371 2 22 37
-0.0151890004053711891 0.0543669983744621277 2.06229496002197266 3 22 37
-0.015193999744951725 0.055915001779794693 2.0628969669342041 5 25 39
-0.0152000002562999725 0.0574689991772174835 2.06369805335998535 4 24 38
-0.0152190001681447029 0.059078998863697052 2.06640100479125977 1 20 34
-0.0152629995718598366 0.0607860013842582703 2.07226705551147461 2 22 35
-0.0152519997209310532 0.0622840002179145813 2.07087492942810059 6 26 39
-0.0153189999982714653 0.0641020014882087708 2.07997703552246094 8 27 41
-0.0153500000014901161 0.0657790005207061768 2.0841670036315918 7 26 40
-0.0153480004519224167 0.0673170015215873718 2.08384990692138672 7 25 40
-0.0153090003877878189 0.0686910003423690796 2.07857990264892578 5 24 38
-0.0152879999950528145 0.0701389983296394348 2.07574105262756348 4 22 37
-0.0154339997097849846 0.0723659992218017578 2.09558296203613281 3 21 36
-0.0154349999502301216 0.0739250034093856812 2.09564900398254395 2 21 35
-0.0153620000928640366 0.075124002993106842 2.08573102951049805 3 21 35
-0.0153489997610449791 0.0766109973192214966 2.08403110504150391 7 24 38
-0.0153759997338056564 0.0782940015196800232 2.0876469612121582 6 23 37
-0.0152540002018213272 0.0884430035948753357 2.07111310958862305 12 22 40
-0.0150699997320771217 0.0904169976711273193 2.04616093635559082 13 22 40
-0.0150619996711611748 0.0918869972229003906 2.04505610466003418 13 21 40
-0.0150610003620386124 0.0934000015258789062 2.04491710662841797 12 20 39
-0.0150619996711611748 0.0949250012636184692 2.04505610466003418 12 20 39
-0.015104999765753746 0.0967160016298294067 2.0508270263671875 12 20 41
-0.0153419999405741692 0.104422003030776978 2.08299899101257324 6 18 28
-0.0153109999373555183 0.105760000646114349 2.07888507843017578 6 18 29
-0.0152869997546076775 0.107134997844696045 2.07559800148010254 5 18 29
-0.0152890002354979515 0.108689002692699432 2.07583904266357422 5 18 28
-0.0152860004454851151 0.110212996602058411 2.07550191879272461 4 18 28
-0.0154050001874566078 0.112622000277042389 2.09160709381103516 4 17 27
-0.0154280001297593117 0.114344000816345215 2.09468793869018555 3 17 26
-0.0154360001906752586 0.115957997739315033 2.0957489013671875 3 17 27
-0.0156640000641345978 0.12241700291633606 2.1268310546875 3 16 30
-0.0156459994614124298 0.123847998678684235 2.12428498268127441 2 15 29
-0.0156599991023540497 0.125540003180503845 2.12621498107910156 1 14 30
-0.0156560000032186508 0.127090007066726685 2.12572789192199707 1 14 30
-0.0157060008496046066 0.129074007272720337 2.13240504264831543 2 18 31
-0.0156950000673532486 0.130573004484176636 2.13102102279663086 4 20 30
-0.0157120004296302795 0.13229699432849884 2.13331103324890137 2 21 28
-0.0157249998301267624 0.133986994624137878 2.1349799633026123 0 18 25
-0.0157520007342100143 0.135805994272232056 2.13866209983825684 0 16 20
-0.0157490000128746033 0.137373000383377075 2.13831591606140137 0 16 20
-0.0157900005578994751 0.139318004250526428 2.14381790161132812 0 17 20
-0.0158389993011951447 0.141353994607925415 2.15056490898132324 2 17 22
-0.0159019995480775833 0.143521994352340698 2.15914607048034668 0 14 21
-0.0159109998494386673 0.145207002758979797 2.16035890579223633 9 22 31
-0.0159280002117156982 0.14696599543094635 2.16262197494506836 9 19 31
-0.0158719997853040695 0.148046001791954041 2.1549680233001709 0 8 21
-0.0157510004937648773 0.148507997393608093 2.13857007026672363 0 4 19
-0.0157089997082948685 0.149700000882148743 2.13292288780212402 0 6 24
-0.0157110001891851425 0.15129600465297699 2.13308191299438477 24 31 49
-0.0156900007277727127 0.152676001191139221 2.13023805618286133 68 74 86
-0.0157270003110170364 0.156213998794555664 2.1353309154510498 223 219 218
-0.0156820006668567657 0.157348006963729858 2.12922000885009766 222 217 216
-0.0157990008592605591 0.190390005707740784 2.1451270580291748 170 171 163
-0.0157580003142356873 0.191486001014709473 2.13957095146179199 163 164 155
-0.0158859994262456894 0.194644004106521606 2.15694808959960938 162 164 154
-0.0158789996057748795 0.196161001920700073 2.15602207183837891 165 167 157
-0.0157600007951259613 0.196275994181632996 2.13980889320373535 168 172 160
-0.0158639997243881226 0.1991720050573349 2.15393900871276855 168 174 160
-0.0158489998430013657 0.200581997632980347 2.15190005302429199 166 174 157
-0.0156980007886886597 0.205006003379821777 2.13143205642700195 167 176 155
-0.0145870000123977661 -0.107175998389720917 2.20266008377075195 132 154 169
-0.0145990001037716866 -0.103987999260425568 2.20445108413696289 126 146 163
-0.0147270001471042633 -0.0982960015535354614 2.22383499145507812 107 131 148
-0.0149119999259710312 -0.0945129990577697754 2.25178694725036621 113 137 154
-0.0149149997159838676 -0.0928570032119750977 2.25217008590698242 114 136 154
-0.0149180004373192787 -0.0912050008773803711 2.25269007682800293 117 138 156
-0.0149050001055002213 -0.0844359993934631348 2.25067806243896484 87 108 127
-0.0148970000445842743 -0.0827199965715408325 2.24946689605712891 77 98 117
-0.0149140004068613052 -0.0811439976096153259 2.25209498405456543 65 88 106
-0.0150100002065300941 -0.0799830034375190735 2.26658797264099121 56 77 94
-0.0150260003283619881 -0.0783789977431297302 2.2689049243927002 33 53 68
-0.015041000209748745 -0.0767730027437210083 2.2712559700012207 32 51 66
-0.015025000087916851 -0.0750069990754127502 2.26884102821350098 30 48 62
-0.015023999847471714 -0.0733150020241737366 2.2686460018157959 28 44 57
-0.0150129999965429306 -0.0715800002217292786 2.26706504821777344 34 47 60
-0.0150039996951818466 -0.0698530003428459167 2.26566696166992188 50 62 74
-0.0149959996342658997 -0.0681350007653236389 2.26450395584106445 75 88 97
-0.0149590000510215759 -0.0662870034575462341 2.25883388519287109 98 108 117
-0.0149569995701313019 -0.0645989999175071716 2.25850200653076172 129 140 146
-0.0149020003154873848 -0.0626929998397827148 2.25027108192443848 153 162 169
-0.0149039998650550842 -0.0593560002744197845 2.25052309036254883 164 171 179
-0.0148029997944831848 -0.0572930015623569489 2.23524808883666992 138 144 154
-0.014774000272154808 -0.0555250011384487152 2.23090600967407227 102 106 118
-0.0147519996389746666 -0.0537879988551139832 2.22757911682128906 64 67 82
-0.0147599996998906136 -0.0521619990468025208 2.22881197929382324 39 42 59
-0.0148059995844960213 -0.0506630018353462219 2.23570704460144043 16 21 37
-0.0148320002481341362 -0.0490889996290206909 2.23968601226806641 9 14 30
-0.0148050002753734589 -0.0473380014300346375 2.23554897308349609 5 8 24
-0.0148369995877146721 -0.0457759983837604523 2.24034905433654785 2 6 22
-0.0148830004036426544 -0.0442500002682209015 2.24737310409545898 0 7 22
-0.0148959998041391373 -0.0426190011203289032 2.24938106536865234 3 13 29
-0.0149130001664161682 -0.0409950017929077148 2.25197410583496094 12 27 43
-0.0149119999259710312 -0.0393190011382102966 2.25178694725036621 21 39 56
-0.0149100003764033318 -0.0376400016248226166 2.25142097473144531 20 42 61
-0.0148930000141263008 -0.0359279997646808624 2.24890398979187012 20 43 65
-0.0148910004645586014 -0.0342519991099834442 2.24854707717895508 20 44 68
-0.0148759996518492699 -0.0325490012764930725 2.24625706672668457 22 46 71
-0.014870000071823597 -0.0308699999004602432 2.24548101425170898 25 48 75
-0.0148759996518492699 -0.029211999848484993 2.24629306793212891 28 50 76
-0.014863000251352787 -0.0275199990719556808 2.2443840503692627 30 52 77
-0.0148010002449154854 -0.0257460009306669235 2.23505091667175293 30 52 76
-0.0147620001807808876 -0.0240209996700286865 2.2290489673614502 28 53 72
-0.0146850002929568291 -0.022249000146985054 2.21748495101928711 25 51 70
-0.0146270003169775009 -0.0205210000276565552 2.20878410339355469 23 48 67
-0.0146239995956420898 -0.0188769996166229248 2.2082979679107666 20 45 64
-0.0146040003746747971 -0.0172129999846220016 2.20525097846984863 17 42 62
-0.01460300013422966 -0.0155739998444914818 2.2051088809967041 17 41 62
-0.0145730003714561462 -0.0139070004224777222 2.20051407814025879 19 41 63
-0.0145359998568892479 -0.012241000309586525 2.19500088691711426 19 41 63
-0.0145169999450445175 -0.0105969998985528946 2.19209098815917969 20 42 65
-0.0145140001550316811 -0.00896700005978345871 2.1915891170501709 21 43 66
-0.0145410001277923584 -0.00735299987718462944 2.19576692581176758 23 43 67
-0.0145049998536705971 -0.00570800015702843666 2.19028401374816895 23 43 67
-0.0145680001005530357 -0.00409800000488758087 2.19979691505432129 22 42 66
-0.0145340003073215485 -0.00245900009758770466 2.19464302062988281 19 39 64
-0.0145889995619654655 -0.000831999990623444319 2.20296788215637207 17 37 62
-0.0145810004323720932 0.000804000010248273611 2.20180988311767578 16 37 60
-0.0145770004019141197 0.00243899994529783726 2.20112895965576172 16 38 56
-0.0146530000492930412 0.00573799991980195045 2.21259689331054688 15 36 51
-0.0146390004083514214 0.00737500004470348358 2.21051788330078125 15 34 49
-0.0145680001005530357 0.00897299963980913162 2.19978499412536621 15 33 47
-0.0145519999787211418 0.0105950003489851952 2.19734501838684082 14 32 44
-0.0143990004435181618 0.0120989996939897537 2.17421507835388184 14 30 41
-0.0142930001020431519 0.0136129995808005333 2.15831899642944336 15 29 40
-0.0139060001820325851 0.0163640007376670837 2.09990596771240234 13 25 37
-0.0138130001723766327 0.0178040005266666412 2.08580303192138672 10 22 36
-0.0138140004128217697 0.0193540006875991821 2.08593201637268066 5 17 34
-0.0136609999462962151 0.0222050007432699203 2.06286096572875977 0 8 33
-0.0137019995599985123 0.0238080006092786789 2.06904006004333496 0 8 35
-0.0135730002075433731 0.0281499996781349182 2.0494849681854248 4 31 50
-0.0136970002204179764 0.0299449991434812546 2.06833696365356445 11 38 55
-0.0138940000906586647 0.0334910005331039429 2.09801101684570312 14 40 57
-0.0138870002701878548 0.0350320003926753998 2.09694790840148926 10 35 52
-0.0138360001146793365 0.0364560000598430634 2.08929109573364258 6 29 47
-0.0137759996578097343 0.0378430001437664032 2.08023691177368164 3 26 43
-0.0136799998581409454 0.0391139984130859375 2.06575608253479004 4 27 43
-0.0135810002684593201 0.0403520017862319946 2.05070209503173828 5 27 44
-0.0135709997266530991 0.0418450012803077698 2.04920291900634766 7 28 45
-0.0137120001018047333 0.0438180007040500641 2.07051205635070801 7 28 45
-0.0137379998341202736 0.0454429984092712402 2.07448410987854004 6 27 44
-0.0137269999831914902 0.0469449982047080994 2.07277202606201172 6 26 43
-0.0136630004271864891 0.0482579991221427917 2.06307411193847656 6 25 42
-0.0136470003053545952 0.0497319996356964111 2.06069302558898926 6 24 41
-0.0136299999430775642 0.0511990003287792206 2.05811905860900879 6 24 41
-0.0136099997907876968 0.0526509992778301239 2.0551140308380127 2 19 35
-0.0136409997940063477 0.0543019995093345642 2.0598599910736084 1 19 34
-0.0136529998853802681 0.0558790005743503571 2.06157898902893066 4 21 37
-0.0136510003358125687 0.05740400031208992 2.0613710880279541 2 19 35
-0.0136730000376701355 0.0590279996395111084 2.06458902359008789 0 17 32
-0.0137109998613595963 0.0607290007174015045 2.07032108306884766 1 20 34
-0.0137400003150105476 0.0624019987881183624 2.07481098175048828 6 25 39
-0.0137560004368424416 0.0640180036425590515 2.07723188400268555 9 28 42
-0.013767000287771225 0.0656130015850067139 2.07888507843017578 9 28 42
-0.0137679995968937874 0.0671589970588684082 2.07893490791320801 8 27 41
-0.0137700000777840614 0.0687149986624717712 2.07929611206054688 6 25 39
-0.0137390000745654106 0.0701019987463951111 2.07464098930358887 4 23 37
-0.0137820001691579819 0.0718669965863227844 2.0811460018157959 3 22 36
-0.0137729998677968979 0.0733660012483596802 2.07980608940124512 1 22 35
-0.013757999986410141 0.0748289972543716431 2.07752799987792969 2 23 36
-0.0137090003117918968 0.0868619978427886963 2.07009410858154297 11 22 40
-0.0136649999767541885 0.0881130024790763855 2.06339788436889648 12 23 41
-0.0134910000488162041 0.0900200009346008301 2.03718400001525879 14 23 40
-0.0135209998115897179 0.0917380005121231079 2.0417320728302002 13 22 39
-0.0134920002892613411 0.0930539965629577637 2.03734588623046875 11 20 39
-0.0134619995951652527 0.0943579971790313721 2.03283596038818359 10 20 39
-0.0134849995374679565 0.0960299968719482422 2.03626799583435059 10 20 40
-0.0136890001595020294 0.0990189984440803528 2.06710100173950195 9 20 37
-0.0137000000104308128 0.100634999573230743 2.06874704360961914 7 19 33
-0.0137050002813339233 0.103743001818656921 2.0694420337677002 5 17 30
-0.0136810000985860825 0.105097003281116486 2.06584501266479492 5 17 31
-0.0136529998853802681 0.106416001915931702 2.06167697906494141 5 17 31
-0.0136380000039935112 0.107825003564357758 2.05932998657226562 4 16 30
-0.0136390002444386482 0.10936100035905838 2.05944991111755371 3 15 29
-0.0137280002236366272 0.111616000533103943 2.07293009757995605 2 14 27
-0.0137379998341202736 0.11324000358581543 2.07446789741516113 2 14 26
-0.0141770001500844955 0.121627002954483032 2.14072394371032715 3 15 29
-0.0141629995778203011 0.123097002506256104 2.13863396644592285 4 16 30
-0.013937000185251236 0.124263003468513489 2.10458207130432129 5 17 31
-0.0141259999945759773 0.127529993653297424 2.13308191299438477 6 17 31
-0.0141120003536343575 0.128989994525909424 2.13102102279663086 6 17 31
-0.0141489999368786812 0.130906000733375549 2.13646793365478516 5 17 31
-0.0142139997333288193 0.133110001683235168 2.14641809463500977 5 18 32
-0.0142019996419548988 0.134582996368408203 2.14447498321533203 4 18 31
-0.0141949998214840889 0.136109992861747742 2.1434481143951416 4 18 30
-0.0141700003296136856 0.137462005019187927 2.13970494270324707 4 18 29
-0.0141909997910261154 0.139253005385398865 2.14280295372009277 4 18 27
-0.0142649998888373375 0.141588002443313599 2.15412092208862305 4 18 27
-0.0143020004034042358 0.143558993935585022 2.15969705581665039 4 18 27
-0.0143100004643201828 0.145243003964424133 2.16089391708374023 1 14 23
-0.0143109997734427452 0.146859005093574524 2.16105198860168457 4 14 23
-0.01425199955701828 0.147853001952171326 2.15215396881103516 8 18 27
-0.0143139995634555817 0.150095000863075256 2.1614220142364502 5 14 23
-0.0141599997878074646 0.150068998336791992 2.13817310333251953 0 3 16
-0.0141540002077817917 0.151589006185531616 2.13721609115600586 2 6 19
-0.0141350002959370613 0.152979001402854919 2.13445806503295898 15 19 31
-0.0141110001131892204 0.154294997453689575 2.13074398040771484 111 114 123
-0.0141510004177689552 0.157913997769355774 2.13688302040100098 230 229 233
-0.014271000400185585 0.18966299295425415 2.1549680233001709 166 169 164
-0.0141860004514455795 0.190126001834869385 2.14215207099914551 159 163 155
-0.0141449999064207077 0.191166996955871582 2.1360011100769043 156 162 150
-0.0143200000748038292 0.19512900710105896 2.16232109069824219 160 167 153
-0.0143400002270936966 0.19700700044631958 2.1653130054473877 164 172 155
-0.014438999816775322 0.19999299943447113 2.1803290843963623 166 175 156
-0.0142550002783536911 0.199039995670318604 2.15251398086547852 166 176 155
-0.0142670003697276115 0.200813993811607361 2.1543889045715332 163 173 152
-0.014090999960899353 0.204650998115539551 2.12774109840393066 166 176 156
-0.0139769995585083961 0.204565003514289856 2.11054110527038574 168 175 160
-0.0129019999876618385 -0.108397997915744781 2.19427895545959473 121 146 165
-0.0129690002650022507 -0.10732799768447876 2.20577597618103027 121 145 163
-0.0129490001127123833 -0.105522997677326202 2.20231389999389648 119 143 161
-0.0129559999331831932 -0.103946998715400696 2.20356607437133789 118 141 161
-0.0129620004445314407 -0.102357998490333557 2.2046051025390625 112 134 157
-0.0132229998707771301 -0.101079002022743225 2.24901390075683594 105 130 152
-0.0131090003997087479 -0.0952399969100952148 2.22963309288024902 108 133 154
-0.0132849998772144318 -0.0931620001792907715 2.25956392288208008 107 129 151
-0.0132750002667307854 -0.0914139971137046814 2.25785088539123535 107 129 151
-0.0132520003244280815 -0.0828849971294403076 2.25394797325134277 78 99 119
-0.0132740000262856483 -0.0813409984111785889 2.25755000114440918 65 87 106
-0.0133419996127486229 -0.0800769999623298645 2.26926088333129883 54 75 95
-0.0133549999445676804 -0.0784619972109794617 2.27131509780883789 49 70 88
-0.0133670000359416008 -0.0768449977040290833 2.27336692810058594 44 62 80
-0.0133720003068447113 -0.0751880034804344177 2.27434301376342773 31 50 66
-0.0133739998564124107 -0.0735080018639564514 2.27460789680480957 19 36 52
-0.0133570004254579544 -0.0717270001769065857 2.27172088623046875 10 26 41
-0.0132849998772144318 -0.0696630030870437622 2.259490966796875 11 25 38
-0.0132790002971887589 -0.0679560005664825439 2.25855207443237305 19 33 44
-0.0132689997553825378 -0.066224999725818634 2.25672698020935059 29 42 50
-0.0132839996367692947 -0.0646219998598098755 2.25928401947021484 41 54 62
-0.0132349999621510506 -0.0627110004425048828 2.25094389915466309 59 69 78
-0.0132069997489452362 -0.0609100013971328735 2.24618005752563477 70 80 89
-0.0132029997184872627 -0.0592229999601840973 2.24548101425170898 65 74 83
-0.0131529998034238815 -0.0573379993438720703 2.23698997497558594 45 53 64
-0.0131310001015663147 -0.0555859990417957306 2.23337292671203613 22 30 43
-0.013085000216960907 -0.0537369996309280396 2.22550511360168457 5 11 27
-0.0130719998851418495 -0.0520320013165473938 2.22328400611877441 3 4 22
-0.013074999675154686 -0.0503919981420040131 2.22375297546386719 2 9 28
-0.0131219998002052307 -0.0489149987697601318 2.23173308372497559 0 7 25
-0.0131500000134110451 -0.0473590008914470673 2.23653507232666016 3 10 29
-0.013167000375688076 -0.0457569994032382965 2.23944711685180664 11 21 39
-0.013175000436604023 -0.0441199988126754761 2.24077606201171875 21 33 50
-0.0132039999589323997 -0.0425489991903305054 2.24571394920349121 25 41 57
-0.0132160000503063202 -0.0409170016646385193 2.24769091606140137 27 44 62
-0.0132109997794032097 -0.0392329990863800049 2.24688005447387695 27 45 65
-0.0132189998403191566 -0.0375889986753463745 2.24832892417907715 24 46 67
-0.0132229998707771301 -0.0359279997646808624 2.24891996383666992 23 47 70
-0.0132160000503063202 -0.0342409983277320862 2.24782395362854004 24 48 72
-0.0131989996880292892 -0.0325290001928806305 2.24492001533508301 25 49 73
-0.0132060004398226738 -0.0308769997209310532 2.24600601196289062 26 50 76
-0.0132039999589323997 -0.029203999787569046 2.24563694000244141 28 51 77
-0.0132099995389580727 -0.0275490004569292068 2.24671101570129395 30 52 76
-0.0131930001080036163 -0.0258469991385936737 2.24381399154663086 29 51 75
-0.0131059996783733368 -0.0240209996700286865 2.22906804084777832 25 50 71
-0.0129909999668598175 -0.0221679992973804474 2.20942807197570801 24 49 69
-0.0129420002922415733 -0.0204499997198581696 2.20110511779785156 23 48 68
-0.0129249999299645424 -0.0187909994274377823 2.19828891754150391 20 45 65
-0.0129089998081326485 -0.0171370003372430801 2.19557499885559082 19 44 64
-0.0129199996590614319 -0.0155189996585249901 2.19734501838684082 18 43 63
-0.0129190003499388695 -0.0138860000297427177 2.19720792770385742 20 42 63
-0.0129410000517964363 -0.0122750001028180122 2.20097088813781738 20 42 63
-0.0129260001704096794 -0.0106279999017715454 2.1984410285949707 19 41 64
-0.0129119995981454849 -0.00898499973118305206 2.19609999656677246 19 41 64
-0.0128939999267458916 -0.00734299980103969574 2.19294500350952148 21 41 65
-0.0129089998081326485 -0.00572100002318620682 2.19561409950256348 21 42 64
-0.0129340002313256264 -0.00409800000488758087 2.19983100891113281 21 42 65
-0.0129439998418092728 -0.0024659999180585146 2.20158100128173828 21 41 64
-0.0129129998385906219 -0.000829000025987625122 2.19628190994262695 19 40 63
-0.0129479998722672462 0.000804000010248273611 2.20209407806396484 18 39 61
-0.0129289999604225159 0.00243599992245435715 2.1990199089050293 17 39 57
-0.0129659995436668396 0.00408100010827183723 2.20523810386657715 16 38 54
-0.0129629997536540031 0.00571799976751208305 2.20473599433898926 15 37 51
-0.0129639999940991402 0.0073560001328587532 2.20488309860229492 15 34 49
-0.0128309996798634529 0.00890200026333332062 2.18233609199523926 14 32 46
-0.012815999798476696 0.0105100004002451897 2.17969989776611328 13 31 45
-0.0126949995756149292 0.0120149999856948853 2.15912795066833496 13 29 42
-0.0125909997150301933 0.013507000170648098 2.1415400505065918 14 29 40
-0.012232000008225441 0.0162129998207092285 2.08042597770690918 15 29 41
-0.0122109996154904366 0.0177270006388425827 2.07683396339416504 12 24 39
-0.0122300004586577415 0.0192990005016326904 2.07997703552246094 7 18 37
-0.0121210003271698952 0.0206579994410276413 2.06145811080932617 2 13 34
-0.0120339998975396156 0.0220309998840093613 2.04670405387878418 0 10 35
-0.0121480002999305725 0.025309000164270401 2.0661320686340332 0 15 39
-0.0120940003544092178 0.0267229992896318436 2.05685806274414062 2 26 45
-0.0120489997789263725 0.0281470008194446564 2.04929399490356445 6 32 49
-0.0121759995818138123 0.0315200015902519226 2.07087492942810059 16 42 59
-0.0122870001941919327 0.0333609990775585175 2.08982300758361816 17 43 60
-0.0122910002246499062 0.0349240005016326904 2.09046006202697754 15 40 57
-0.0122079998254776001 0.0362309999763965607 2.07637596130371094 13 36 54
-0.0121640004217624664 0.0376369990408420563 2.06888890266418457 9 32 49
-0.0121020004153251648 0.0389729999005794525 2.05829310417175293 4 27 43
-0.0120639996603131294 0.0403739996254444122 2.05181193351745605 5 27 44
-0.0121170002967119217 0.0420840010046958923 2.06091904640197754 6 27 44
-0.0121330004185438156 0.0436719991266727448 2.06361889839172363 5 26 43
-0.012141999788582325 0.0452359989285469055 2.06506800651550293 4 25 42
-0.0121120000258088112 0.0466569997370243073 2.06004595756530762 3 23 40
-0.0120780002325773239 0.0480500012636184692 2.05420994758605957 3 22 39
-0.0120679996907711029 0.0495360009372234344 2.05253410339355469 2 19 36
-0.0120689999312162399 0.0510619990527629852 2.05259799957275391 1 13 31
-0.0120489997789263725 0.052503000944852829 2.049346923828125 0 12 31
-0.0121079999953508377 0.0542870014905929565 2.05926609039306641 0 13 32
-0.0121330004185438156 0.0559309981763362885 2.06349492073059082 0 15 32
-0.0121360002085566521 0.0574790015816688538 2.06405091285705566 0 14 31
-0.0121330004185438156 0.0589970014989376068 2.06350493431091309 0 12 29
-0.0121470000594854355 0.0606030002236366272 2.06602001190185547 0 15 31
-0.0121630001813173294 0.0622170008718967438 2.06867003440856934 4 22 37
-0.0121790003031492233 0.0638379976153373718 2.07140207290649414 11 30 45
-0.0121990004554390907 0.06548299640417099 2.07476806640625 11 30 45
-0.0121830003336071968 0.0669350028038024902 2.07202291488647461 10 29 44
-0.0121529996395111084 0.0683059990406036377 2.06692099571228027 8 27 42
-0.012143000029027462 0.0697840005159378052 2.06522989273071289 5 26 39
-0.012143000029027462 0.0713159963488578796 2.06518888473510742 4 25 38
-0.0121320001780986786 0.0727860033512115479 2.06336498260498047 2 24 37
-0.012133999727666378 0.0743340030312538147 2.06379795074462891 4 25 38
-0.0121400002390146255 0.0759000033140182495 2.06469488143920898 7 26 40
-0.0121370004490017891 0.077413998544216156 2.06416201591491699 6 25 39
-0.0121400002390146255 0.0789690017700195312 2.06474399566650391 5 22 38
-0.0121459998190402985 0.0805429965257644653 2.0657649040222168 4 21 38
-0.0121550001204013824 0.0852100029587745667 2.06731605529785156 11 23 41
-0.012143000029027462 0.0866570025682449341 2.06520700454711914 12 23 41
-0.0121550001204013824 0.0882790014147758484 2.06726598739624023 11 22 39
-0.0120040001347661018 0.0902149975299835205 2.04158496856689453 12 22 38
-0.0119880000129342079 0.0916119962930679321 2.03892302513122559 10 21 38
-0.0119909998029470444 0.0931499972939491272 2.03945493698120117 8 19 37
-0.0119869997724890709 0.0946279987692832947 2.03865694999694824 8 19 37
-0.012141999788582325 0.0989260002970695496 2.06516504287719727 7 19 36
-0.0121480002999305725 0.103577002882957458 2.0661320686340332 5 17 31
-0.0121299996972084045 0.104952000081539154 2.06300592422485352 4 16 30
-0.0120430001989006996 0.107247002422809601 2.04829788208007812 3 15 29
-0.0120310001075267792 0.108658000826835632 2.04621601104736328 2 14 28
-0.012134999968111515 0.111129000782966614 2.06387591361999512 2 14 28
-0.0121320001780986786 0.112631998956203461 2.06333398818969727 1 13 27
-0.0124150002375245094 0.124675996601581573 2.11157608032226562 5 17 31
-0.0124180000275373459 0.12626899778842926 2.11199593544006348 5 17 31
-0.0125070000067353249 0.130338996648788452 2.12720298767089844 6 16 31
-0.0125550003722310066 0.132420003414154053 2.13529491424560547 4 16 32
-0.0125489998608827591 0.133945003151893616 2.13432002067565918 4 16 32
-0.0126200001686811447 0.139480993151664734 2.1463170051574707 4 18 28
-0.0126609997823834419 0.141537994146347046 2.15335702896118164 4 18 28
-0.0126670002937316895 0.143206998705863953 2.1544029712677002 3 17 26
-0.0126780001446604729 0.144933998584747314 2.15628910064697266 0 13 21
-0.0126719996333122253 0.146460995078086853 2.15519499778747559 3 14 20
-0.012652999721467495 0.147843003273010254 2.15200901031494141 8 18 25
-0.012656000442802906 0.149473994970321655 2.15247893333435059 4 13 20
-0.012655000202357769 0.151063993573188782 2.15235590934753418 0 3 12
-0.0125550003722310066 0.151449993252754211 2.13525295257568359 0 3 14
-0.0125329997390508652 0.152777001261711121 2.13164591789245605 6 12 23
-0.0125150000676512718 0.154137998819351196 2.12856793403625488 43 51 60
-0.0125010004267096519 0.155539005994796753 2.12611103057861328 124 131 140
-0.0125550003722310066 0.159390002489089966 2.13539004325866699 226 226 230
-0.0125700002536177635 0.186573997139930725 2.13790702819824219 166 168 168
-0.0126219997182488441 0.188940003514289856 2.14675688743591309 154 160 157
-0.0125380000099539757 0.189257994294166565 2.13236594200134277 150 159 150
-0.0125399995595216751 0.190872997045516968 2.13271808624267578 154 165 150
-0.0126590002328157425 0.194290995597839355 2.15303897857666016 159 171 152
-0.0127029996365308762 0.19656999409198761 2.16050601005554199 161 174 151
-0.0127520002424716949 0.198936998844146729 2.1688239574432373 163 175 151
-0.0128220003098249435 0.201656997203826904 2.18080997467041016 162 175 150
-0.0124329999089241028 0.201812997460365295 2.11455988883972168 163 174 151
-0.012474999763071537 0.204079002141952515 2.12179398536682129 166 174 157
-0.0124260000884532928 0.204833999276161194 2.11332201957702637 167 173 161
-0.0119770001620054245 -0.227758005261421204 2.33166408538818359 171 168 177
-0.0120090004056692123 -0.226614996790885925 2.33774304389953613 168 166 174
-0.0120240002870559692 -0.225155994296073914 2.34062910079956055 170 168 176
-0.0116750001907348633 -0.124091997742652893 2.27275609970092773 157 173 188
-0.0112969996407628059 -0.107009001076221466 2.19922399520874023 113 138 162
-0.0112399999052286148 -0.104842998087406158 2.1881101131439209 110 136 159
-0.0113089997321367264 -0.103854000568389893 2.20160198211669922 109 134 158
-0.0113129997625946999 -0.102251999080181122 2.20231389999389648 108 133 160
-0.0115639995783567429 -0.101172998547554016 2.25109696388244629 107 134 160
-0.0115839997306466103 -0.099679999053478241 2.25516390800476074 109 135 161
-0.0115980003029108047 -0.0914139971137046814 2.25785088539123535 94 116 141
-0.0115940002724528313 -0.0897070020437240601 2.25710201263427734 89 109 134
-0.0116130001842975616 -0.0881720036268234253 2.26072096824645996 81 101 126
-0.0115890000015497208 -0.0829610005021095276 2.25601005554199219 70 90 114
-0.0116060003638267517 -0.081403002142906189 2.25926899909973145 59 79 102
-0.0116429999470710754 -0.0799840018153190613 2.26663804054260254 50 71 93
-0.0116600003093481064 -0.0784130021929740906 2.26988506317138672 57 77 99
-0.0116790002211928368 -0.0768499970436096191 2.27351999282836914 51 69 90
-0.0116990003734827042 -0.0752879977226257324 2.27736592292785645 41 59 79
-0.0116910003125667572 -0.0735490024089813232 2.27587509155273438 33 50 70
-0.0116860000416636467 -0.0718270018696784973 2.27488088607788086 25 40 59
-0.0116600003093481064 -0.0699850022792816162 2.2699429988861084 17 30 47
-0.0115989996120333672 -0.0679389983415603638 2.25797200202941895 6 19 35
-0.0115790003910660744 -0.0661450028419494629 2.25400209426879883 0 11 25
-0.0115719996392726898 -0.0644330009818077087 2.25267696380615234 1 13 25
-0.0115449996665120125 -0.0626130029559135437 2.24740290641784668 1 14 23
-0.0115139996632933617 -0.0607799999415874481 2.2413780689239502 2 13 25
-0.0114979995414614677 -0.0590340010821819305 2.23828506469726562 3 12 24
-0.0114289997145533562 -0.0570270009338855743 2.22487497329711914 2 7 22
-0.0114390002563595772 -0.0554260015487670898 2.22691798210144043 1 4 20
-0.0114359995350241661 -0.0537570007145404816 2.22633099555969238 0 3 21
-0.0114359995350241661 -0.0520999990403652191 2.22618007659912109 0 6 26
-0.0114479996263980865 -0.0505000017583370209 2.22852396965026855 6 18 39
-0.0114590004086494446 -0.0488910004496574402 2.23065590858459473 10 24 44
-0.0114970002323389053 -0.0473930016160011292 2.23816990852355957 19 33 52
-0.0115090003237128258 -0.0457790009677410126 2.24049496650695801 29 43 62
-0.0114919999614357948 -0.0440489985048770905 2.23718500137329102 35 52 70
-0.0115339998155832291 -0.0425419993698596954 2.24535298347473145 35 52 71
-0.0115360002964735031 -0.0408819988369941711 2.24576902389526367 27 45 65
-0.0115310000255703926 -0.0391959995031356812 2.24476003646850586 19 39 60
-0.0115369996055960655 -0.0375480018556118011 2.24590110778808594 21 43 66
-0.0115289995446801186 -0.035856001079082489 2.24442696571350098 20 44 68
-0.0115299997851252556 -0.0341899991035461426 2.24447107315063477 21 45 69
-0.0115130003541707993 -0.0324769988656044006 2.24130892753601074 21 47 71
-0.0115149999037384987 -0.0308180004358291626 2.24170303344726562 24 48 72
-0.0115080000832676888 -0.0291349999606609344 2.24035501480102539 25 49 73
-0.0115109998732805252 -0.0274759996682405472 2.24079799652099609 28 50 74
-0.0114749995991587639 -0.0257319994270801544 2.23383688926696777 27 50 74
-0.0114089995622634888 -0.0239330008625984192 2.22093296051025391 23 48 69
-0.0113070001825690269 -0.0220849998295307159 2.20114398002624512 22 47 68
-0.0112399999052286148 -0.0203290004283189774 2.1881101131439209 22 47 67
-0.0112349996343255043 -0.018695000559091568 2.18709802627563477 21 46 66
-0.0112070003524422646 -0.0170290004462003708 2.18170309066772461 20 45 65
-0.0112549997866153717 -0.0154740000143647194 2.19098806381225586 20 44 64
-0.0112589998170733452 -0.0138509999960660934 2.19176697731018066 20 44 64
-0.0112610002979636192 -0.0122260004281997681 2.19218897819519043 20 43 64
-0.0112709999084472656 -0.0106070004403591156 2.19419193267822266 19 41 64
-0.0112629998475313187 -0.00897100009024143219 2.19253802299499512 20 41 64
-0.0112399999052286148 -0.00732700014486908913 2.1881101131439209 21 42 64
-0.0112800002098083496 -0.00409100018441677094 2.19579792022705078 21 43 64
-0.0112659996375441551 -0.00245700008235871792 2.19318795204162598 21 42 63
-0.0112730003893375397 -0.000829000025987625122 2.19453692436218262 21 42 63
-0.011289999820291996 0.000803000002633780241 2.19792389869689941 20 42 62
-0.0112829999998211861 0.00243399990722537041 2.19654393196105957 18 41 58
-0.0112880002707242966 0.00406700000166893005 2.19737601280212402 17 39 56
-0.0112870000302791595 0.00569899985566735268 2.19728493690490723 15 37 52
-0.0112779997289180756 0.00732500012964010239 2.19556903839111328 14 35 49
-0.0109980003908276558 0.0119139999151229858 2.14107990264892578 12 28 41
-0.0108939995989203453 0.0133769996464252472 2.1207740306854248 12 28 39
-0.0107239997014403343 0.0147179998457431793 2.0876469612121582 15 29 40
-0.0107100000604987144 0.0193450003862380981 2.08493399620056152 6 17 35
-0.0106380004435777664 0.0207529999315738678 2.07087492942810059 2 12 33
-0.010707000270485878 0.0224350001662969589 2.08425593376159668 0 11 33
-0.0106920003890991211 0.0239499993622303009 2.08140802383422852 0 13 37
-0.0105590000748634338 0.0251790005713701248 2.05554008483886719 2 19 41
-0.0105809997767210007 0.0267619993537664413 2.05983591079711914 8 31 49
-0.0105229998007416725 0.0281349997967481613 2.0484309196472168 9 35 52
-0.0107159996405243874 0.0317520014941692352 2.08613491058349609 17 43 60
-0.0106960004195570946 0.0332400016486644745 2.08229207992553711 17 43 60
-0.0106509998440742493 0.0346390008926391602 2.07342100143432617 16 41 59
-0.0106429997831583023 0.0361529998481273651 2.07194399833679199 15 38 56
-0.0105459997430443764 0.0373490005731582642 2.05307292938232422 11 34 51
-0.0105499997735023499 0.0388870015740394592 2.05374789237976074 4 27 43
-0.0105799995362758636 0.0405259989202022552 2.05956196784973145 5 27 44
-0.0105499997735023499 0.041937999427318573 2.05376100540161133 5 26 43
-0.0105710001662373543 0.0435490012168884277 2.05783295631408691 4 25 42
-0.0105640003457665443 0.0450510010123252869 2.05658102035522461 3 24 41
-0.0105469999834895134 0.0465000011026859283 2.05314803123474121 0 21 38
-0.010518999770283699 0.0478999987244606018 2.04777097702026367 0 19 36
-0.0105379996821284294 0.0495099984109401703 2.05148100852966309 0 15 33
-0.0105459997430443764 0.0510729998350143433 2.05303788185119629 0 8 29
-0.0105419997125864029 0.0525779984891414642 2.05229091644287109 0 13 36
-0.0105499997735023499 0.0541450008749961853 2.05387711524963379 4 19 41
-0.0105539998039603233 0.0556860007345676422 2.05446910858154297 5 22 41
-0.0105760004371404648 0.0573320016264915466 2.05875992774963379 2 19 38
-0.0105879995971918106 0.0589310005307197571 2.06120991706848145 0 15 35
-0.0106070004403591156 0.0605709999799728394 2.06491589546203613 0 14 33
-0.0105889998376369476 0.0619979985058307648 2.0613710880279541 4 21 37
-0.0106009999290108681 0.0636010020971298218 2.06371498107910156 14 33 49
-0.0106119997799396515 0.0652030035853385925 2.06589603424072266 13 32 47
-0.0105590000748634338 0.0664030015468597412 2.05554008483886719 13 32 47
-0.0105410004034638405 0.0678139999508857727 2.0520329475402832 10 30 45
-0.010534999892115593 0.0693010017275810242 2.05094003677368164 7 29 42
-0.010526999831199646 0.0707700029015541077 2.04936003684997559 6 28 41
-0.0105119999498128891 0.0721839964389801025 2.04630804061889648 5 27 40
-0.0105050001293420792 0.0736590027809143066 2.04505610466003418 5 27 40
-0.0105200000107288361 0.0752810016274452209 2.04785799980163574 7 26 40
-0.0104989996179938316 0.0766540020704269409 2.04389810562133789 6 25 39
-0.0105050001293420792 0.0782160013914108276 2.04505610466003418 6 23 39
-0.0105100004002451897 0.0797690004110336304 2.04592609405517578 6 22 39
-0.0105860000476241112 0.083411000669002533 2.0608220100402832 11 23 42
-0.0105440001934766769 0.0846019983291625977 2.05257606506347656 13 24 42
-0.010528000071644783 0.0859960019588470459 2.04945707321166992 13 24 41
-0.01052900031208992 0.0875290036201477051 2.04970192909240723 9 20 37
-0.0104759996756911278 0.0886059999465942383 2.03945493698120117 9 21 37
-0.0104580000042915344 0.0899600014090538025 2.03582596778869629 8 20 36
-0.0104700000956654549 0.0915829986333847046 2.03829097747802734 7 19 36
-0.0104679996147751808 0.0930769965052604675 2.03783798217773438 6 18 35
-0.0104419998824596405 0.0943519994616508484 2.03271293640136719 6 17 35
-0.0104660000652074814 0.0960810035467147827 2.03734588623046875 6 17 36
-0.010518999770283699 0.0980940014123916626 2.04778099060058594 6 17 34
-0.0105699999257922173 0.100100003182888031 2.05776095390319824 5 17 32
-0.0105170002207159996 0.102632001042366028 2.04729294776916504 4 16 30
-0.0104820001870393753 0.105328001081943512 2.04059600830078125 2 14 28
-0.0104719996452331543 0.106743998825550079 2.03868293762207031 2 14 28
-0.0105079999193549156 0.110145002603530884 2.04560494422912598 0 12 26
-0.0105229998007416725 0.111823998391628265 2.0485389232635498 0 12 26
-0.0107260001823306084 0.115535996854305267 2.0881199836730957 0 12 26
-0.0107530001550912857 0.117377996444702148 2.09331488609313965 1 13 27
-0.0107899997383356094 0.119336001574993134 2.10040593147277832 1 13 27
-0.010780000127851963 0.120791003108024597 2.09857392311096191 3 15 29
-0.0107620004564523697 0.125255003571510315 2.09502601623535156 4 16 30
-0.0108559997752308846 0.129488006234169006 2.11332201957702637 3 15 29
-0.0109609998762607574 0.137080997228622437 2.13376998901367188 2 16 29
-0.010959000326693058 0.138635993003845215 2.13331103324890137 3 17 28
-0.0109890000894665718 0.140613004565238953 2.13929009437561035 3 16 27
-0.0110170003026723862 0.142555996775627136 2.14461398124694824 2 15 24
-0.0110229998826980591 0.144233003258705139 2.14586305618286133 0 12 19
-0.0110579999163746834 0.146287992596626282 2.15265393257141113 2 13 19
-0.011029999703168869 0.147517994046211243 2.14727401733398438 6 15 22
-0.011029999703168869 0.149112999439239502 2.14727401733398438 3 10 18
-0.0110109997913241386 0.150438994169235229 2.1434481143951416 0 3 11
-0.0109400004148483276 0.151054993271827698 2.12969088554382324 0 2 11
-0.0109329996630549431 0.152536004781723022 2.12827801704406738 5 9 20
-0.0109280003234744072 0.154045000672340393 2.1272881031036377 5 7 17
-0.0109099997207522392 0.155369997024536133 2.12379789352416992 58 65 73
-0.0109550002962350845 0.159181997179985046 2.13260102272033691 242 242 247
-0.0109249996021389961 0.185607999563217163 2.12684488296508789 164 166 169
-0.010950000025331974 0.187604993581771851 2.13158202171325684 149 155 154
-0.0109040001407265663 0.188400998711585999 2.12271404266357422 147 157 149
-0.0109329996630549431 0.190483003854751587 2.12836003303527832 155 167 152
-0.0110170003026723862 0.193544000387191772 2.14475798606872559 158 171 151
-0.0110910004004836082 0.196446001529693604 2.15914607048034668 158 172 148
-0.0108470004051923752 0.201534003019332886 2.11163496971130371 164 174 154
-0.0108799999579787254 0.203712001442909241 2.11797308921813965 165 173 158
-0.0102469995617866516 -0.229523003101348877 2.33200311660766602 168 166 175
-0.0102559998631477356 -0.227991998195648193 2.3340609073638916 157 155 163
-0.0102739995345473289 -0.226653993129730225 2.33814907073974609 148 147 155
-0.010285000316798687 -0.22516399621963501 2.34071207046508789 147 146 154
-0.0102580003440380096 -0.222830995917320251 2.33448410034179688 151 150 157
-0.0102869998663663864 -0.22171899676322937 2.34105110168457031 156 155 161
-0.0102310003712773323 -0.218788996338844299 2.32837605476379395 162 162 166
-0.0102519998326897621 -0.217508003115653992 2.33318495750427246 166 166 168
-0.0102049997076392174 -0.199251994490623474 2.32239699363708496 169 168 173
-0.0101650003343820572 -0.196766003966331482 2.31344103813171387 167 166 171
-0.0101640000939369202 -0.195012003183364868 2.31302499771118164 169 168 173
-0.00989000033587217331 -0.112859003245830536 2.2507328987121582 112 138 167
