ply
format ascii 1.0
element vertex 674
property float x
property float y
property float z
property uchar red
property uchar green
property uchar blue
end_header
0.428728014230728149 -0.0454219989478588104 2.14506101608276367 5 21 29
0.428003013134002686 -0.0437549985945224762 2.14143610000610352 5 21 30
0.429637014865875244 -0.0423250012099742889 2.14961004257202148 0 16 26
0.429316014051437378 -0.0406979992985725403 2.14800310134887695 0 16 27
0.42984500527381897 -0.0391499996185302734 2.15064811706542969 0 15 28
0.430323004722595215 -0.0375950001180171967 2.15303897857666016 1 15 28
0.429224997758865356 -0.0359040014445781708 2.14754796028137207 1 16 27
0.428054004907608032 -0.0342149995267391205 2.14168691635131836 1 16 26
0.427199006080627441 -0.0325589999556541443 2.13741207122802734 1 15 26
0.426656991243362427 -0.0309319999068975449 2.13469910621643066 1 15 26
0.429084986448287964 -0.0295139998197555542 2.14684891700744629 2 16 25
0.429513990879058838 -0.0279469992965459824 2.14899396896362305 0 17 25
0.43011900782585144 -0.0263880006968975067 2.15201997756958008 0 16 25
0.430543988943099976 -0.0248140003532171249 2.15415000915527344 2 16 25
0.430350005626678467 -0.0232030004262924194 2.15317606925964355 2 16 25
0.43004000186920166 -0.0215879995375871658 2.15162801742553711 2 16 25
0.430005013942718506 -0.0199890006333589554 2.15144896507263184 2 16 25
0.430377990007400513 -0.0184070002287626266 2.15331506729125977 2 16 25
0.430451005697250366 -0.016809999942779541 2.15368199348449707 2 15 24
0.430117011070251465 -0.0151990000158548355 2.15200901031494141 2 15 24
0.430018991231918335 -0.013597000390291214 2.1515200138092041 2 15 24
0.430518001317977905 -0.0120130004361271858 2.15401911735534668 2 15 24
0.431416988372802734 -0.0104350000619888306 2.15851306915283203 2 15 24
0.432058006525039673 -0.00884400028735399246 2.16172289848327637 2 15 24
0.431299000978469849 -0.00722600007429718971 2.15792489051818848 3 14 24
0.431230992078781128 -0.00562199996784329414 2.15758705139160156 4 14 23
0.431326001882553101 -0.00402100011706352234 2.15806102752685547 1 13 20
0.431318014860153198 -0.00241800001822412014 2.15802001953125 0 13 19
0.426883995532989502 -0.000806000025477260351 2.13583588600158691 0 13 19
0.419876009225845337 0.000767000019550323486 2.10077309608459473 0 13 19
0.416530013084411621 0.00385700003243982792 2.08403110504150391 0 13 19
0.4203299880027771 0.0054540000855922699 2.10304498672485352 2 13 19
0.426694989204406738 0.0102939996868371964 2.13488888740539551 0 10 16
0.417809009552001953 0.0193959996104240417 2.09043192863464355 0 6 11
0.421858012676239014 0.024287000298500061 2.11069011688232422 0 2 1
0.424621999263763428 0.0260240007191896439 2.12451910972595215 0 2 1
0.42584499716758728 0.0276820007711648941 2.13063502311706543 0 1 2
0.421451002359390259 0.0336610004305839539 2.10865092277526855 0 1 2
0.407759010791778564 0.194710999727249146 2.04014801979064941 0 2 6
0.431149989366531372 -0.0710510015487670898 2.14919304847717285 166 169 173
0.431549012660980225 -0.0695189982652664185 2.15117907524108887 130 135 137
0.431327998638153076 -0.0678860023617744446 2.15007901191711426 91 96 99
0.431196004152297974 -0.0662690028548240662 2.14942288398742676 60 65 69
0.431436985731124878 -0.064709000289440155 2.1506199836730957 38 41 46
0.431042999029159546 -0.0630540028214454651 2.14865899085998535 24 29 35
0.431836992502212524 -0.0615709982812404633 2.15261697769165039 11 17 27
0.432260990142822266 -0.0600310005247592926 2.15472793579101562 2 6 18
0.432419002056121826 -0.0584519989788532257 2.15551996231079102 0 2 16
0.432399988174438477 -0.0568480007350444794 2.15542101860046387 3 7 21
0.432262003421783447 -0.0552299991250038147 2.15473699569702148 8 12 26
0.432045012712478638 -0.0536019988358020782 2.15365290641784668 6 11 23
0.431535989046096802 -0.0519409999251365662 2.15111398696899414 5 11 22
0.431535989046096802 -0.0503429993987083435 2.15111398696899414 5 15 25
0.43191799521446228 -0.0487889982759952545 2.15301799774169922 7 19 28
0.430776000022888184 -0.047065000981092453 2.14732909202575684 7 20 28
0.430189013481140137 -0.0454079993069171906 2.14440298080444336 3 17 26
0.430339008569717407 -0.0438299998641014099 2.14514708518981934 0 15 24
0.429612010717391968 -0.0421659983694553375 2.1415259838104248 0 16 26
0.430579006671905518 -0.0406659990549087524 2.1463470458984375 0 16 26
0.431941986083984375 -0.0391959995031356812 2.15314102172851562 0 15 28
0.429392009973526001 -0.0373749993741512299 2.14043092727661133 0 15 27
0.428719997406005859 -0.0357289984822273254 2.13708090782165527 0 16 26
0.429475009441375732 -0.0342009998857975006 2.14084100723266602 0 16 25
0.429401010274887085 -0.0326059982180595398 2.14047598838806152 0 16 25
0.427827000617980957 -0.0309020001441240311 2.13262701034545898 1 15 24
0.429356992244720459 -0.0294230002909898758 2.14025497436523438 3 17 26
0.429998010396957397 -0.0278750006109476089 2.1434481143951416 3 17 26
0.430721014738082886 -0.0263270009309053421 2.14705491065979004 3 17 26
0.431769996881484985 -0.0247920006513595581 2.15228104591369629 4 17 26
0.431789994239807129 -0.0231950003653764725 2.15238308906555176 4 17 26
0.431829988956451416 -0.0215980000793933868 2.15258097648620605 4 17 26
0.431380987167358398 -0.0199779998511075974 2.15034604072570801 4 17 26
0.431432992219924927 -0.0183830000460147858 2.15060210227966309 4 17 26
0.431535989046096802 -0.0167900007218122482 2.15111398696899414 3 16 25
0.431567013263702393 -0.0151930004358291626 2.15126800537109375 3 16 25
0.431342989206314087 -0.01358800008893013 2.15015292167663574 4 15 24
0.431483000516891479 -0.0119949998334050179 2.15085411071777344 4 15 24
0.432846009731292725 -0.0104299997910857201 2.15764403343200684 4 15 24
0.432797998189926147 -0.00882699992507696152 2.1574089527130127 4 15 24
0.432660996913909912 -0.00722200004383921623 2.15672492980957031 4 14 24
0.432567000389099121 -0.00561900017783045769 2.15625596046447754 4 14 24
0.432172000408172607 -0.00401399983093142509 2.15428709983825684 1 14 22
0.431407004594802856 -0.00240899994969367981 2.15047407150268555 1 14 20
0.422441005706787109 0.000768999976571649313 2.10577988624572754 1 14 20
0.416314989328384399 0.003840999910607934 2.07524204254150391 1 14 20
0.418222993612289429 0.00540699996054172516 2.08475303649902344 1 14 20
0.423382014036178589 0.00704099982976913452 2.11047005653381348 1 14 20
0.431571006774902344 0.011970999650657177 2.15128898620605469 0 10 15
0.431127995252609253 0.0151509996503591537 2.14908409118652344 0 8 13
0.435187011957168579 0.01851700060069561 2.16931796073913574 0 7 13
0.42733299732208252 0.0245110001415014267 2.13016295433044434 0 2 2
0.424887001514434814 0.0259440001100301743 2.11797308921813965 0 2 2
0.428036004304885864 0.0277210008352994919 2.13367199897766113 0 1 3
0.429313987493515015 0.029394000768661499 2.14004111289978027 0 1 3
0.410259008407592773 0.0736590027809143066 2.04505610466003418 2 11 24
0.412169992923736572 0.0755280032753944397 2.05458307266235352 0 10 20
0.410677999258041382 0.0767749994993209839 2.04714393615722656 0 9 18
0.40168800950050354 0.0780690014362335205 2.00232911109924316 0 11 17
0.406446993350982666 0.193366006016731262 2.02605509757995605 0 2 7
0.433066010475158691 -0.0663110017776489258 2.15077996253967285 159 163 165
0.432924002408981323 -0.0646919980645179749 2.15007495880126953 126 132 134
0.433091998100280762 -0.0631200000643730164 2.15090703964233398 94 100 105
0.433160990476608276 -0.0615319982171058655 2.15125203132629395 62 68 76
0.433091998100280762 -0.059923999011516571 2.15090703964233398 35 40 50
0.433353006839752197 -0.0583619996905326843 2.15220499038696289 21 22 35
0.434172004461288452 -0.0568710006773471832 2.15627098083496094 10 12 27
0.434370994567871094 -0.0552939996123313904 2.15726208686828613 1 3 18
0.433997005224227905 -0.0536459982395172119 2.15540409088134766 0 2 15
0.433095991611480713 -0.0519369989633560181 2.15092897415161133 0 3 14
0.433063000440597534 -0.0503350012004375458 2.15076494216918945 2 9 20
0.433674007654190063 -0.0488060005009174347 2.15379810333251953 6 17 26
0.431679010391235352 -0.0469890013337135315 2.14388895034790039 7 20 29
0.43256300687789917 -0.0454900003969669342 2.14828395843505859 5 18 27
0.431194990873336792 -0.0437560006976127625 2.14148592948913574 2 17 26
0.431171000003814697 -0.0421629995107650757 2.14136695861816406 0 17 27
0.430467993021011353 -0.0405060015618801117 2.1378779411315918 0 17 27
0.431964993476867676 -0.0390530005097389221 2.14531302452087402 0 17 28
0.431986004114151001 -0.0374619998037815094 2.14541411399841309 0 17 27
0.430548995733261108 -0.0357489995658397675 2.13827705383300781 0 17 26
0.430541008710861206 -0.0341599993407726288 2.13823890686035156 0 18 25
0.430188000202178955 -0.0325450003147125244 2.13648700714111328 0 18 25
0.428950995206832886 -0.0308689996600151062 2.13034391403198242 0 17 25
0.429572999477386475 -0.0293290000408887863 2.13343405723571777 4 18 26
0.430961012840270996 -0.0278340000659227371 2.14032793045043945 4 18 26
0.431484997272491455 -0.0262759998440742493 2.14292693138122559 5 18 26
0.431959003210067749 -0.0247120000422000885 2.14528298377990723 5 18 26
0.432267993688583374 -0.0231350008398294449 2.14681506156921387 5 18 26
0.432810992002487183 -0.021567000076174736 2.14951300621032715 5 18 26
0.433153003454208374 -0.0199859999120235443 2.15121102333068848 4 17 26
0.433014005422592163 -0.0183830000460147858 2.15052294731140137 4 17 26
0.432328999042510986 -0.0167590007185935974 2.14712095260620117 3 16 25
0.432478994131088257 -0.0151690002530813217 2.14786410331726074 3 16 25
0.43271300196647644 -0.0135810002684593201 2.14902806282043457 4 15 25
0.432617992162704468 -0.011982000432908535 2.14855289459228516 5 15 25
0.433649986982345581 -0.0104109998792409897 2.15368199348449707 5 15 25
0.433221012353897095 -0.00880299974232912064 2.15155196189880371 5 15 25
0.433602988719940186 -0.00721100019291043282 2.15344810485839844 5 15 25
0.432940006256103516 -0.00560300005599856377 2.15015292167663574 5 15 24
0.432081013917922974 -0.00399800017476081848 2.1458890438079834 1 14 20
0.433057993650436401 -0.00240999995730817318 2.15073895454406738 1 14 20
0.4330730140209198 -0.000812000012956559658 2.15081596374511719 1 14 20
0.424239009618759155 0.00859399978071451187 2.10694003105163574 0 12 18
0.429040998220443726 0.0102739995345473289 2.13079190254211426 0 11 17
0.429975003004074097 0.0134690003469586372 2.13542699813842773 0 10 14
0.437662988901138306 0.0185529999434947968 2.17360997200012207 0 8 13
0.434531986713409424 0.020022999495267868 2.15806102752685547 0 8 11
0.424777001142501831 0.0227080006152391434 2.10961604118347168 0 4 3
0.427024006843566895 0.0244030002504587173 2.1207740306854248 0 3 3
0.427024006843566895 0.0259780008345842361 2.1207740306854248 0 3 4
0.427500009536743164 0.0275839995592832565 2.1231379508972168 0 2 4
0.429040998220443726 0.0292670000344514847 2.13079190254211426 0 1 5
0.42999500036239624 0.030918000265955925 2.13552689552307129 0 1 4
0.429114013910293579 0.0324370004236698151 2.13115096092224121 0 1 3
0.424140006303787231 0.0367549993097782135 2.10644888877868652 0 0 0
0.406026005744934082 0.0681369975209236145 2.01648688316345215 9 18 27
0.40822601318359375 0.0700120031833648682 2.02741599082946777 5 13 26
0.408953994512557983 0.071644999086856842 2.03102803230285645 4 12 26
0.409529000520706177 0.0732569992542266846 2.03388404846191406 2 11 22
0.410879999399185181 0.0750140026211738586 2.04059600830078125 0 10 19
0.411983013153076172 0.0767349973320960999 2.04607391357421875 0 9 16
0.43398699164390564 -0.0678030028939247131 2.14743304252624512 220 223 221
0.434628993272781372 -0.0615129992365837097 2.15060997009277344 151 155 162
0.434594005346298218 -0.0599110014736652374 2.1504359245300293 122 124 134
0.434798985719680786 -0.0583410002291202545 2.15144896507263184 93 94 106
0.435057014226913452 -0.0567770004272460938 2.15272903442382812 61 63 76
0.434839010238647461 -0.0551499985158443451 2.15164995193481445 32 33 48
0.435072988271713257 -0.0535809993743896484 2.15280508995056152 18 20 34
0.43517601490020752 -0.0519939996302127838 2.15331506729125977 6 8 20
0.435194998979568481 -0.0503970012068748474 2.15340900421142578 0 4 16
0.434767007827758789 -0.0487499982118606567 2.15128898620605469 1 8 18
0.433993995189666748 -0.0470679998397827148 2.14746594429016113 3 13 23
0.433791995048522949 -0.0454519987106323242 2.14646792411804199 4 17 26
0.433800011873245239 -0.0438579991459846497 2.14650797843933105 4 19 28
0.43258899450302124 -0.042146001011133194 2.14051389694213867 2 19 29
0.431632012128829956 -0.0404659993946552277 2.13577699661254883 2 19 29
0.431685000658035278 -0.0388850010931491852 2.13604092597961426 1 19 29
0.432298988103866577 -0.0373510010540485382 2.13908195495605469 1 19 29
0.433182001113891602 -0.0358350016176700592 2.1434481143951416 0 20 28
0.431609004735946655 -0.034118998795747757 2.13566398620605469 0 20 27
0.429522007703781128 -0.0323750004172325134 2.12533998489379883 0 20 27
0.429695010185241699 -0.0308090001344680786 2.12619400024414062 1 20 26
0.430913001298904419 -0.0293119996786117554 2.13222002983093262 4 18 26
0.431124001741409302 -0.0277420002967119217 2.13326597213745117 5 18 26
0.431668013334274292 -0.0261909998953342438 2.1359550952911377 5 18 26
0.431769013404846191 -0.0246099997311830521 2.13645601272583008 5 18 26
0.431872010231018066 -0.0230289995670318604 2.13696908950805664 5 18 26
0.433434993028640747 -0.0215189997106790543 2.1446990966796875 5 18 26
0.434233009815216064 -0.0199629999697208405 2.14864993095397949 5 18 26
0.434127002954483032 -0.018362000584602356 2.14812707901000977 4 17 26
0.433182001113891602 -0.0167299993336200714 2.1434481143951416 3 16 25
0.432209014892578125 -0.0151040004566311836 2.13863396644592285 3 16 25
0.431612998247146606 -0.013496999628841877 2.13568496704101562 4 16 25
0.432796001434326172 -0.0119430003687739372 2.1415400505065918 4 16 25
0.433290004730224609 -0.0103639997541904449 2.14398097991943359 4 16 25
0.432900995016098022 -0.00876399967819452286 2.1420600414276123 4 16 25
0.432590991258621216 -0.00716800009831786156 2.14052700996398926 4 16 25
0.43164399266242981 -0.00556600000709295273 2.13583588600158691 4 16 24
0.430516988039016724 -0.0039690001867711544 2.13026189804077148 2 15 21
0.429076999425888062 -0.00237899995408952236 2.1231379508972168 1 14 20
0.426578998565673828 -0.000797000015154480934 2.11077594757080078 1 14 20
0.427092999219894409 0.000771999999415129423 2.11332201957702637 1 14 20
0.426180005073547363 0.00390299991704523563 2.10880398750305176 1 14 20
0.426905989646911621 0.00547900004312396049 2.11239409446716309 1 14 20
0.426048010587692261 0.0101650003343820572 2.10815000534057617 0 12 18
0.435979008674621582 0.0168120004236698151 2.1572868824005127 0 10 15
0.436628013849258423 0.0184409990906715393 2.16049790382385254 0 9 14
0.431899011135101318 0.0214159991592168808 2.1371009349822998 0 7 9
0.424796998500823975 0.0226249992847442627 2.1019589900970459 0 5 5
0.425300002098083496 0.0242149997502565384 2.10444903373718262 0 4 5
0.426678985357284546 0.0258620008826255798 2.11126995086669922 0 4 6
0.428135007619857788 0.0275240000337362289 2.11847496032714844 0 3 5
0.427092999219894409 0.0290270000696182251 2.11332201957702637 0 2 6
0.429457008838653564 0.0307659991085529327 2.1250150203704834 0 2 5
0.43083500862121582 0.0324480012059211731 2.13183689117431641 1 2 4
0.423891007900238037 0.0365989990532398224 2.09747600555419922 0 0 0
0.426629990339279175 0.038403000682592392 2.11102890968322754 0 0 0
0.40622401237487793 0.0664269998669624329 2.01005697250366211 7 13 17
0.409020990133285522 0.0683870017528533936 2.02389407157897949 8 16 22
0.407714992761611938 0.0696669965982437134 2.01743602752685547 3 10 21
0.409494996070861816 0.0714759975671768188 2.02624201774597168 2 10 22
0.409893006086349487 0.0730530023574829102 2.0282139778137207 1 10 20
0.409812986850738525 0.0745439976453781128 2.02781796455383301 1 10 17
0.412209987640380859 0.0764949992299079895 2.03967499732971191 0 10 16
0.407979011535644531 0.099702000617980957 2.01874303817749023 0 4 7
0.415612995624542236 0.196272999048233032 2.05651307106018066 0 2 9
0.436406999826431274 -0.0567450001835823059 2.15149903297424316 157 156 168
0.43608701229095459 -0.0551059991121292114 2.14991998672485352 127 126 139
0.43613201379776001 -0.0535149984061717987 2.15014410018920898 89 89 102
0.435424000024795532 -0.0518330000340938568 2.14665102958679199 45 47 59
0.435185998678207397 -0.0502119995653629303 2.14548110961914062 13 15 27
0.437234014272689819 -0.0488470010459423065 2.1555778980255127 2 3 14
0.435074001550674438 -0.0470120012760162354 2.144927978515625 0 5 14
0.434866994619369507 -0.0453969985246658325 2.14390707015991211 0 10 19
0.434736013412475586 -0.0437919981777667999 2.14325904846191406 2 15 24
0.433739989995956421 -0.0421029999852180481 2.1383519172668457 7 21 31
0.433108001947402954 -0.0404560007154941559 2.13523507118225098 5 22 32
0.433481007814407349 -0.0389030016958713531 2.13707208633422852 5 23 32
0.432494997978210449 -0.0372309982776641846 2.13221001625061035 4 23 30
0.433084011077880859 -0.0356959998607635498 2.13511395454406738 3 23 30
0.432722985744476318 -0.0340819992125034332 2.13333702087402344 3 24 30
0.432094007730484009 -0.0324500016868114471 2.13023805618286133 4 24 29
0.43046298623085022 -0.0307509992271661758 2.12219500541687012 4 23 29
0.431939989328384399 -0.0292750000953674316 2.12947702407836914 4 18 26
0.43268701434135437 -0.0277410000562667847 2.13315701484680176 5 18 26
0.432345002889633179 -0.0261359997093677521 2.13147401809692383 5 18 26
0.433890014886856079 -0.0246399994939565659 2.13909196853637695 5 18 26
0.434000998735427856 -0.0230570007115602493 2.13963603973388672 5 18 26
0.434608012437820435 -0.0214980002492666245 2.14263010025024414 5 18 26
0.436221003532409668 -0.0199810005724430084 2.15058398246765137 5 18 26
0.436356991529464722 -0.0183889996260404587 2.15125203132629395 4 17 25
0.435874998569488525 -0.0167730003595352173 2.14887905120849609 4 17 25
0.434179008007049561 -0.0151169998571276665 2.14051389694213867 4 17 25
0.433661013841629028 -0.0135110002011060715 2.13796210289001465 4 17 25
0.433261007070541382 -0.0119120003655552864 2.13599109649658203 4 17 25
0.434967994689941406 -0.010366000235080719 2.14440298080444336 4 17 25
0.433068007230758667 -0.00873500015586614609 2.13503789901733398 4 17 25
0.433450013399124146 -0.00715600000694394112 2.13691997528076172 4 17 25
0.433272004127502441 -0.00556600000709295273 2.13604092597961426 4 17 25
0.43017500638961792 -0.00395100004971027374 2.1207740306854248 2 15 22
0.429488986730575562 -0.00237199990078806877 2.11739301681518555 2 15 21
0.428140997886657715 -0.000797000015154480934 2.1107490062713623 2 15 21
0.42791101336479187 0.000769999984186142683 2.10961604118347168 2 15 21
0.431376010179519653 0.0023560000117868185 2.1266939640045166 2 15 21
0.426912993192672729 0.00545899989083409309 2.10469388961791992 2 15 21
0.426912993192672729 0.00702199991792440414 2.10469388961791992 2 15 21
0.423602014780044556 0.00851900037378072739 2.08837199211120605 1 14 20
0.423869013786315918 0.0100760003551840782 2.08968806266784668 0 13 19
0.427462011575698853 0.0117269996553659439 2.10739803314208984 0 12 18
0.427462011575698853 0.0132919996976852417 2.10739803314208984 0 12 18
0.432462006807327271 0.0166149996221065521 2.13205099105834961 0 11 17
0.427854001522064209 0.0227049998939037323 2.10933089256286621 0 6 8
0.425132006406784058 0.02411700040102005 2.09591507911682129 0 5 7
0.427419006824493408 0.0273770000785589218 2.10718989372253418 0 3 6
0.428115993738174438 0.0289900004863739014 2.11062502861022949 0 3 6
0.428115993738174438 0.030556999146938324 2.11062502861022949 0 2 6
0.429773986339569092 0.0322489999234676361 2.11879611015319824 0 2 5
0.428021997213363647 0.0336849987506866455 2.11016106605529785 0 2 3
0.424560993909835815 0.0365220010280609131 2.09309601783752441 0 0 0
0.425785988569259644 0.0381870009005069733 2.09913802146911621 0 0 0
0.427836000919342041 0.0399370007216930389 2.10924506187438965 1 1 0
0.407541006803512573 0.0678900033235549927 2.00918889045715332 3 7 12
0.410872012376785278 0.0714540034532546997 2.02560901641845703 0 7 16
0.41032099723815918 0.0728610008955001831 2.02289199829101562 0 8 17
0.410484999418258667 0.0743929967284202576 2.02370095252990723 1 8 15
0.410627007484436035 0.0759230032563209534 2.02440500259399414 0 10 15
0.419205009937286377 0.197245001792907715 2.06669306755065918 0 2 7
0.437756985425949097 -0.0583099983632564545 2.15027904510498047 220 219 225
0.437658011913299561 -0.056699998676776886 2.14979410171508789 218 216 226
0.436897993087768555 -0.0518190003931522369 2.14606189727783203 135 134 146
0.437617003917694092 -0.0503080002963542938 2.14959192276000977 74 75 87
0.438454985618591309 -0.0488040000200271606 2.15370798110961914 24 25 36
0.436446011066436768 -0.0469879992306232452 2.14384293556213379 5 6 16
0.437911003828048706 -0.0455479994416236877 2.15103507041931152 1 4 13
0.435626000165939331 -0.0437210015952587128 2.13981294631958008 1 7 16
0.435059994459152222 -0.0420770011842250824 2.13703489303588867 4 18 27
0.435036987066268921 -0.0404880009591579437 2.13691997528076172 3 17 26
0.434390008449554443 -0.0388429984450340271 2.13373994827270508 2 19 27
0.433854997158050537 -0.0372119992971420288 2.13111400604248047 1 18 26
0.433867990970611572 -0.0356299988925457001 2.1311790943145752 0 17 24
0.435007989406585693 -0.0341369993984699249 2.13677811622619629 2 21 27
0.434311002492904663 -0.0324969999492168427 2.13335299491882324 4 21 27
0.433777987957000732 -0.0308749992400407791 2.13073301315307617 2 13 20
0.434015989303588867 -0.0293080005794763565 2.13190698623657227 11 25 31
0.434980988502502441 -0.0277859997004270554 2.13664388656616211 10 23 29
0.435319006443023682 -0.0262199994176626205 2.13830399513244629 7 20 26
0.435770988464355469 -0.0246569998562335968 2.14052700996398926 5 18 24
0.435452014207839966 -0.0230500008910894394 2.13895606994628906 5 18 24
0.435676008462905884 -0.0214719995856285095 2.14005804061889648 5 18 25
0.436989009380340576 -0.0199430007487535477 2.14650797843933105 6 19 26
0.437756985425949097 -0.0183809995651245117 2.1502830982208252 6 19 25
0.437236011028289795 -0.0167629998177289963 2.1477200984954834 4 17 23
0.436461001634597778 -0.0151410000398755074 2.14391589164733887 4 17 23
0.434929996728897095 -0.0135009996592998505 2.13639402389526367 4 17 24
0.434358000755310059 -0.0118990000337362289 2.13358402252197266 5 18 24
0.434437006711959839 -0.0103160003200173378 2.13397097587585449 4 19 25
0.434570997953414917 -0.00873399991542100906 2.13463091850280762 5 19 25
0.434662014245986938 -0.0071499999612569809 2.13507795333862305 5 19 25
0.434206992387771606 -0.00555799994617700577 2.13284206390380859 5 19 25
0.433914005756378174 -0.00397100020200014114 2.13140296936035156 2 15 21
0.433387011289596558 -0.00238499999977648258 2.12881588935852051 2 14 20
0.429387986660003662 -0.000796000007539987564 2.10917210578918457 1 14 20
0.43280598521232605 0.0023560000117868185 2.12596297264099121 1 14 20
0.43083798885345459 0.00391699979081749916 2.11629605293273926 1 14 20
0.430635988712310791 0.00862799957394599915 2.11530399322509766 1 14 20
0.433858990669250488 0.015025000087916851 2.13113188743591309 0 12 18
0.434046000242233276 0.0166149996221065521 2.13205099105834961 1 12 18
0.434563994407653809 0.0182199999690055847 2.13459897041320801 0 12 17
0.434439986944198608 0.0197999998927116394 2.1339879035949707 0 12 16
0.435070008039474487 0.0214159991592168808 2.13708090782165527 0 10 12
0.433903992176055908 0.0229419991374015808 2.13135695457458496 0 7 10
0.433349013328552246 0.0244939997792243958 2.12862896919250488 0 6 9
0.426167994737625122 0.0256430003792047501 2.09335589408874512 0 5 9
0.43050798773765564 0.0274739991873502731 2.11467289924621582 0 4 8
0.431315004825592041 0.0291000008583068848 2.11863899230957031 0 3 7
0.432534009218215942 0.0307599995285272598 2.12462711334228516 0 3 6
0.432217001914978027 0.0323139987885951996 2.12306594848632812 0 3 6
0.432206988334655762 0.0338909998536109924 2.12301898002624512 0 2 4
0.413215994834899902 0.0700920000672340393 2.02973389625549316 0 3 8
0.414748996496200562 0.0718649998307228088 2.03726291656494141 0 4 11
0.412059009075164795 0.0729029998183250427 2.02405309677124023 0 7 14
0.412090003490447998 0.0744120031595230103 2.02420496940612793 0 7 14
0.413343995809555054 0.0761459991335868835 2.030364990234375 1 9 15
0.422302991151809692 0.196436002850532532 2.07436800003051758 0 2 6
0.421350002288818359 0.199067994952201843 2.0696868896484375 0 3 6
0.419414013624191284 0.199682995676994324 2.06017708778381348 0 3 6
0.412577003240585327 0.219007998704910278 2.02659797668457031 0 2 0
0.438933998346328735 -0.050276000052690506 2.14822602272033691 165 164 174
0.439920991659164429 -0.0487900003790855408 2.15305590629577637 119 120 128
0.438412010669708252 -0.0470280013978481293 2.14566802978515625 71 75 82
0.43824198842048645 -0.0454169996082782745 2.14483809471130371 27 35 41
0.438019990921020508 -0.0438020005822181702 2.14374995231628418 1 10 17
0.43647998571395874 -0.0420610010623931885 2.1362159252166748 0 10 19
0.436219006776809692 -0.0404499992728233337 2.13493704795837402 3 16 25
0.436598002910614014 -0.0388979986310005188 2.13679194450378418 13 28 37
0.435662001371383667 -0.0372309982776641846 2.13221311569213867 13 30 38
0.436322987079620361 -0.0357009992003440857 2.13544392585754395 9 26 33
0.435613006353378296 -0.0340600013732910156 2.1319730281829834 14 31 38
0.436186999082565308 -0.0325190015137195587 2.1347808837890625 16 34 40
0.436392992734909058 -0.0309480000287294388 2.13578701019287109 13 29 34
0.436237990856170654 -0.0293509997427463531 2.13502788543701172 5 18 24
0.43752598762512207 -0.02784699946641922 2.14133501052856445 5 18 24
0.438493996858596802 -0.026314999908208847 2.14607000350952148 6 19 25
0.439040988683700562 -0.0247520003467798233 2.14875006675720215 5 18 24
0.439089000225067139 -0.0231580007821321487 2.14898490905761719 5 18 24
0.43925398588180542 -0.0215700007975101471 2.14978909492492676 6 19 25
0.439334988594055176 -0.0199769996106624603 2.15018701553344727 7 20 26
0.438964009284973145 -0.0183639992028474808 2.14837002754211426 8 21 27
0.439408987760543823 -0.0167859997600317001 2.15054893493652344 5 18 24
0.437806993722915649 -0.0151329999789595604 2.14270901679992676 5 18 24
0.437162995338439941 -0.0135209998115897179 2.13955497741699219 5 18 24
0.435115009546279907 -0.0118760000914335251 2.12953400611877441 6 19 25
0.434812992811203003 -0.0102869998663663864 2.12805700302124023 5 20 25
0.434579014778137207 -0.00870199967175722122 2.12690997123718262 5 20 25
0.433061003684997559 -0.00709699979051947594 2.11947989463806152 6 21 26
0.432743996381759644 -0.00551899988204240799 2.11792898178100586 6 20 26
0.432502001523971558 -0.00394400022923946381 2.11674308776855469 2 15 21
0.432815998792648315 -0.00237299990840256214 2.11828398704528809 3 15 21
0.430523008108139038 -0.000796000007539987564 2.10705709457397461 2 15 21
0.430442988872528076 0.000768999976571649313 2.10666894912719727 2 15 21
0.431769996881484985 0.00234099989756941795 2.11316394805908203 2 15 21
0.429937988519668579 0.00389400008134543896 2.10419797897338867 2 15 21
0.431329011917114258 0.00547500001266598701 2.11100411415100098 1 14 20
0.430512011051177979 0.0085950000211596489 2.10700702667236328 1 14 20
0.427982985973358154 0.0100999996066093445 2.09462690353393555 1 14 20
0.429946988821029663 0.0132719995453953743 2.10423803329467773 1 14 20
0.431410998106002808 0.0148860001936554909 2.11140704154968262 1 14 20
0.431171000003814697 0.0164449997246265411 2.11023211479187012 1 14 20
0.431766003370285034 0.0180370006710290909 2.11314105987548828 1 14 20
0.432132989168167114 0.0227649994194507599 2.11493706703186035 0 9 12
0.431704998016357422 0.0243120007216930389 2.11284303665161133 0 8 11
0.430667996406555176 0.025818999856710434 2.10776710510253906 0 6 11
0.428256005048751831 0.0272310003638267517 2.0959620475769043 0 5 11
0.429289013147354126 0.0288580004125833511 2.10101795196533203 0 4 9
0.430765002965927124 0.0305230002850294113 2.10824489593505859 0 3 7
0.431333988904953003 0.032131001353263855 2.11102890968322754 0 3 6
0.430985987186431885 0.0336720012128353119 2.10932302474975586 0 2 4
0.430427998304367065 0.0351929999887943268 2.10659289360046387 0 1 2
0.431966990232467651 0.036889001727104187 2.11412501335144043 0 1 0
0.430768996477127075 0.039919000118970871 2.10826301574707031 0 1 0
0.430557012557983398 0.041464000940322876 2.1072239875793457 1 1 1
0.431158989667892456 0.044656999409198761 2.11017107963562012 1 1 1
0.409244000911712646 0.0691659972071647644 2.00291609764099121 1 4 7
0.412901997566223145 0.0712850019335746765 2.02082109451293945 0 3 7
0.413686007261276245 0.072924003005027771 2.02465510368347168 0 4 9
0.412432998418807983 0.074202999472618103 2.01852607727050781 0 6 11
0.413426011800765991 0.0758839994668960571 2.02338409423828125 1 7 12
0.411018013954162598 0.0769369974732398987 2.01160001754760742 3 12 16
0.42325100302696228 0.196162000298500061 2.07146906852722168 0 3 6
0.422838985919952393 0.197508007287979126 2.06945395469665527 0 3 6
0.420625001192092896 0.198002994060516357 2.05861806869506836 0 3 6
0.419423013925552368 0.198962002992630005 2.0527338981628418 0 3 6
0.413711994886398315 0.19775700569152832 2.02478408813476562 0 3 6
0.415183991193771362 0.206007003784179688 2.03198790550231934 0 1 3
0.40887799859046936 0.213282003998756409 2.00112295150756836 0 2 0
0.409391999244689941 0.215038999915122986 2.00363993644714355 0 2 0
0.413866996765136719 0.220397993922233582 2.02554202079772949 0 2 0
0.414490997791290283 0.222237005829811096 2.028594970703125 0 2 0
0.440007001161575317 -0.051810000091791153 2.14567399024963379 221 216 223
0.439754992723464966 -0.0501869991421699524 2.14444494247436523 217 215 222
0.438865005970001221 -0.0469070002436637878 2.1401059627532959 138 141 146
0.438928008079528809 -0.0453229993581771851 2.14041495323181152 76 81 86
0.438623011112213135 -0.0437030009925365448 2.13892793655395508 25 32 39
0.438663005828857422 -0.0421180017292499542 2.13912200927734375 0 7 15
0.437736988067626953 -0.0404440015554428101 2.13460707664489746 0 6 15
0.437139987945556641 -0.0388050004839897156 2.13169598579406738 5 16 25
0.437463998794555664 -0.0372500009834766388 2.13327693939208984 14 28 36
0.437056005001068115 -0.0356319993734359741 2.13128495216369629 9 23 31
0.437617003917694092 -0.0340920016169548035 2.13401889801025391 5 21 27
0.437613993883132935 -0.0325069986283779144 2.13400697708129883 11 26 32
0.437626004219055176 -0.0309229996055364609 2.1340630054473877 11 24 30
0.438890010118484497 -0.0294230002909898758 2.14022994041442871 4 17 23
0.440326988697052002 -0.0279239993542432785 2.14723491668701172 9 20 25
0.440824002027511597 -0.0263589993119239807 2.14966011047363281 11 22 27
0.441134005784988403 -0.024779999628663063 2.15117311477661133 10 22 26
0.441895991563796997 -0.0232219994068145752 2.15488505363464355 8 19 24
0.44252699613571167 -0.0216520000249147415 2.15796589851379395 6 18 22
0.44266200065612793 -0.0200549997389316559 2.15862298011779785 7 21 25
0.443102985620498657 -0.0184700004756450653 2.16077494621276855 10 23 27
0.443168014287948608 -0.0168680008500814438 2.16109299659729004 7 21 25
0.443069010972976685 -0.0152589995414018631 2.16060900688171387 7 20 25
0.443015992641448975 -0.0136529998853802681 2.16034889221191406 7 20 25
0.442705988883972168 -0.0120400004088878632 2.15883588790893555 7 21 25
0.44260600209236145 -0.0104339998215436935 2.15835189819335938 6 21 25
0.43443000316619873 -0.00709400000050663948 2.11848211288452148 6 21 24
0.433477014303207397 -0.00550800003111362457 2.11383390426635742 6 21 24
0.432574987411499023 -0.00393000012263655663 2.10943388938903809 4 17 23
0.433014005422592163 -0.0023660000879317522 2.11157608032226562 4 17 23
0.431401997804641724 -0.000793999992311000824 2.10371208190917969 4 17 23
0.429773986339569092 0.000765000004321336746 2.09577298164367676 3 16 22
0.432056993246078491 0.00233400007709860802 2.10690593719482422 3 16 22
0.429939001798629761 0.00387999997474253178 2.09657907485961914 3 16 22
0.431638985872268677 0.00545899989083409309 2.10486888885498047 3 16 22
0.433412998914718628 0.00705099990591406822 2.11352300643920898 3 16 22
0.432348012924194336 0.0086000002920627594 2.10832595825195312 1 14 20
0.430629998445510864 0.0101260002702474594 2.09994792938232422 1 14 20
0.431580007076263428 0.0164010003209114075 2.10458207130432129 1 14 20
0.431564003229141235 0.0179629996418952942 2.10450506210327148 1 14 20
0.432071000337600708 0.0195489991456270218 2.10697603225708008 1 14 20
0.429598987102508545 0.0256619993597269058 2.09491896629333496 0 7 12
0.428178995847702026 0.0286790002137422562 2.0879979133605957 0 4 10
0.428851991891860962 0.0302770007401704788 2.09127688407897949 0 4 9
0.430757999420166016 0.0319719985127449036 2.10057306289672852 0 3 7
0.430884987115859985 0.0335419997572898865 2.10119199752807617 0 2 4
0.430348008871078491 0.0350590012967586517 2.09857392311096191 0 1 3
0.429982990026473999 0.0365869998931884766 2.09679388999938965 0 1 2
0.431991994380950928 0.0383220016956329346 2.10659289360046387 0 2 0
0.429224997758865356 0.0396320000290870667 2.09309601783752441 0 1 0
0.429123014211654663 0.0411770008504390717 2.09260010719299316 1 1 1
0.429897993803024292 0.0428079999983310699 2.09637904167175293 1 1 1
0.431055992841720581 0.044484999030828476 2.10202598571777344 1 1 1
0.411063998937606812 0.0707110017538070679 2.00453901290893555 0 2 5
0.41271701455116272 0.0724899992346763611 2.01259589195251465 0 2 6
0.414763987064361572 0.0743520036339759827 2.02258205413818359 0 3 7
0.412627995014190674 0.075464002788066864 2.0121619701385498 0 3 7
0.41118699312210083 0.0766889974474906921 2.00513696670532227 4 10 14
0.411444991827011108 0.078227996826171875 2.00639605522155762 0 4 8
0.423871994018554688 0.19573800265789032 2.06699609756469727 0 2 4
0.42279401421546936 0.196770995855331421 2.06173610687255859 0 2 4
0.421090990304946899 0.197503998875617981 2.05343508720397949 0 2 4
0.416799992322921753 0.197000995278358459 2.03250694274902344 0 2 4
0.413884997367858887 0.197121992707252502 2.01829099655151367 0 2 4
0.415546000003814697 0.203934997320175171 2.02639508247375488 1 2 4
0.416007012128829956 0.205667003989219666 2.02863907814025879 0 1 3
0.413053005933761597 0.207199007272720337 2.01423501968383789 0 1 1
0.410418987274169922 0.216284006834030151 2.0013890266418457 0 2 0
0.414539992809295654 0.221459001302719116 2.02148890495300293 0 2 0
0.416610985994338989 0.224074006080627441 2.0315849781036377 0 2 0
0.439386993646621704 -0.045207001268863678 2.13491988182067871 139 144 148
0.439190000295639038 -0.0436020009219646454 2.13396310806274414 89 95 100
0.438677012920379639 -0.0419679991900920868 2.1314690113067627 33 40 47
0.439359009265899658 -0.0404470004141330719 2.1347808837890625 6 13 20
0.43961799144744873 -0.0388850010931491852 2.13604092597961426 0 5 13
0.438378006219863892 -0.037193000316619873 2.13001799583435059 2 9 18
0.438412994146347046 -0.0356130003929138184 2.13018488883972168 3 14 22
0.43900001049041748 -0.0340769998729228973 2.13303709030151367 6 17 25
0.438960999250411987 -0.0324900001287460327 2.13285088539123535 4 16 22
0.439788013696670532 -0.0309640001505613327 2.13686800003051758 4 16 22
0.441141992807388306 -0.0294669996947050095 2.1434481143951416 10 22 26
0.442494004964828491 -0.0279600005596876144 2.15001606941223145 14 25 29
0.441980987787246704 -0.026333000510931015 2.14752507209777832 16 27 31
0.442669004201889038 -0.0247760005295276642 2.15086603164672852 14 25 29
0.443053990602493286 -0.0231989994645118713 2.15273904800415039 8 19 23
0.443650007247924805 -0.0216290000826120377 2.15563392639160156 5 16 20
0.444768995046615601 -0.0200779996812343597 2.1610710620880127 7 20 23
0.444736987352371216 -0.0184719990938901901 2.16091704368591309 10 24 27
0.44507598876953125 -0.0168789997696876526 2.16256189346313477 8 22 25
0.444768995046615601 -0.0152629995718598366 2.1610710620880127 8 22 25
0.44452899694442749 -0.0136500000953674316 2.15990209579467773 8 22 25
0.445107996463775635 -0.012060999870300293 2.16271805763244629 7 22 25
0.44492301344871521 -0.0104510001838207245 2.1618199348449707 7 22 25
0.443917989730834961 -0.00882500037550926208 2.1569368839263916 6 21 24
0.444052010774612427 -0.00722499983385205269 2.15758705139160156 6 21 24
0.433587998151779175 -0.00392499985173344612 2.10674190521240234 5 18 24
0.434379994869232178 -0.00236500008031725883 2.11058998107910156 5 18 24
0.430483996868133545 -0.000790000020060688257 2.0916600227355957 5 18 24
0.429906994104385376 0.00386600010097026825 2.08885598182678223 5 18 24
0.429540008306503296 0.00541300000622868538 2.08707594871520996 5 18 24
0.432640999555587769 0.00701300008222460747 2.1021420955657959 5 18 24
0.429078996181488037 0.0131500000134110451 2.08483290672302246 2 15 21
0.428541988134384155 0.0146800000220537186 2.08222699165344238 2 15 21
0.429141998291015625 0.0162489991635084152 2.08514189720153809 2 15 21
0.429580986499786377 0.0178159996867179871 2.08727288246154785 2 15 21
0.434271007776260376 0.0211449991911649704 2.11005902290344238 1 13 18
0.435553997755050659 0.0227799993008375168 2.11629605293273926 1 11 15
0.429284989833831787 0.0271000005304813385 2.08583688735961914 0 6 14
0.426412999629974365 0.0284570008516311646 2.07188105583190918 0 5 12
0.428097993135452271 0.0301150009036064148 2.08006596565246582 0 5 10
0.428319990634918213 0.0316760018467903137 2.0811460018157959 0 4 8
0.429378986358642578 0.0348539985716342926 2.08628988265991211 0 1 3
0.429244011640548706 0.0363919995725154877 2.08563590049743652 0 1 2
0.43108600378036499 0.0381040014326572418 2.09458708763122559 0 2 0
0.426784992218017578 0.0408039987087249756 2.07368993759155273 0 1 1
0.427924990653991699 0.0440020002424716949 2.07922697067260742 1 1 1
0.415271013975143433 0.0741740018129348755 2.01774406433105469 0 3 6
0.416283011436462402 0.0758569985628128052 2.02266192436218262 0 1 4
0.428728014230728149 0.1941709965467453 2.08312797546386719 1 2 4
0.42769700288772583 0.195247992873191833 2.07811903953552246 1 2 4
0.424528002738952637 0.195334002375602722 2.06272292137145996 1 2 4
0.424248009920120239 0.196735993027687073 2.06135988235473633 1 2 4
0.418949991464614868 0.195791006088256836 2.03561711311340332 1 2 4
0.418080985546112061 0.204438000917434692 2.03139805793762207 1 2 4
0.417023003101348877 0.205424994230270386 2.02625393867492676 0 2 2
0.417697012424468994 0.207265004515647888 2.02952909469604492 0 2 1
0.416557997465133667 0.20820300281047821 2.02399706840515137 0 2 1
0.413792997598648071 0.220262005925178528 2.01056289672851562 0 2 0
0.44057801365852356 -0.0435819998383522034 2.13300704956054688 156 158 162
0.440678000450134277 -0.0420080013573169708 2.13349509239196777 89 94 99
0.44113999605178833 -0.0404650010168552399 2.13573002815246582 35 40 47
0.440880000591278076 -0.0388559997081756592 2.13446998596191406 2 6 14
0.441047996282577515 -0.0372850000858306885 2.13528203964233398 0 3 11
0.440241008996963501 -0.0356330014765262604 2.13137507438659668 0 5 14
0.44006800651550293 -0.0340370014309883118 2.13053989410400391 3 10 18
0.440690994262695312 -0.0324999988079071045 2.13355398178100586 7 15 22
0.440966010093688965 -0.0309350006282329559 2.13488888740539551 6 14 21
0.442138999700546265 -0.0294269993901252747 2.14056491851806641 9 18 23
0.443911999464035034 -0.0279489997774362564 2.14914989471435547 12 22 25
0.444350004196166992 -0.0263790003955364227 2.15127205848693848 14 24 27
0.444330990314483643 -0.024779999628663063 2.15117907524108887 11 22 25
0.444480001926422119 -0.0231899991631507874 2.15190005302429199 6 17 19
0.444662004709243774 -0.0216000005602836609 2.15277910232543945 4 14 17
0.445533007383346558 -0.020039999857544899 2.1569969654083252 6 17 19
0.446018010377883911 -0.0184579994529485703 2.15934395790100098 9 21 24
0.446860998868942261 -0.0168859995901584625 2.16342401504516602 8 20 23
0.445776998996734619 -0.0152420001104474068 2.15817689895629883 8 20 23
0.44538000226020813 -0.0136270001530647278 2.15625596046447754 8 20 23
0.446808993816375732 -0.0120639996603131294 2.16317510604858398 7 20 22
0.447048008441925049 -0.0104630002751946449 2.16433095932006836 6 21 23
0.44785800576210022 -0.0088710002601146698 2.16825294494628906 6 21 23
0.448170989751815796 -0.00726599991321563721 2.1697690486907959 6 20 22
0.444411009550094604 -0.00560700008645653725 2.15156698226928711 6 20 23
0.439402997493743896 -0.00396300014108419418 2.1273200511932373 6 19 25
0.43346598744392395 -0.00235099997371435165 2.09857392311096191 6 19 25
0.438630998134613037 0.00235299998894333839 2.12358188629150391 6 19 25
0.432962000370025635 0.00387899996712803841 2.09613609313964844 6 19 25
0.432231992483139038 0.0194160006940364838 2.09260010719299316 2 15 21
0.434514999389648438 0.0210810005664825439 2.10365605354309082 2 13 19
0.434439986944198608 0.0226399991661310196 2.10329198837280273 1 13 19
0.436421990394592285 0.0243120007216930389 2.1128849983215332 1 12 18
0.431629985570907593 0.02870200015604496 2.08968806266784668 0 6 14
0.430817991495132446 0.0317469984292984009 2.08575892448425293 0 5 10
0.430994987487792969 0.0333090014755725861 2.08661198616027832 0 3 6
0.431156009435653687 0.0348719991743564606 2.08739399909973145 0 2 3
0.432298004627227783 0.0365189984440803528 2.09292006492614746 0 2 2
0.433250010013580322 0.0381579995155334473 2.09752798080444336 0 2 1
0.416375011205673218 0.0741040036082267761 2.01583504676818848 0 3 5
0.414853990077972412 0.0753249973058700562 2.00847005844116211 0 1 4
0.435705989599227905 0.151183992624282837 2.1094210147857666 0 1 3
0.440380007028579712 0.170225992798805237 2.13205099105834961 0 1 6
0.441101998090744019 0.172091007232666016 2.13554501533508301 0 1 6
0.426423996686935425 0.193966999650001526 2.0644838809967041 0 2 1
0.425933986902236938 0.195276007056236267 2.06211209297180176 0 2 2
0.421981006860733032 0.194980993866920471 2.04297208786010742 0 2 2
0.420695006847381592 0.203463003039360046 2.03674507141113281 0 2 2
0.418265014886856079 0.203793004155158997 2.02498388290405273 0 2 2
0.417571008205413818 0.204955995082855225 2.0216219425201416 0 1 2
0.417560011148452759 0.20645199716091156 2.02156996726989746 0 1 1
0.417443007230758667 0.207894995808601379 2.02100396156311035 0 1 1
0.424142003059387207 0.212757006287574768 2.05343508720397949 0 1 1
0.414036989212036133 0.221088007092475891 2.00451302528381348 0 2 0
0.442465990781784058 -0.0420270003378391266 2.13447403907775879 156 158 163
0.442817002534866333 -0.0404729992151260376 2.13616609573364258 104 107 113
0.442164987325668335 -0.0388300009071826935 2.13302302360534668 58 62 70
0.44220501184463501 -0.0372489988803863525 2.13321399688720703 25 28 37
0.441612005233764648 -0.0356159992516040802 2.13035202026367188 4 7 16
0.442912012338638306 -0.0341340005397796631 2.1366269588470459 0 3 11
0.443120986223220825 -0.0325619988143444061 2.1376340389251709 3 5 14
0.443300992250442505 -0.0309870000928640366 2.13849997520446777 2 7 13
0.444530993700027466 -0.0294799990952014923 2.14443397521972656 3 8 12
0.445230990648269653 -0.0279309991747140884 2.14781093597412109 4 10 13
0.446368008852005005 -0.0264030005782842636 2.15329408645629883 4 12 14
0.446714997291564941 -0.0248230006545782089 2.1549680233001709 4 13 15
0.44708898663520813 -0.0232420004904270172 2.15677595138549805 2 11 13
0.447284996509552002 -0.0216499995440244675 2.15771794319152832 1 11 13
0.447629004716873169 -0.0200619995594024658 2.15937900543212891 3 13 15
0.44791799783706665 -0.0184700004756450653 2.16077494621276855 6 16 18
0.448926001787185669 -0.0169029999524354935 2.16563796997070312 5 16 18
0.449604004621505737 -0.0153179997578263283 2.16890597343444824 5 16 18
0.449494004249572754 -0.0137040000408887863 2.16837692260742188 5 16 18
0.448716998100280762 -0.0120719997212290764 2.16462993621826172 6 17 19
0.44905400276184082 -0.0104719996452331543 2.16625308990478516 4 18 19
0.448913007974624634 -0.00886000040918588638 2.1655728816986084 5 19 20
0.448700010776519775 -0.00724799977615475655 2.16454911231994629 5 19 20
0.445580005645751953 -0.00560100004076957703 2.14949607849121094 6 20 22
0.443852007389068604 -0.0039889998733997345 2.1411590576171875 6 20 25
0.443567991256713867 -0.00239700009115040302 2.13978791236877441 7 20 25
0.433616012334823608 0.00387099990621209145 2.09177899360656738 7 20 26
0.432855010032653809 0.00541599979624152184 2.08810997009277344 7 20 26
0.430406004190444946 0.0177229996770620346 2.07629609107971191 5 17 23
0.431923985481262207 0.0193329993635416031 2.0836179256439209 6 17 23
0.434518992900848389 0.0210059992969036102 2.09613609313964844 3 15 21
0.435207009315490723 0.02259800024330616 2.09945297241210938 1 14 21
0.436414986848831177 0.0242250002920627594 2.10528111457824707 0 13 21
0.435350000858306885 0.0257259998470544815 2.1001439094543457 0 11 20
0.432049006223678589 0.0286270007491111755 2.08421993255615234 0 8 17
0.433822005987167358 0.0302990004420280457 2.09277510643005371 0 7 14
0.431448996067047119 0.0332249999046325684 2.08132600784301758 0 4 8
0.431174993515014648 0.0347490012645721436 2.08000302314758301 0 2 4
0.432175993919372559 0.0363779999315738678 2.08483290672302246 0 2 2
0.433928012847900391 0.0380799993872642517 2.09328508377075195 0 2 1
0.435375005006790161 0.039767000824213028 2.1002650260925293 0 2 1
0.429246991872787476 0.0438220016658306122 2.07070493698120117 1 2 1
0.432370990514755249 0.0472390018403530121 2.08577489852905273 0 1 3
0.43562200665473938 0.145931005477905273 2.10145902633666992 1 0 4
0.436147987842559814 0.147670000791549683 2.10399508476257324 1 0 4
0.436608999967575073 0.15095500648021698 2.1062169075012207 0 1 3
0.437142997980117798 0.152705997228622437 2.10879302024841309 0 1 4
0.436058014631271362 0.160138994455337524 2.10355901718139648 0 1 5
0.438151001930236816 0.168758004903793335 2.11365890502929688 0 1 6
0.438962996006011963 0.170643001794815063 2.11757302284240723 0 1 6
0.438611000776290894 0.172077998518943787 2.11587691307067871 0 0 6
0.42574000358581543 0.19143599271774292 2.05378508567810059 0 2 1
0.426934987306594849 0.193503007292747498 2.05955004692077637 0 2 1
0.426914006471633911 0.195023998618125916 2.05944991111755371 0 2 1
0.416399985551834106 0.196189001202583313 2.00873088836669922 0 2 1
0.423260003328323364 0.20245400071144104 2.0418241024017334 0 2 1
0.420437991619110107 0.202610999345779419 2.02820897102355957 0 2 1
0.41802099347114563 0.202943995594978333 2.01655101776123047 0 2 1
0.417226999998092651 0.20405299961566925 2.01271891593933105 0 1 1
0.416326999664306641 0.205105006694793701 2.00837802886962891 1 1 1
0.419707000255584717 0.208274006843566895 2.02468204498291016 0 0 0
0.422814995050430298 0.211330994963645935 2.03967499732971191 0 0 0
0.414909005165100098 0.22224600613117218 2.00153493881225586 0 1 0
0.443105995655059814 -0.0403550006449222565 2.12992691993713379 168 169 175
0.443634986877441406 -0.0388199985027313232 2.13246989250183105 133 134 142
0.442703992128372192 -0.0371569991111755371 2.12799406051635742 88 90 98
0.443515002727508545 -0.0356420017778873444 2.13189506530761719 44 46 55
0.444191992282867432 -0.034109998494386673 2.1351470947265625 21 21 31
0.444514006376266479 -0.0325479991734027863 2.13669800758361816 10 11 20
0.445396989583969116 -0.0310229994356632233 2.14093995094299316 3 6 12
0.447692990303039551 -0.0295839998871088028 2.15197896957397461 3 7 11
0.448514014482498169 -0.028037000447511673 2.15592503547668457 0 4 7
0.448451012372970581 -0.0264320001006126404 2.15562105178833008 0 3 6
0.448628008365631104 -0.0248409993946552277 2.15647411346435547 0 4 7
0.449090003967285156 -0.023262999951839447 2.15869498252868652 0 6 8
