ply
format ascii 1.0
element vertex 676
property float x
property float y
property float z
property uchar red
property uchar green
property uchar blue
end_header
0.15645599365234375 -0.204366996884346008 2.19222497940063477 5 17 33
0.156186997890472412 -0.20239199697971344 2.18846797943115234 4 16 30
0.156058996915817261 -0.200600996613502502 2.18666410446166992 3 13 25
0.1561879962682724 -0.199141994118690491 2.18847894668579102 0 10 20
0.156025007367134094 -0.197309002280235291 2.18618893623352051 0 7 16
0.155598998069763184 -0.195151001214981079 2.18021893501281738 0 6 13
0.155790999531745911 -0.193771004676818848 2.18291211128234863 0 5 13
0.155417993664741516 -0.191689997911453247 2.1776878833770752 0 4 10
0.155404999852180481 -0.190055996179580688 2.17750096321105957 0 4 10
0.155496999621391296 -0.188549995422363281 2.17879199981689453 0 3 9
0.155642002820968628 -0.187105998396873474 2.18082308769226074 0 4 10
0.155708998441696167 -0.185567006468772888 2.18177103996276855 0 4 10
0.15574200451374054 -0.183983996510505676 2.18222498893737793 0 5 11
0.156066998839378357 -0.182744994759559631 2.18678689002990723 0 5 11
0.157176002860069275 -0.182407006621360779 2.20231389999389648 0 5 11
0.156488001346588135 -0.179979994893074036 2.19267892837524414 0 4 11
0.156178995966911316 -0.177999004721641541 2.18834495544433594 1 4 11
0.155504003167152405 -0.175612002611160278 2.17889809608459473 0 3 10
0.15511399507522583 -0.173556998372077942 2.1734321117401123 0 3 10
0.155468001961708069 -0.170716002583503723 2.17838406562805176 0 2 8
0.15692099928855896 -0.169045001268386841 2.19874191284179688 0 3 8
0.156522005796432495 -0.166987001895904541 2.19315910339355469 0 3 9
0.156755000352859497 -0.165603995323181152 2.19642210006713867 0 4 10
0.156601995229721069 -0.163812994956970215 2.19427895545959473 0 4 10
0.156624004244804382 -0.16220499575138092 2.19458103179931641 0 5 11
0.155621007084846497 -0.159547999501228333 2.18053793907165527 0 6 12
0.15573999285697937 -0.158049002289772034 2.18220210075378418 0 6 10
0.156393006443977356 -0.157084003090858459 2.19135499000549316 0 7 6
0.155537992715835571 -0.15460599958896637 2.17937111854553223 1 8 6
0.154627993702888489 -0.152091994881629944 2.16661310195922852 0 5 6
0.156485006213188171 -0.152289003133773804 2.19263195991516113 0 3 9
0.156561002135276794 -0.150735005736351013 2.19370698928833008 0 3 12
0.159647002816200256 -0.148720994591712952 2.23693990707397461 8 13 33
0.159511998295783997 -0.146935001015663147 2.23505091667175293 43 56 80
0.160405993461608887 -0.14608900249004364 2.24757909774780273 88 109 137
0.160255998373031616 -0.144284993410110474 2.24548101425170898 98 125 156
0.159097999334335327 -0.141586005687713623 2.22925209999084473 91 121 155
0.157271996140480042 -0.138324007391929626 2.2036590576171875 88 121 154
0.156029000878334045 -0.135607004165649414 2.18624711036682129 80 112 144
0.155652999877929688 -0.133661001920700073 2.1809849739074707 79 106 137
0.155264005064964294 -0.131711006164550781 2.17553091049194336 72 97 126
0.155019000172615051 -0.129888996481895447 2.17209005355834961 72 98 125
0.155147001147270203 -0.128381997346878052 2.17388510704040527 64 91 117
0.154721006751060486 -0.126418992877006531 2.16791510581970215 51 78 104
0.153321996331214905 -0.120489001274108887 2.14831995964050293 42 64 86
0.153721004724502563 -0.119203001260757446 2.1539158821105957 33 55 76
0.153824999928474426 -0.117682002484798431 2.15536808967590332 26 48 70
0.15287800133228302 -0.115367002785205841 2.14210104942321777 18 39 62
0.151864007115364075 -0.113021001219749451 2.12788200378417969 13 34 58
0.151078000664710999 -0.110863998532295227 2.11687898635864258 10 31 55
0.150103002786636353 -0.10858599841594696 2.10320901870727539 8 29 53
0.149893000721931458 -0.106873996555805206 2.1002650260925293 7 28 53
0.149297997355461121 -0.104896001517772675 2.09193801879882812 8 29 53
0.149015992879867554 -0.103147000074386597 2.08797693252563477 11 31 55
0.148992002010345459 -0.101580001413822174 2.0876469612121582 13 33 56
0.148739993572235107 -0.0998599976301193237 2.0841209888458252 14 32 52
0.148687005043029785 -0.0982770025730133057 2.0833740234375 14 32 49
0.149107992649078369 -0.0970039963722229004 2.0892789363861084 14 32 48
0.149201005697250366 -0.0955109968781471252 2.09057807922363281 13 32 47
0.149013996124267578 -0.0938410013914108276 2.08795809745788574 13 31 46
0.150454998016357422 -0.093181997537612915 2.10814499855041504 13 31 46
0.150086000561714172 -0.0913920029997825623 2.10297703742980957 13 30 47
0.151212006807327271 -0.0873560011386871338 2.1187589168548584 12 29 46
0.150930002331733704 -0.0856219977140426636 2.11480808258056641 12 29 46
0.15085899829864502 -0.0840120017528533936 2.11381196975708008 13 28 45
0.151271998882293701 -0.0826670005917549133 2.11959409713745117 13 28 42
0.150829002261161804 -0.0808560028672218323 2.11339402198791504 13 29 40
0.15068499743938446 -0.0792099982500076294 2.11136889457702637 13 29 38
0.150442004203796387 -0.0775159969925880432 2.10795807838439941 13 29 38
0.150049000978469849 -0.0757530033588409424 2.10245800018310547 12 30 41
0.150156006217002869 -0.0742440000176429749 2.10395693778991699 12 30 42
0.1499519944190979 -0.0725819990038871765 2.10110211372375488 12 30 42
0.150363996624946594 -0.0712170004844665527 2.10687398910522461 11 30 40
0.150457993149757385 -0.06969500333070755 2.1081840991973877 11 29 37
0.150300994515419006 -0.0680579990148544312 2.10598897933959961 10 29 35
0.150077000260353088 -0.066394999623298645 2.10284805297851562 9 28 32
0.150196000933647156 -0.0648849979043006897 2.1045219898223877 10 28 32
0.15047299861907959 -0.0634379982948303223 2.10840201377868652 8 24 29
0.150401994585990906 -0.0618430003523826599 2.10739803314208984 11 26 32
0.150443002581596375 -0.0602939985692501068 2.10797905921936035 14 29 36
0.150422006845474243 -0.0587200000882148743 2.1076819896697998 10 27 35
0.150389000773429871 -0.0571420006453990936 2.10722804069519043 3 20 30
0.15045599639415741 -0.0556019991636276245 2.10816097259521484 0 17 28
0.150139003992080688 -0.0539220012724399567 2.10371208190917969 2 21 34
0.150056004524230957 -0.0523299984633922577 2.1025550365447998 7 28 42
0.149320006370544434 -0.0505199991166591644 2.09224104881286621 16 41 55
0.148803994059562683 -0.0487960018217563629 2.08501601219177246 29 55 70
0.148941993713378906 -0.0472909994423389435 2.08694195747375488 34 57 71
0.14920400083065033 -0.04582199826836586 2.09061598777770996 20 40 52
0.148598998785018921 -0.0440899990499019623 2.08214402198791504 4 22 32
0.148264005780220032 -0.0424470007419586182 2.07744908332824707 0 13 22
0.148353993892669678 -0.0409290008246898651 2.07870697975158691 0 11 18
0.148113995790481567 -0.0393210016191005707 2.07535099983215332 0 9 15
0.147690996527671814 -0.037671998143196106 2.0694129467010498 0 9 15
0.147646993398666382 -0.0361239984631538391 2.06879711151123047 1 8 14
0.148605003952980042 -0.0332649983465671539 2.08222699165344238 0 5 8
0.148270994424819946 -0.0316470004618167877 2.07755088806152344 0 3 6
0.147906005382537842 -0.0300299990922212601 2.07242989540100098 0 3 4
0.147788003087043762 -0.0284679997712373734 2.07078289985656738 0 3 2
0.146908998489379883 -0.0267699994146823883 2.05846190452575684 0 3 2
0.144822001457214355 -0.0248819999396800995 2.02921390533447266 0 2 5
0.145692005753517151 -0.0219989996403455734 2.0414121150970459 0 2 9
0.145211994647979736 -0.0204150006175041199 2.03467798233032227 0 2 9
0.144670993089675903 -0.0188330002129077911 2.0270988941192627 0 1 9
0.144851997494697571 -0.0173489991575479507 2.02964305877685547 1 1 9
0.145127996802330017 -0.0158719997853040695 2.03350996971130371 1 1 9
0.14511600136756897 -0.014360000379383564 2.03333306312561035 1 1 9
0.145134001970291138 -0.0128520000725984573 2.03359198570251465 1 1 7
0.14493599534034729 -0.0113260000944137573 2.03081393241882324 1 2 7
0.144421994686126709 -0.00978299975395202637 2.02361893653869629 1 2 7
0.144637003540992737 -0.00227000005543231964 2.02662992477416992 1 2 7
0.1440420001745224 -0.000761999981477856636 2.01829099655151367 1 2 7
0.14357699453830719 0.000735000008717179298 2.01177096366882324 1 2 7
0.143228992819786072 0.00222399993799626827 2.00690293312072754 1 2 7
0.14336000382900238 0.00521000009030103683 2.00873088836669922 1 2 7
0.143292993307113647 0.0156469997018575668 2.0077979564666748 0 2 9
0.144697993993759155 0.0173059999942779541 2.02747607231140137 0 2 9
0.145147994160652161 0.0188699997961521149 2.03378105163574219 0 2 9
0.145144999027252197 0.020380999892950058 2.03374004364013672 0 2 9
0.144448995590209961 0.0217860005795955658 2.02399706840515137 0 2 9
0.144099995493888855 0.0232330001890659332 2.01910400390625 0 2 7
0.143530994653701782 0.02463500015437603 2.01112699508666992 1 2 7
0.143463999032974243 0.0261170007288455963 2.01019597053527832 1 2 7
0.142862007021903992 0.0274940002709627151 2.00175189971923828 1 2 7
0.143228992819786072 0.0290559995919466019 2.00690293312072754 1 2 7
0.143018007278442383 0.0632480010390281677 2.00394511222839355 1 2 7
0.143261998891830444 0.0678279995918273926 2.00735998153686523 1 2 7
0.142931997776031494 0.0736220031976699829 2.00273799896240234 0 2 9
0.142912998795509338 0.0795620009303092957 2.00246810913085938 0 2 9
0.143141999840736389 0.10352499783039093 2.00567197799682617 0 1 2
0.143537998199462891 0.105305999517440796 2.01122593879699707 0 1 3
0.143582999706268311 0.106833003461360931 2.01185798645019531 0 1 3
0.143392994999885559 0.108184002339839935 2.00918889045715332 0 1 3
0.143507003784179688 0.10976400226354599 2.01079702377319336 0 1 4
0.14447900652885437 0.112011000514030457 2.02440500259399414 0 1 4
0.144624993205070496 0.113628998398780823 2.02645206451416016 0 1 4
0.166366994380950928 -0.305898010730743408 2.30708909034729004 12 26 40
0.16592000424861908 -0.296530991792678833 2.30088996887207031 10 21 27
0.165903002023696899 -0.294793009757995605 2.3006598949432373 2 10 17
0.167070001363754272 -0.293424010276794434 2.31684398651123047 0 1 10
0.168641999363899231 -0.294447988271713257 2.3386390209197998 0 2 11
0.16851399838924408 -0.292488992214202881 2.33686494827270508 1 4 13
0.168118998408317566 -0.290071010589599609 2.33138394355773926 2 5 16
0.167705997824668884 -0.287631005048751831 2.32565593719482422 1 7 18
0.167272001504898071 -0.285162985324859619 2.31963610649108887 1 8 19
0.166413992643356323 -0.281985998153686523 2.30773711204528809 2 11 22
0.166371002793312073 -0.280200988054275513 2.30714797973632812 6 17 28
0.166446000337600708 -0.278613001108169556 2.30819296836853027 8 22 34
0.16459299623966217 -0.27381598949432373 2.28249192237854004 9 28 41
0.163972005248069763 -0.271093994379043579 2.27388095855712891 12 35 48
0.163071006536483765 -0.267924010753631592 2.26138210296630859 19 42 56
0.16290399432182312 -0.265971988439559937 2.25906991958618164 26 50 63
0.163002997636795044 -0.26445499062538147 2.26044797897338867 29 52 65
0.162925004959106445 -0.262648999691009521 2.25935697555541992 29 51 64
0.162699997425079346 -0.260610014200210571 2.25623297691345215 27 48 62
0.162521004676818848 -0.258650988340377808 2.25376105308532715 26 45 60
0.162401005625724792 -0.256785988807678223 2.2520899772644043 19 38 55
0.162365004420280457 -0.255057007074356079 2.25159502029418945 8 25 43
0.162068992853164673 -0.252923011779785156 2.24749302864074707 7 23 41
0.16212800145149231 -0.251345008611679077 2.24831008911132812 6 21 39
0.162281006574630737 -0.249910995364189148 2.25043296813964844 7 23 38
0.161955997347831726 -0.247741997241973877 2.24592399597167969 8 24 36
0.161287993192672729 -0.245058998465538025 2.23666191101074219 9 23 33
0.16089099645614624 -0.242798000574111938 2.23114895820617676 5 20 27
0.160629004240036011 -0.240748003125190735 2.22751808166503906 1 19 25
0.160488992929458618 -0.238885998725891113 2.22557997703552246 1 21 27
0.160083994269371033 -0.236634001135826111 2.21996188163757324 2 21 28
0.159937992691993713 -0.234769999980926514 2.21793198585510254 4 23 30
0.160006999969482422 -0.233223006129264832 2.21888899803161621 5 21 30
0.159828007221221924 -0.23131600022315979 2.21640992164611816 6 20 29
0.159513995051383972 -0.229220002889633179 2.21206402778625488 5 18 27
0.159850999712944031 -0.228056997060775757 2.21673798561096191 4 14 24
0.159973993897438049 -0.226584002375602722 2.2184290885925293 3 13 23
0.160209000110626221 -0.225266993045806885 2.2216949462890625 6 16 26
0.159248992800712585 -0.222276002168655396 2.20837903022766113 10 19 28
0.158593997359275818 -0.219727993011474609 2.19929409027099609 9 18 27
0.158123001456260681 -0.217447996139526367 2.19277191162109375 4 11 21
0.157575994729995728 -0.215073004364967346 2.18518710136413574 2 9 19
0.157561004161834717 -0.213429003953933716 2.18497896194458008 6 10 21
0.157307997345924377 -0.211465999484062195 2.18146395683288574 7 11 22
0.157239004969596863 -0.20975300669670105 2.18050599098205566 6 9 24
0.157248005270957947 -0.208146005868911743 2.18063092231750488 1 5 24
0.157536998391151428 -0.206905007362365723 2.18463802337646484 1 8 27
0.157509997487068176 -0.205247998237609863 2.18426394462585449 2 9 27
0.158384993672370911 -0.204757004976272583 2.19639992713928223 2 11 26
0.157884001731872559 -0.202482998371124268 2.18945908546447754 1 11 23
0.157839998602867126 -0.200800999999046326 2.18884897232055664 0 8 19
0.157520994544029236 -0.198771998286247253 2.18441510200500488 0 7 16
0.157454997301101685 -0.197068005800247192 2.18351006507873535 0 4 14
0.15758100152015686 -0.195601999759674072 2.1852569580078125 0 7 15
0.157042995095252991 -0.193315997719764709 2.17779207229614258 1 6 14
0.157071992754936218 -0.191734001040458679 2.17818999290466309 1 5 12
0.157186001539230347 -0.190254002809524536 2.17976808547973633 0 5 11
0.157351002097129822 -0.188832998275756836 2.18206310272216797 0 4 10
0.157460004091262817 -0.187342002987861633 2.18357396125793457 0 4 10
0.157212004065513611 -0.185427993535995483 2.18013811111450195 0 5 11
0.157627999782562256 -0.184294998645782471 2.18590497970581055 0 5 11
0.157702997326850891 -0.182757005095481873 2.18693900108337402 0 4 10
0.160050004720687866 -0.183828994631767273 2.21949195861816406 0 4 10
0.158463001251220703 -0.180373996496200562 2.19748592376708984 0 3 10
0.156820997595787048 -0.176890000700950623 2.17471694946289062 0 3 10
0.156848996877670288 -0.175306007266044617 2.17510104179382324 0 3 10
0.156823992729187012 -0.173662006855010986 2.17474794387817383 0 3 10
0.15516999363899231 -0.170231997966766357 2.15181398391723633 0 3 8
0.157150998711585999 -0.169168993830680847 2.17929506301879883 0 3 8
0.158345997333526611 -0.168824002146720886 2.19586300849914551 0 3 8
0.158590003848075867 -0.167449995875358582 2.19924306869506836 0 3 9
0.158025994896888733 -0.165226995944976807 2.19142389297485352 0 4 10
0.158402994275093079 -0.163990005850791931 2.19665098190307617 0 4 10
0.15796700119972229 -0.161911994218826294 2.19060707092285156 0 5 11
0.157166004180908203 -0.159472003579139709 2.17950105667114258 0 6 12
0.157113000750541687 -0.157800003886222839 2.17876601219177246 0 6 10
0.157885998487472534 -0.156949996948242188 2.18948602676391602 0 7 6
0.157672002911567688 -0.155112996697425842 2.18651199340820312 0 8 5
0.157514005899429321 -0.153334006667137146 2.18431806564331055 0 5 6
0.157353997230529785 -0.151558995246887207 2.18211007118225098 0 3 9
0.158536002039909363 -0.151063993573188782 2.19849991798400879 0 3 12
0.162378996610641479 -0.149708002805709839 2.25178694725036621 12 16 39
0.162287995219230652 -0.14795200526714325 2.25052309036254883 53 66 91
0.161592006683349609 -0.145653992891311646 2.24088001251220703 93 115 142
0.161932006478309631 -0.144291996955871582 2.24558806419372559 95 122 153
0.162975996732711792 -0.143543004989624023 2.26006507873535156 86 117 150
0.162330999970436096 -0.141303002834320068 2.25112199783325195 84 118 151
0.158324003219604492 -0.136184006929397583 2.19554901123046875 77 108 140
0.157370999455451965 -0.133744001388549805 2.18233609199523926 75 102 133
0.156237006187438965 -0.131171002984046936 2.16661310195922852 70 93 123
0.156384006142616272 -0.129683002829551697 2.16865110397338867 69 93 120
0.156237006187438965 -0.12795199453830719 2.16661310195922852 60 85 110
0.156504005193710327 -0.126559004187583923 2.17031598091125488 48 73 97
0.154275000095367432 -0.119989000260829926 2.13941192626953125 33 53 74
0.155396997928619385 -0.119260996580123901 2.1549680233001709 25 45 65
0.154877007007598877 -0.117266997694969177 2.14775395393371582 19 39 59
0.154868006706237793 -0.115663997828960419 2.14762306213378906 18 37 59
0.154709994792938232 -0.113953001797199249 2.14544296264648438 16 35 57
0.152158007025718689 -0.110505998134613037 2.11004304885864258 11 30 53
0.151402994990348816 -0.108397997915744781 2.09957289695739746 7 26 50
0.150942996144294739 -0.106513999402523041 2.09320402145385742 4 24 47
0.150397002696990967 -0.104580000042915344 2.08562302589416504 6 24 47
0.150145992636680603 -0.102858997881412506 2.08214402198791504 9 26 50
0.14978499710559845 -0.101067997515201569 2.07713699340820312 12 29 50
0.149552002549171448 -0.099371001124382019 2.07390499114990234 12 30 47
0.149490997195243835 -0.0977900028228759766 2.07305788993835449 12 30 44
0.149835005402565002 -0.0964720025658607483 2.0778350830078125 12 30 42
0.149458006024360657 -0.0946900025010108948 2.07260489463806152 13 31 42
0.149388998746871948 -0.0931079983711242676 2.07165408134460449 13 31 44
0.149222001433372498 -0.0914660021662712097 2.06933093070983887 13 31 45
0.152372002601623535 -0.0871199965476989746 2.11302304267883301 13 29 44
0.152471005916595459 -0.0856050029397010803 2.11438298225402832 13 28 44
0.152372002601623535 -0.0839800015091896057 2.11301493644714355 14 28 43
0.152467995882034302 -0.0824630036950111389 2.11434292793273926 15 28 42
0.152320995926856995 -0.0808139964938163757 2.11230611801147461 15 29 40
0.152108997106552124 -0.0791350007057189941 2.10937404632568359 15 29 38
0.151531994342803955 -0.0772740021347999573 2.10136699676513672 13 29 37
0.150281995534896851 -0.0750890001654624939 2.08403110504150391 12 29 40
0.150206997990608215 -0.0735040009021759033 2.08299899101257324 12 30 41
0.151154994964599609 -0.0724110007286071777 2.09613609313964844 11 30 40
0.151563003659248352 -0.0710449963808059692 2.10179400444030762 11 29 37
0.151415005326271057 -0.0694169998168945312 2.09975099563598633 10 29 36
0.151512995362281799 -0.0679010003805160522 2.10110211372375488 9 28 34
0.151612997055053711 -0.0663840025663375854 2.1024930477142334 9 27 32
0.151751995086669922 -0.0648809969425201416 2.10441303253173828 9 27 31
0.152059003710746765 -0.0634460002183914185 2.10867094993591309 9 25 31
0.151948004961013794 -0.0618349984288215637 2.10713410377502441 11 26 33
0.152142003178596497 -0.0603469982743263245 2.1098330020904541 12 29 36
0.15185999870300293 -0.0586710013449192047 2.10592198371887207 9 26 36
0.151794999837875366 -0.057082001119852066 2.10501790046691895 3 22 33
0.151731997728347778 -0.0554950013756752014 2.10413599014282227 0 21 34
0.151701003313064575 -0.0539220012724399567 2.10370492935180664 5 28 41
0.151149004697799683 -0.0521689988672733307 2.09605193138122559 13 38 53
0.150343000888824463 -0.0503420010209083557 2.08488011360168457 19 45 60
0.150836005806922913 -0.0489530004560947418 2.09171795845031738 28 52 68
0.150567993521690369 -0.0473150014877319336 2.0879979133605957 27 49 64
0.150655001401901245 -0.0457910001277923584 2.08920097351074219 12 31 44
0.150252997875213623 -0.0441210009157657623 2.08362889289855957 2 15 25
0.1500139981508255 -0.0425059981644153595 2.08031010627746582 0 11 20
0.149665996432304382 -0.0408650003373622894 2.07548999786376953 0 10 17
0.149555996060371399 -0.0392949990928173065 2.07396888732910156 0 6 14
0.149321004748344421 -0.0376950018107891083 2.07070493698120117 0 6 14
0.149359002709388733 -0.0361660011112689972 2.07123708724975586 0 6 14
0.150044992566108704 -0.0347869992256164551 2.08075308799743652 0 5 11
0.150271996855735779 -0.0332919992506504059 2.08389902114868164 0 4 8
0.150053992867469788 -0.0316979996860027313 2.08087611198425293 0 2 7
0.149410992860794067 -0.0300229992717504501 2.07195591926574707 0 2 5
0.148767992854118347 -0.028361000120639801 2.06303095817565918 0 2 4
0.147095993161201477 -0.0265280008316040039 2.03985404968261719 1 2 5
0.146283999085426331 -0.0233679991215467453 2.028594970703125 0 2 9
0.146173998713493347 -0.0218439996242523193 2.02705907821655273 0 2 10
0.145622000098228455 -0.0202619992196559906 2.01941609382629395 0 2 10
0.145675003528594971 -0.0187689997255802155 2.02013993263244629 0 1 9
0.145716995000839233 -0.0172729995101690292 2.0207209587097168 1 1 9
0.145723000168800354 -0.0157730001956224442 2.02081298828125 1 1 9
0.14589199423789978 -0.0142879998311400414 2.02315092086791992 1 1 9
0.14589199423789978 -0.0127860000357031822 2.02315092086791992 1 1 8
0.145812004804611206 -0.0112770004197955132 2.0220489501953125 1 1 8
0.145968005061149597 -0.00377100007608532906 2.02420496940612793 1 2 7
0.146011993288993835 -0.0022680000402033329 2.02481389045715332 1 2 7
0.145915001630783081 -0.000763999996706843376 2.02347588539123535 1 2 7
0.145954996347427368 0.0187800005078315735 2.02402710914611816 0 2 9
0.14587700366973877 0.0202719997614622116 2.02294588088989258 0 2 9
0.153418004512786865 0.0608269982039928436 2.12752604484558105 1 2 7
0.153720006346702576 0.0625300034880638123 2.13170695304870605 1 2 7
0.157012000679969788 0.0671029984951019287 2.17735505104064941 1 2 7
0.144602999091148376 0.103505000472068787 2.00528097152709961 0 1 2
0.144522994756698608 0.104936003684997559 2.00416803359985352 0 1 3
0.144752994179725647 0.106595002114772797 2.00735998153686523 0 1 3
0.145157992839813232 0.10838799923658371 2.01297211647033691 0 1 3
0.145034998655319214 0.109789997339248657 2.01126408576965332 0 1 3
0.146100997924804688 0.112102001905441284 2.02605509757995605 0 1 3
0.146209001541137695 0.113691002130508423 2.02755498886108398 0 1 4
0.169377997517585754 -0.304807007312774658 2.32490396499633789 19 37 42
0.167306005954742432 -0.295960992574691772 2.29646492004394531 16 28 35
0.167111992835998535 -0.293913006782531738 2.2937929630279541 6 14 22
0.168852001428604126 -0.295251995325088501 2.31768107414245605 0 6 14
0.169017001986503601 -0.29381600022315979 2.31993699073791504 0 3 12
0.169982001185417175 -0.293760985136032104 2.33318495750427246 1 4 13
0.170415997505187988 -0.292773991823196411 2.33914494514465332 2 6 15
0.170068994164466858 -0.290443986654281616 2.33437895774841309 3 7 17
0.168712005019187927 -0.286406010389328003 2.31575202941894531 3 9 19
0.169070005416870117 -0.285290986299514771 2.32067489624023438 2 10 20
0.169226005673408508 -0.283827990293502808 2.32280898094177246 3 12 22
0.168381005525588989 -0.28069499135017395 2.31122088432312012 5 16 27
0.168045997619628906 -0.278423011302947998 2.30661511421203613 7 21 33
0.167677998542785645 -0.276104003190994263 2.30156397819519043 10 29 42
0.166370004415512085 -0.272253990173339844 2.28361105918884277 14 38 50
0.166890993714332581 -0.271403998136520386 2.29076004028320312 18 42 54
0.16539299488067627 -0.267282992601394653 2.2702031135559082 21 45 56
0.164850994944572449 -0.264726012945175171 2.26276707649230957 21 43 55
0.164652004837989807 -0.262728005647659302 2.26003003120422363 17 39 52
0.164518997073173523 -0.26083800196647644 2.25820589065551758 14 35 48
0.164456993341445923 -0.259063005447387695 2.25735211372375488 13 32 46
0.164303004741668701 -0.2571449875831604 2.25524091720581055 13 31 47
0.164340004324913025 -0.255526989698410034 2.25574588775634766 13 29 47
0.164089992642402649 -0.253466010093688965 2.25231409072875977 11 25 43
0.16313500702381134 -0.250328004360198975 2.23921108245849609 10 24 40
0.164276003837585449 -0.250402987003326416 2.2548670768737793 11 24 38
0.163672998547554016 -0.247815996408462524 2.24659204483032227 11 25 35
0.162966996431350708 -0.245085000991821289 2.23689794540405273 10 23 31
0.162112995982170105 -0.24214799702167511 2.22517609596252441 5 18 24
0.162038996815681458 -0.2403859943151474 2.22416591644287109 1 17 22
0.161939993500709534 -0.23858700692653656 2.22280001640319824 1 20 26
0.162066996097564697 -0.237122997641563416 2.22455406188964844 0 19 26
0.161788001656532288 -0.235063999891281128 2.22071409225463867 0 17 24
0.161719992756843567 -0.233317002654075623 2.21977901458740234 0 15 23
0.161538004875183105 -0.231407001614570618 2.21728396415710449 1 14 23
0.161357998847961426 -0.229504004120826721 2.2148129940032959 1 14 22
0.162021994590759277 -0.228797003626823425 2.22392511367797852 4 14 23
0.162036001682281494 -0.22716599702835083 2.22412896156311035 5 14 23
0.1617870032787323 -0.225167006254196167 2.22070693969726562 5 14 23
0.161501005291938782 -0.223121002316474915 2.21677303314208984 9 16 26
0.161770999431610107 -0.221845999360084534 2.22048401832580566 7 14 24
0.160799995064735413 -0.218875005841255188 2.20716309547424316 5 9 20
0.159402996301651001 -0.215347006916999817 2.18797707557678223 6 10 21
0.159180998802185059 -0.213425993919372559 2.18493890762329102 10 12 24
0.158967003226280212 -0.211517006158828735 2.1819920539855957 11 13 25
0.158954992890357971 -0.20987999439239502 2.18182492256164551 9 11 24
0.159144997596740723 -0.208508998155593872 2.18443894386291504 1 5 23
0.159061998128890991 -0.206778004765510559 2.18329596519470215 0 5 25
0.159765005111694336 -0.206063002347946167 2.19294500350952148 0 6 25
0.16060599684715271 -0.205511003732681274 2.20448708534240723 1 6 25
0.15986199676990509 -0.202929005026817322 2.19427895545959473 0 6 22
0.159485995769500732 -0.200826004147529602 2.18912601470947266 0 5 19
0.159242004156112671 -0.198895007371902466 2.18576598167419434 0 5 17
0.158986002206802368 -0.196954995393753052 2.18226194381713867 0 4 15
0.1591310054063797 -0.195510998368263245 2.18424201011657715 1 5 15
0.158932000398635864 -0.193646997213363647 2.18152093887329102 1 5 12
0.158612996339797974 -0.191641002893447876 2.1771390438079834 1 5 12
0.158760994672775269 -0.190201997756958008 2.17917299270629883 2 3 11
0.15927499532699585 -0.189193993806838989 2.18622803688049316 1 2 10
0.158804997801780701 -0.187014997005462646 2.17976808547973633 0 3 10
0.159039005637168884 -0.185670003294944763 2.1829829216003418 1 4 11
0.159345999360084534 -0.184404000639915466 2.18720006942749023 1 5 12
0.159704998135566711 -0.183191001415252686 2.19212603569030762 0 3 10
0.158740997314453125 -0.178848996758460999 2.17889809608459473 0 3 10
0.159116998314857483 -0.177650004625320435 2.18405890464782715 0 3 10
0.159752994775772095 -0.176731005311012268 2.1927790641784668 0 3 8
0.160163000226020813 -0.175550997257232666 2.19840693473815918 0 3 8
0.160271003842353821 -0.174035996198654175 2.19989705085754395 1 3 8
0.160289004445075989 -0.172422006726264954 2.20014500617980957 1 3 8
0.160163000226020813 -0.170653000473976135 2.19841909408569336 0 3 8
0.160345003008842468 -0.169211998581886292 2.20090794563293457 0 3 8
0.160567998886108398 -0.167811006307601929 2.20397591590881348 0 3 9
0.160334005951881409 -0.165931999683380127 2.20076394081115723 0 3 10
0.160191997885704041 -0.164150997996330261 2.1988070011138916 0 4 10
0.160078004002571106 -0.162403002381324768 2.19725298881530762 0 5 11
0.159675002098083496 -0.160365000367164612 2.19171309471130371 0 6 12
0.159857004880905151 -0.158917993307113647 2.19420599937438965 0 6 10
0.160373002290725708 -0.157795995473861694 2.2012939453125 0 7 6
0.160350993275642395 -0.156139999628067017 2.20099997520446777 0 7 5
0.160173997282981873 -0.154335007071495056 2.19856595993041992 0 4 6
0.160317003726959229 -0.152838006615638733 2.200531005859375 0 3 9
0.160519003868103027 -0.151393994688987732 2.20330595970153809 0 3 13
0.160896003246307373 -0.150108993053436279 2.20847201347351074 0 1 16
0.166155993938446045 -0.153322994709014893 2.28067994117736816 0 1 20
0.163573995232582092 -0.149271994829177856 2.24522995948791504 15 20 43
0.164109006524085999 -0.148086994886398315 2.25257706642150879 61 74 100
0.163698002696037292 -0.146046996116638184 2.2469329833984375 97 120 147
0.163229003548622131 -0.143965005874633789 2.24049496650695801 92 120 151
0.164809003472328186 -0.143677994608879089 2.26218104362487793 82 112 145
0.16405099630355835 -0.141344994306564331 2.25178694725036621 80 113 147
0.161110997200012207 -0.137169003486633301 2.21142411231994629 72 104 137
0.159924998879432678 -0.134528994560241699 2.19514894485473633 72 98 130
0.159299001097679138 -0.132377997040748596 2.18655109405517578 69 91 120
0.158876001834869385 -0.128786996006965637 2.18075299263000488 57 80 104
0.160825997591018677 -0.12544800341129303 2.20750999450683594 33 53 74
0.157462000846862793 -0.118008002638816833 2.16133809089660645 17 34 54
0.156916007399559021 -0.115999996662139893 2.15384793281555176 20 37 56
0.155102998018264771 -0.113077998161315918 2.12896299362182617 19 36 57
0.153742998838424683 -0.110518999397754669 2.11029505729675293 16 32 54
0.152142003178596497 -0.107817001640796661 2.08832097053527832 12 28 50
0.152053996920585632 -0.106204003095626831 2.08711004257202148 9 25 48
0.152034997940063477 -0.10464099794626236 2.08684301376342773 8 24 46
0.151865005493164062 -0.102976001799106598 2.08451199531555176 9 25 47
0.151431992650032043 -0.101138003170490265 2.07857108116149902 11 27 46
0.151252001523971558 -0.0994760021567344666 2.07610106468200684 11 28 42
0.151483997702598572 -0.0980840027332305908 2.07928800582885742 11 29 39
0.151177003979682922 -0.0963440015912055969 2.07506394386291504 11 29 38
0.150909006595611572 -0.0946350023150444031 2.07139396667480469 11 29 38
0.150671005249023438 -0.0929490029811859131 2.06811904907226562 11 29 38
0.155983000993728638 -0.0930460020899772644 2.14103889465332031 12 28 40
0.156176000833511353 -0.0915680006146430969 2.14368700981140137 12 28 42
0.155392006039619446 -0.089524000883102417 2.13292288780212402 13 29 43
0.154916003346443176 -0.0876709967851638794 2.12639689445495605 13 29 43
0.154311001300811768 -0.0857549980282783508 2.11808490753173828 14 28 43
0.154337003827095032 -0.0841960012912750244 2.1184389591217041 15 28 42
0.153874993324279785 -0.0823760032653808594 2.11210989952087402 15 28 40
0.153703004121780396 -0.0807159990072250366 2.10974597930908203 15 28 38
0.153606995940208435 -0.079099997878074646 2.10842704772949219 15 29 37
0.150922000408172607 -0.0761779993772506714 2.07156991958618164 15 29 37
0.151254996657371521 -0.0748040005564689636 2.07613992691040039 13 29 38
0.1529960036277771 -0.0741060003638267517 2.10003900527954102 12 29 39
0.151951000094413757 -0.0720499977469444275 2.08569788932800293 11 29 37
0.1529960036277771 -0.0709860026836395264 2.10003900527954102 10 29 36
0.15292300283908844 -0.0693930014967918396 2.09904098510742188 9 28 34
0.153106003999710083 -0.0679150000214576721 2.1015470027923584 8 27 33
0.15338599681854248 -0.0664749965071678162 2.10539007186889648 8 27 31
0.153255000710487366 -0.0648560002446174622 2.10359096527099609 8 27 31
0.153549998998641968 -0.0634159967303276062 2.10764789581298828 8 25 31
0.153750002384185791 -0.0619300007820129395 2.11038494110107422 8 25 33
0.153577998280525208 -0.0602959990501403809 2.10803103446960449 9 26 35
0.153433993458747864 -0.0586749985814094543 2.10605406761169434 7 25 36
0.153587996959686279 -0.0571679994463920593 2.1081690788269043 5 25 38
0.153224006295204163 -0.0554700009524822235 2.10317111015319824 6 29 43
0.153212994337081909 -0.0539040006697177887 2.10302090644836426 13 40 54
0.152353003621101379 -0.0520480014383792877 2.09121894836425781 22 49 65
0.152210995554924011 -0.050448000431060791 2.08926296234130859 20 47 64
0.152380004525184631 -0.04895000159740448 2.09157991409301758 20 42 59
0.152121007442474365 -0.0473159998655319214 2.08803105354309082 15 34 50
0.152271002531051636 -0.0458099991083145142 2.09008407592773438 4 22 35
0.151755005121231079 -0.0441079996526241302 2.08299899101257324 0 13 23
0.151437997817993164 -0.0424720011651515961 2.0786590576171875 0 11 20
0.150914996862411499 -0.0407860018312931061 2.07146906852722168 0 9 17
0.150824993848800659 -0.0392239987850189209 2.07023501396179199 0 5 13
0.151776999235153198 -0.0379250012338161469 2.08330893516540527 0 5 13
0.151537001132965088 -0.0363200008869171143 2.08001303672790527 0 4 13
0.15103699266910553 -0.03466000035405159 2.07315301895141602 0 3 12
0.151591002941131592 -0.0332419984042644501 2.08075308799743652 0 3 10
0.151243001222610474 -0.0316229984164237976 2.0759739875793457 0 2 8
0.150285005569458008 -0.0298909991979598999 2.06283307075500488 0 1 6
0.147912994027137756 -0.0248949993401765823 2.03026294708251953 0 2 8
0.146617993712425232 -0.0231819991022348404 2.01249289512634277 0 2 10
0.146280005574226379 -0.0216370001435279846 2.00784802436828613 0 2 11
0.146039992570877075 -0.0201130006462335587 2.00455307960510254 0 2 11
0.146025002002716064 -0.0186219997704029083 2.00435709953308105 0 1 9
0.1459989994764328 -0.0171300005167722702 2.00399208068847656 1 1 9
0.146427005529403687 -0.0156880002468824387 2.00987005233764648 1 1 9
0.146244004368782043 -0.0141770001500844955 2.00735998153686523 1 1 9
0.146349996328353882 -0.0126949995756149292 2.00882101058959961 1 1 9
0.146924003958702087 -0.00225899997167289257 2.01669192314147949 1 2 7
0.146255001425743103 0.000732999993488192558 2.00751304626464844 1 2 7
0.147019997239112854 0.0202229991555213928 2.01800799369812012 0 2 9
0.153915002942085266 0.0541249997913837433 2.11264705657958984 1 2 7
0.155466005206108093 0.0578400008380413055 2.1339418888092041 1 2 7
0.154168993234634399 0.06050100177526474 2.11614203453063965 1 2 7
0.15428200364112854 0.0621180012822151184 2.11768388748168945 1 2 7
0.157323002815246582 0.0665509998798370361 2.15943193435668945 1 2 7
0.146500006318092346 0.099312998354434967 2.01086902618408203 1 1 1
0.14586600661277771 0.104832001030445099 2.0021660327911377 0 1 2
0.146157994866371155 0.106532000005245209 2.00617289543151855 0 1 2
0.146010994911193848 0.107914000749588013 2.00416803359985352 0 1 3
0.146422997117042542 0.109710998833179474 2.00981903076171875 0 1 3
0.147053003311157227 0.111681997776031494 2.01846098899841309 0 1 3
0.147125005722045898 0.113237001001834869 2.01945304870605469 0 1 4
0.169857993721961975 -0.306012988090515137 2.307952880859375 10 26 41
0.17027600109577179 -0.305047988891601562 2.31363511085510254 28 47 58
0.170598000288009644 -0.303902000188827515 2.3180088996887207 22 43 52
0.170442000031471252 -0.301903992891311646 2.3158879280090332 21 42 50
0.169240996241569519 -0.296360999345779419 2.29957008361816406 17 33 43
0.169775992631912231 -0.295585006475448608 2.30684590339660645 7 20 30
0.170304998755455017 -0.294786989688873291 2.31402897834777832 1 11 20
0.170658007264137268 -0.293675988912582397 2.31882905960083008 0 7 16
0.17086300253868103 -0.292304009199142456 2.32161402702331543 0 8 16
0.171104997396469116 -0.290991991758346558 2.32490396499633789 1 8 16
0.171082004904747009 -0.289225995540618896 2.32459306716918945 3 8 16
0.169934004545211792 -0.285569995641708374 2.30899596214294434 4 9 17
0.170133993029594421 -0.284188002347946167 2.3117060661315918 3 10 18
0.170680999755859375 -0.283380001783370972 2.31914091110229492 3 12 20
0.169956997036933899 -0.280461996793746948 2.3092958927154541 5 17 24
0.169305995106697083 -0.277678996324539185 2.30045604705810547 7 22 29
0.168989002704620361 -0.275454998016357422 2.29615497589111328 12 30 39
0.168695002794265747 -0.273272991180419922 2.29216098785400391 16 36 47
0.167049005627632141 -0.268920987844467163 2.26979494094848633 15 37 47
0.166265994310379028 -0.265980988740921021 2.25914502143859863 15 35 46
0.166118994355201721 -0.264070004224777222 2.25715398788452148 11 31 42
0.165884003043174744 -0.262021005153656006 2.25395298004150391 7 27 37
0.165842995047569275 -0.260284006595611572 2.25340890884399414 5 24 35
0.165886998176574707 -0.258679002523422241 2.25400805473327637 5 22 35
0.166058003902435303 -0.257270008325576782 2.25632905960083008 11 28 43
0.16623300313949585 -0.255863010883331299 2.25870609283447266 20 36 52
0.165742993354797363 -0.253435999155044556 2.2520449161529541 17 32 48
0.165809005498886108 -0.251861989498138428 2.25293707847595215 15 29 44
0.165861994028091431 -0.25027000904083252 2.253662109375 15 29 42
0.16608099639415741 -0.248924002051353455 2.2566370964050293 16 30 40
0.16614300012588501 -0.247339993715286255 2.25748300552368164 15 28 37
0.1656389981508255 -0.244919002056121826 2.25063800811767578 10 24 32
0.163922995328903198 -0.240725994110107422 2.22731304168701172 8 23 29
0.163797006011009216 -0.238888993859291077 2.22561001777648926 8 26 33
0.163700997829437256 -0.237096995115280151 2.2243049144744873 5 23 30
0.163632005453109741 -0.235343992710113525 2.22336006164550781 2 18 25
0.1630219966173172 -0.232822000980377197 2.21507406234741211 0 15 22
0.162707000970840454 -0.230729997158050537 2.21079111099243164 1 14 22
0.162720993161201477 -0.22910800576210022 2.21098804473876953 4 16 25
0.162879005074501038 -0.22768700122833252 2.2131340503692627 10 20 29
0.163655996322631836 -0.22712099552154541 2.22368788719177246 12 21 30
0.163629993796348572 -0.225433006882667542 2.22333502769470215 8 17 26
0.162456005811691284 -0.222175002098083496 2.20737600326538086 7 16 25
0.162300005555152893 -0.220324993133544922 2.20526790618896484 2 9 19
0.16205500066280365 -0.218356996774673462 2.20194005966186523 0 5 13
0.161145001649856567 -0.215505003929138184 2.18957304954528809 3 7 16
0.161182001233100891 -0.213927000761032104 2.19007205963134766 6 10 19
0.160916000604629517 -0.211950004100799561 2.18646097183227539 4 9 15
0.160864993929862976 -0.210259005427360535 2.18576598167419434 0 4 13
0.160989001393318176 -0.208795994520187378 2.18744397163391113 1 5 20
0.161021992564201355 -0.207213997840881348 2.18789291381835938 1 5 22
0.161092996597290039 -0.205679997801780701 2.18885993957519531 0 5 21
0.162171006202697754 -0.205419003963470459 2.2035069465637207 0 5 19
0.161708995699882507 -0.203201994299888611 2.19723200798034668 0 5 17
0.161266997456550598 -0.201019003987312317 2.19122195243835449 0 5 17
0.160872995853424072 -0.198905006051063538 2.18587493896484375 1 5 17
0.160511001944541931 -0.196835994720458984 2.18094897270202637 1 5 15
0.160591006278991699 -0.195314005017280579 2.18204307556152344 0 3 10
0.160782992839813232 -0.193924993276596069 2.18464803695678711 0 3 10
0.160812005400657654 -0.192337006330490112 2.1850430965423584 1 2 10
0.160457998514175415 -0.190293997526168823 2.18023490905761719 2 2 10
0.160586997866630554 -0.188825994729995728 2.18197989463806152 2 2 10
0.160225003957748413 -0.18678399920463562 2.17706990242004395 1 2 10
0.160306006669998169 -0.185259997844696045 2.17816901206970215 1 3 10
0.160774007439613342 -0.184177994728088379 2.18452310562133789 1 4 11
0.160905003547668457 -0.182704001665115356 2.18630290031433105 0 3 10
0.159256994724273682 -0.179225996136665344 2.16391396522521973 0 3 10
0.159303992986679077 -0.177671000361442566 2.16454911231994629 0 3 10
0.159299001097679138 -0.176057994365692139 2.16448593139648438 0 3 10
0.161458998918533325 -0.175185993313789368 2.19383502006530762 0 3 8
0.160243004560470581 -0.172249004244804382 2.17730808258056641 1 3 8
0.161598995327949524 -0.172076001763343811 2.19573593139648438 2 3 8
0.160905003547668457 -0.169713005423545837 2.18630290031433105 0 3 8
0.161753997206687927 -0.168975993990898132 2.19784307479858398 0 3 8
0.161570996046066284 -0.167153999209403992 2.19535088539123535 0 3 8
0.161486998200416565 -0.165437996387481689 2.19421911239624023 0 3 8
0.161522001028060913 -0.163843005895614624 2.19468808174133301 0 4 9
0.16074100136756897 -0.16142900288105011 2.18407297134399414 0 5 10
0.1604900062084198 -0.159556999802589417 2.18066191673278809 0 6 10
0.160905003547668457 -0.158345997333526611 2.18630290031433105 0 6 10
0.16166900098323822 -0.157465994358062744 2.19668292999267578 0 7 7
0.16161799430847168 -0.15578499436378479 2.19599604606628418 0 6 5
0.161336004734039307 -0.153885006904602051 2.19216203689575195 0 4 6
0.161131992936134338 -0.152064993977546692 2.18939805030822754 1 2 9
0.161639004945755005 -0.150912001729011536 2.19628190994262695 0 2 13
0.166330993175506592 -0.151934996247291565 2.26003694534301758 0 2 20
0.1645050048828125 -0.148606002330780029 2.23521709442138672 17 23 45
0.165782004594802856 -0.148086994886398315 2.25257706642150879 66 81 105
0.16566699743270874 -0.14631199836730957 2.25101304054260254 99 123 148
0.165537998080253601 -0.144528001546859741 2.24925994873046875 90 118 147
0.16551700234413147 -0.142838999629020691 2.24898004531860352 78 108 140
0.164599999785423279 -0.140386000275611877 2.2365109920501709 76 109 141
0.161762997508049011 -0.136334002017974854 2.1979680061340332 69 100 132
0.160742998123168945 -0.1338530033826828 2.1841120719909668 69 96 127
0.160321995615959167 -0.131882995367050171 2.17838406562805176 66 90 119
0.160006001591682434 -0.130008995532989502 2.17408895492553711 62 84 111
0.15926399827003479 -0.127799004316329956 2.16401410102844238 55 76 101
0.159768998622894287 -0.126591995358467102 2.17087793350219727 45 66 90
0.160032004117965698 -0.125184997916221619 2.17444610595703125 36 56 78
0.160032004117965698 -0.121954001486301422 2.17444610595703125 18 35 54
0.159848004579544067 -0.120200999081134796 2.17194700241088867 15 31 49
0.158768996596336365 -0.117787003517150879 2.1572868824005127 18 33 52
0.158779993653297424 -0.116192996501922607 2.15743899345397949 16 31 50
0.158077001571655273 -0.114082999527454376 2.14788007736206055 15 30 49
0.153804004192352295 -0.107895001769065857 2.08982300758361816 12 27 48
0.153512999415397644 -0.106141999363899231 2.08587408065795898 12 27 48
0.153347000479698181 -0.104478999972343445 2.08361101150512695 12 27 48
0.153255999088287354 -0.102870002388954163 2.08238101005554199 13 29 48
0.153024002909660339 -0.101170003414154053 2.07922697067260742 14 30 46
0.152894005179405212 -0.09954100102186203 2.07746100425720215 14 31 42
0.152355998754501343 -0.0976530015468597412 2.0701448917388916 13 31 39
0.152160003781318665 -0.0959919989109039307 2.06748795509338379 12 31 38
0.151951000094413757 -0.0943259969353675842 2.06463909149169922 12 31 38
0.157891005277633667 -0.0948269963264465332 2.14535999298095703 11 28 37
0.157692998647689819 -0.0931160002946853638 2.14265799522399902 11 28 37
0.157224997878074646 -0.0912529975175857544 2.13631105422973633 11 27 39
0.156584993004798889 -0.0893009975552558899 2.12761092185974121 13 28 41
0.156721994280815125 -0.087797999382019043 2.12946796417236328 15 29 42
0.156692996621131897 -0.0861999988555908203 2.12907099723815918 15 29 42
0.155572995543479919 -0.0824439972639083862 2.11385798454284668 15 28 40
0.155521005392074585 -0.0808470025658607483 2.1131589412689209 15 28 38
0.155377998948097229 -0.0792040005326271057 2.11120200157165527 15 29 37
0.155319005250930786 -0.0776069983839988708 2.11040902137756348 15 29 37
0.155228003859519958 -0.0759939998388290405 2.10917210578918457 12 29 37
0.15545499324798584 -0.0745370015501976013 2.11226201057434082 11 29 37
0.154932007193565369 -0.0727220028638839722 2.10514593124389648 11 29 36
0.15537300705909729 -0.0713609978556632996 2.11114001274108887 10 29 36
0.155670002102851868 -0.0699269995093345642 2.11518001556396484 8 28 34
0.155478999018669128 -0.0682710036635398865 2.1125791072845459 8 27 33
0.155542001128196716 -0.0667290017008781433 2.11343789100646973 8 26 31
0.155533000826835632 -0.0651559978723526001 2.11332201957702637 8 26 31
0.155796006321907043 -0.063694000244140625 2.11689209938049316 9 26 32
0.155699998140335083 -0.0620829984545707703 2.11557793617248535 7 24 32
0.155498996376991272 -0.0604330003261566162 2.11285209655761719 5 23 32
0.155622005462646484 -0.0589109994471073151 2.11452007293701172 4 24 35
0.155447006225585938 -0.0572759993374347687 2.11214590072631836 7 30 43
0.155222997069358826 -0.0556260012090206146 2.10909700393676758 14 39 54
0.154639005661010742 -0.0538569986820220947 2.10117197036743164 24 52 67
0.154328003525733948 -0.0521910004317760468 2.09694099426269531 31 60 76
0.154558002948760986 -0.0507090017199516296 2.10007309913635254 21 46 64
0.154085993766784668 -0.0489990003407001495 2.09364891052246094 8 30 47
0.154360994696617126 -0.047527998685836792 2.09738707542419434 2 19 34
0.154143005609512329 -0.0459050014615058899 2.09442591667175293 0 15 26
0.153056994080543518 -0.0440369993448257446 2.07966899871826172 1 13 23
0.152604997158050537 -0.0423670001327991486 2.07352900505065918 1 10 20
0.153466001152992249 -0.0395080000162124634 2.0852351188659668 0 5 12
0.153276994824409485 -0.0379129983484745026 2.08266496658325195 1 5 13
0.153245002031326294 -0.0363579988479614258 2.08222699165344238 1 4 13
0.152427002787590027 -0.0346259996294975281 2.07111310958862305 0 3 12
0.152383998036384583 -0.0330779999494552612 2.07052493095397949 0 1 11
0.152298003435134888 -0.0315219983458518982 2.06935596466064453 0 1 10
0.154761001467704773 -0.0304700005799531937 2.10282206535339355 0 0 8
0.147475004196166992 -0.023081999272108078 2.00382208824157715 0 2 10
0.161905005574226379 -0.00736699998378753662 2.19989705085754395 1 1 7
0.153713002800941467 -0.00233999988995492458 2.08858704566955566 1 2 7
0.153564006090164185 -0.000788000004831701517 2.08656096458435059 1 2 7
0.154239997267723083 0.0147749995812773705 2.09574294090270996 0 2 9
0.152014002203941345 0.0176309999078512192 2.0655059814453125 0 2 9
0.148990005254745483 0.0202869996428489685 2.02440500259399414 0 2 9
0.15386199951171875 0.0520070008933544159 2.09061598777770996 1 2 7
0.153964996337890625 0.0535960011184215546 2.09200406074523926 1 2 7
0.154002994298934937 0.055163998156785965 2.09253096580505371 1 2 7
0.15509699285030365 0.0618170015513896942 2.10739803314208984 1 2 7
0.157217994332313538 0.0658349990844726562 2.13620710372924805 1 2 7
0.15311199426651001 0.0672070011496543884 2.08042597770690918 1 2 7
0.147745996713638306 0.100638002157211304 2.00751304626464844 0 1 1
0.147457003593444824 0.106394000351428986 2.00357794761657715 0 1 2
0.147220999002456665 0.109195001423358917 2.00037503242492676 0 1 3
0.156899005174636841 0.246219992637634277 2.13187599182128906 145 163 139
0.179231002926826477 -0.325046002864837646 2.41098499298095703 125 128 134
0.182609006762504578 -0.329347014427185059 2.45641589164733887 77 83 95
0.170983001589775085 -0.304962009191513062 2.30002808570861816 10 26 41
0.170865997672080994 -0.303045988082885742 2.29845499992370605 37 59 73
0.17099800705909729 -0.30157199501991272 2.30023002624511719 33 56 71
0.171196997165679932 -0.300211995840072632 2.3029029369354248 26 51 66
0.170729994773864746 -0.297686994075775146 2.29662203788757324 22 47 61
0.171039998531341553 -0.296519011259078979 2.30079889297485352 17 40 53
0.170929998159408569 -0.294620007276535034 2.2993168830871582 9 29 41
0.171665996313095093 -0.294173985719680786 2.3092188835144043 1 18 29
0.171349003911018372 -0.291918009519577026 2.30495190620422363 0 10 20
0.171994000673294067 -0.291299998760223389 2.31363511085510254 0 11 18
0.17219899594783783 -0.28992500901222229 2.31638193130493164 0 8 15
0.172079995274543762 -0.288006007671356201 2.31478595733642578 0 6 12
0.171995997428894043 -0.286146998405456543 2.31366109848022461 2 7 13
0.172450006008148193 -0.285178005695343018 2.31975793838500977 6 10 15
0.17188599705696106 -0.282528996467590332 2.31217408180236816 7 14 18
0.171836003661155701 -0.280728995800018311 2.31150102615356445 9 21 23
0.171213001012802124 -0.278001010417938232 2.30311989784240723 12 29 31
0.169800996780395508 -0.274011999368667603 2.28412699699401855 13 30 36
0.169339001178741455 -0.2715739905834198 2.27791309356689453 12 29 38
0.16799299418926239 -0.267738014459609985 2.25980997085571289 12 28 38
0.167734995484352112 -0.265650004148483276 2.25633907318115234 11 27 37
0.167521998286247253 -0.263639003038406372 2.25346899032592773 11 27 37
0.16751900315284729 -0.261961013078689575 2.25343799591064453 12 29 39
