ply
format ascii 1.0
element vertex 671
property float x
property float y
property float z
property uchar red
property uchar green
property uchar blue
end_header
0.120622001588344574 -0.307823985815048218 2.22202897071838379 2 16 32
0.120212003588676453 -0.30513298511505127 2.2144770622253418 2 14 31
0.120140999555587769 -0.303308010101318359 2.21316289901733398 3 15 31
0.119944997131824493 -0.301171988248825073 2.20955705642700195 3 15 29
0.119924001395702362 -0.299479007720947266 2.20917201042175293 3 14 27
0.119979999959468842 -0.29797700047492981 2.210205078125 2 14 24
0.120194002985954285 -0.296862989664077759 2.2141420841217041 2 14 23
0.120050996541976929 -0.294869005680084229 2.21151590347290039 2 13 21
0.120031997561454773 -0.293179988861083984 2.21116495132446289 2 13 20
0.120281003415584564 -0.292142003774642944 2.21575188636779785 1 13 21
0.120260000228881836 -0.290444999933242798 2.2153620719909668 1 11 21
0.120259001851081848 -0.288794994354248047 2.21533107757568359 0 8 20
0.120390996336936951 -0.287465006113052368 2.21776294708251953 0 6 18
0.120125003159046173 -0.285187989473342896 2.21287393569946289 0 5 17
0.120086997747421265 -0.283454000949859619 2.21217203140258789 0 5 17
0.119964003562927246 -0.281522005796432495 2.20989990234375 0 7 18
0.12000100314617157 -0.279967993497848511 2.21059298515319824 0 8 18
0.119905002415180206 -0.278102010488510132 2.20881295204162598 0 11 20
0.119912996888160706 -0.276481002569198608 2.20896697044372559 2 15 22
0.119583003222942352 -0.274084001779556274 2.20288991928100586 2 15 22
0.119126997888088226 -0.271407008171081543 2.19447898864746094 1 14 19
0.119306996464729309 -0.27018699049949646 2.19780898094177246 1 13 18
0.119200997054576874 -0.268314987421035767 2.19585299491882324 0 12 19
0.119088999927043915 -0.266431987285614014 2.19377899169921875 0 10 18
0.119176000356674194 -0.264997005462646484 2.19538688659667969 0 9 18
0.119262002408504486 -0.263556003570556641 2.19696807861328125 0 9 18
0.118739001452922821 -0.260776013135910034 2.18734288215637207 1 10 17
0.1188339963555336 -0.259357988834381104 2.18908810615539551 1 10 17
0.118693001568317413 -0.257427006959915161 2.18649196624755859 0 10 17
0.119092002511024475 -0.256662994623184204 2.19384598731994629 0 9 16
0.118437997996807098 -0.253632992506027222 2.1817939281463623 0 9 16
0.118280999362468719 -0.251677989959716797 2.17889809608459473 0 9 16
0.118283003568649292 -0.250064998865127563 2.17894792556762695 0 8 13
0.118234001100063324 -0.248342007398605347 2.17803597450256348 0 8 13
0.119562000036239624 -0.249494999647140503 2.20249390602111816 0 7 13
0.119516998529434204 -0.247767001390457153 2.20167803764343262 0 7 13
0.119039997458457947 -0.245149001479148865 2.19288802146911621 0 7 13
0.119639001786708832 -0.244745001196861267 2.20391297340393066 0 7 13
0.119277000427246094 -0.242373004555702209 2.19725298881530762 0 7 13
0.119148001074790955 -0.240481004118919373 2.19487500190734863 0 7 13
0.119552001357078552 -0.239659994840621948 2.20231389999389648 0 7 13
0.119438000023365021 -0.237797006964683533 2.20021200180053711 0 7 13
0.11967100203037262 -0.236625000834465027 2.20451498031616211 0 5 13
0.12058199942111969 -0.236775994300842285 2.22129297256469727 0 4 11
0.120336003601551056 -0.234644994139671326 2.21675491333007812 0 4 10
0.11971600353717804 -0.231799006462097168 2.20534205436706543 0 5 8
0.118386998772621155 -0.227605000138282776 2.18085193634033203 0 5 7
0.118647001683712006 -0.226482003927230835 2.18564105033874512 0 5 6
0.12031400203704834 -0.226372003555297852 2.21636009216308594 1 5 6
0.119756996631622314 -0.218769997358322144 2.2061009407043457 0 3 8
0.120511002838611603 -0.218498006463050842 2.21998190879821777 0 4 9
0.119735002517700195 -0.21381300687789917 2.20567893981933594 1 6 11
0.119298003613948822 -0.211401998996734619 2.19764089584350586 2 7 11
0.119439996778964996 -0.210017994046211243 2.20025110244750977 1 5 6
0.119006998836994171 -0.207628995180130005 2.19228005409240723 0 4 1
0.119033001363277435 -0.206046000123023987 2.19276189804077148 3 5 2
0.119217999279499054 -0.204733997583389282 2.19615411758422852 19 17 16
0.119360998272895813 -0.203346997499465942 2.19880104064941406 52 45 44
0.119369998574256897 -0.201728999614715576 2.19896697998046875 94 81 82
0.119286000728607178 -0.199955001473426819 2.19742107391357422 126 109 110
0.119079001247882843 -0.197979003190994263 2.19360494613647461 138 119 119
0.11919499933719635 -0.196540996432304382 2.19574403762817383 148 128 129
0.119286000728607178 -0.195058003067970276 2.19741106033325195 156 136 136
0.119350999593734741 -0.193531006574630737 2.19861292839050293 151 132 131
0.119310997426509857 -0.191834002733230591 2.19787693023681641 147 130 127
0.119209997355937958 -0.190041005611419678 2.19602108001708984 147 132 127
0.119029000401496887 -0.188123002648353577 2.19267892837524414 149 134 129
0.119162000715732574 -0.186702996492385864 2.19513392448425293 148 133 128
0.119012996554374695 -0.184841006994247437 2.19237899780273438 144 129 124
0.119106002151966095 -0.183356001973152161 2.19409704208374023 141 126 119
0.119186997413635254 -0.181849002838134766 2.19558596611022949 137 125 116
0.119336999952793121 -0.180445998907089233 2.19836211204528809 134 124 114
0.119111001491546631 -0.178473994135856628 2.19419193267822266 133 123 113
0.118827998638153076 -0.176423996686935425 2.18896889686584473 133 123 114
0.118983000516891479 -0.175025999546051025 2.19182801246643066 133 123 114
0.119351997971534729 -0.173936992883682251 2.19863796234130859 131 121 112
0.119050003588199615 -0.171866998076438904 2.19306206703186035 128 118 109
0.119267001748085022 -0.170548006892204285 2.19706106185913086 128 118 109
0.119359999895095825 -0.169047996401786804 2.1987760066986084 130 120 111
0.119166001677513123 -0.167143002152442932 2.19521188735961914 119 109 101
0.119294002652168274 -0.165691003203392029 2.19756698608398438 104 93 87
0.119508996605873108 -0.164353996515274048 2.2015230655670166 86 75 69
0.119203001260757446 -0.162301003932952881 2.19588088989257812 68 57 51
0.119188003242015839 -0.16065099835395813 2.19561409950256348 49 40 33
0.119162000715732574 -0.15898500382900238 2.19512605667114258 34 24 17
0.119053997099399567 -0.157212004065513611 2.19314694404602051 25 17 9
0.118698999285697937 -0.155119001865386963 2.18660807609558105 25 22 12
0.11958400160074234 -0.154639005661010742 2.20290088653564453 33 33 23
0.119406998157501221 -0.152777001261711121 2.19964599609375 38 39 31
0.119231998920440674 -0.15092100203037262 2.19642210006713867 44 46 38
0.119069002568721771 -0.14908599853515625 2.19342589378356934 60 62 56
0.119001001119613647 -0.147373005747795105 2.19217395782470703 84 86 81
0.118349999189376831 -0.144945994019508362 2.18016910552978516 103 105 100
0.117991998791694641 -0.142893999814987183 2.17358589172363281 110 114 109
0.117209002375602722 -0.140340998768806458 2.15914607048034668 112 116 111
0.117555998265743256 -0.139148995280265808 2.16554903984069824 110 114 110
0.117746002972126007 -0.137761995196342468 2.16903805732727051 105 112 108
0.117983996868133545 -0.136427000164985657 2.1734321117401123 103 112 110
0.117262996733188629 -0.133989006280899048 2.1601560115814209 101 113 114
0.117936998605728149 -0.133145004510879517 2.1725609302520752 89 105 108
0.117992997169494629 -0.131594002246856689 2.17359590530395508 69 87 91
0.118004001677036285 -0.129991993308067322 2.17380499839782715 46 65 69
0.117366001009941101 -0.127682998776435852 2.16205406188964844 21 41 43
0.117682002484798431 -0.126415997743606567 2.16786789894104004 9 27 30
0.118019998073577881 -0.125164002180099487 2.17408895492553711 6 20 24
0.119061000645160675 -0.124640002846717834 2.19327902793884277 3 14 20
0.118233002722263336 -0.122153997421264648 2.17801403999328613 1 9 16
0.116627000272274017 -0.118900001049041748 2.14844202995300293 2 9 17
0.116356000304222107 -0.117031998932361603 2.1434481143951416 0 6 14
0.11713699996471405 -0.116213999688625336 2.15781998634338379 0 3 11
0.116673998534679413 -0.114157997071743011 2.14929795265197754 3 10 19
0.116534002125263214 -0.112427003681659698 2.14672708511352539 16 29 38
0.116678997874259949 -0.110969997942447662 2.14939188957214355 30 46 55
0.116654001176357269 -0.109350003302097321 2.14893507957458496 32 49 57
0.116238996386528015 -0.107371002435684204 2.14128303527832031 28 45 53
0.116337001323699951 -0.105869002640247345 2.14309000968933105 29 46 54
0.116277001798152924 -0.10422399640083313 2.14199399948120117 29 46 54
0.115964002907276154 -0.102357000112533569 2.13622093200683594 23 41 47
0.115998998284339905 -0.100800998508930206 2.1368710994720459 12 32 35
0.116066001355648041 -0.0992700010538101196 2.13809800148010254 5 22 24
0.116529002785682678 -0.0980719998478889465 2.14662599563598633 0 10 14
0.116258002817630768 -0.0962530001997947693 2.14163088798522949 0 3 9
0.116645999252796173 -0.0949779972434043884 2.14878201484680176 0 1 8
0.116779997944831848 -0.0934889987111091614 2.1512451171875 1 1 8
0.11679299920797348 -0.0919020026922225952 2.15149903297424316 1 2 7
0.117096997797489166 -0.090539000928401947 2.15709805488586426 0 1 6
0.117113001644611359 -0.0889490023255348206 2.15738391876220703 0 1 6
0.116796001791954041 -0.0871099978685379028 2.15154194831848145 0 1 6
0.116599999368190765 -0.0853679999709129333 2.14794111251831055 0 1 6
0.116700001060962677 -0.0838439986109733582 2.14976906776428223 0 0 6
0.116819001734256744 -0.0823320001363754272 2.15196990966796875 0 0 6
0.117059998214244843 -0.0808999985456466675 2.15641689300537109 0 0 6
0.117343999445438385 -0.0794899985194206238 2.16163396835327148 0 1 6
0.117311999201774597 -0.0778639987111091614 2.16105198860168457 0 0 6
0.1168380007147789 -0.0759499967098236084 2.15231990814208984 0 0 8
0.116824999451637268 -0.0743430033326148987 2.15207695960998535 0 0 8
0.117004998028278351 -0.072856999933719635 2.15539693832397461 0 0 8
0.117230996489524841 -0.0713939964771270752 2.15956711769104004 0 0 8
0.117245003581047058 -0.069798000156879425 2.15982198715209961 0 0 8
0.117977999150753021 -0.0686199963092803955 2.17332291603088379 0 0 8
0.117787003517150879 -0.0668980032205581665 2.16981101036071777 0 0 8
0.116599999368190765 -0.0646279975771903992 2.14792895317077637 0 0 7
0.116737999022006989 -0.0631069988012313843 2.15047407150268555 0 1 6
0.116898000240325928 -0.05839499831199646 2.15342497825622559 0 1 6
0.117131002247333527 -0.056908000260591507 2.15770888328552246 0 1 6
0.117030002176761627 -0.0552579984068870544 2.15585899353027344 1 2 7
0.116457000374794006 -0.0533940009772777557 2.14529800415039062 1 2 7
0.115558996796607971 -0.0514019988477230072 2.12876391410827637 1 1 4
0.115048997104167938 -0.0496009998023509979 2.11937308311462402 1 1 0
0.11585400253534317 -0.0483620017766952515 2.13418889045715332 2 2 0
0.115615002810955048 -0.0435159988701343536 2.12978601455688477 0 1 4
0.116800002753734589 -0.0423649996519088745 2.15162801742553711 0 0 5
0.116186998784542084 -0.0405520014464855194 2.14032793045043945 0 1 8
0.115125998854637146 -0.0386070013046264648 2.1207740306854248 0 3 13
0.114375002682209015 -0.0367899984121322632 2.10695505142211914 2 10 22
0.113007999956607819 -0.0348040014505386353 2.08176398277282715 14 31 46
0.111901000142097473 -0.0329319983720779419 2.0613710880279541 39 60 78
0.110058002173900604 -0.0308839995414018631 2.02741599082946777 62 87 107
0.12599499523639679 -0.375016987323760986 2.28966808319091797 131 127 126
0.126166999340057373 -0.3738270103931427 2.29279994964599609 150 148 146
0.126227006316184998 -0.372301012277603149 2.29389095306396484 154 153 152
0.125962004065513611 -0.369818001985549927 2.28906702995300293 109 109 111
0.126470997929573059 -0.369605988264083862 2.29832100868225098 88 91 95
0.126707002520561218 -0.368586987257003784 2.30262088775634766 99 105 111
0.126159995794296265 -0.365292012691497803 2.29267311096191406 107 115 124
0.126267001032829285 -0.363896995782852173 2.2946159839630127 83 93 105
0.125707000494003296 -0.360587000846862793 2.28444409370422363 58 70 85
0.125186994671821594 -0.357405990362167358 2.27499294281005859 57 71 88
0.124793998897075653 -0.354597985744476318 2.26784491539001465 53 69 90
0.124595001339912415 -0.352351993322372437 2.26423192024230957 56 72 97
0.124348998069763184 -0.349977999925613403 2.25976395606994629 55 72 98
0.124389998614788055 -0.348414003849029541 2.26050901412963867 57 74 100
0.124273002147674561 -0.34640800952911377 2.25837397575378418 60 77 103
0.124330997467041016 -0.344893008470535278 2.25944399833679199 63 81 106
0.124209001660346985 -0.342877000570297241 2.25722002983093262 66 86 111
0.124191001057624817 -0.341149985790252686 2.25688290596008301 70 90 114
0.123956002295017242 -0.338831990957260132 2.25261592864990234 70 90 113
0.12392599880695343 -0.337076008319854736 2.25206804275512695 46 68 89
0.123598001897335052 -0.334517002105712891 2.24611592292785645 51 73 93
0.123553000390529633 -0.332727998495101929 2.24529910087585449 52 78 95
0.123406998813152313 -0.330668985843658447 2.24264907836914062 49 75 91
0.123374998569488525 -0.328916996717453003 2.24205708503723145 41 67 83
0.123217999935150146 -0.326835989952087402 2.23921108245849609 34 60 76
0.123539000749588013 -0.326020985841751099 2.24505090713500977 31 57 74
0.123442001640796661 -0.324097007513046265 2.24327397346496582 33 58 74
0.12298399955034256 -0.321236014366149902 2.23496198654174805 21 42 57
0.12295600026845932 -0.319501012563705444 2.23444008827209473 15 32 48
0.122621998190879822 -0.316978991031646729 2.22837710380554199 19 36 52
0.122244998812675476 -0.314352989196777344 2.22151899337768555 24 41 57
0.12201700359582901 -0.312119990587234497 2.21737790107727051 17 34 50
0.122395999729633331 -0.311437994241714478 2.22426509857177734 8 25 41
0.122141003608703613 -0.309141010046005249 2.21963906288146973 5 22 38
0.122027002274990082 -0.307206004858016968 2.21757388114929199 3 19 35
0.121783003211021423 -0.304946988821029663 2.2131340503692627 10 26 42
0.121811002492904663 -0.303371995687484741 2.21363401412963867 15 31 47
0.121716998517513275 -0.301494985818862915 2.21192502975463867 14 30 44
0.121476002037525177 -0.299259990453720093 2.20755696296691895 12 29 41
0.121386997401714325 -0.297401010990142822 2.20592689514160156 11 27 38
0.121334999799728394 -0.295635998249053955 2.20498800277709961 10 27 36
0.121209003031253815 -0.293693989515304565 2.20270395278930664 9 26 34
0.121177002787590027 -0.291979998350143433 2.20211601257324219 9 26 33
0.121128998696804047 -0.290228992700576782 2.20124697685241699 7 22 31
0.121200002729892731 -0.288762986660003662 2.20253396034240723 5 17 28
0.121081002056598663 -0.286846011877059937 2.20038008689880371 3 13 25
0.121342003345489502 -0.285825014114379883 2.2051088809967041 0 10 22
0.121278002858161926 -0.284038007259368896 2.20394992828369141 0 9 21
0.121233999729156494 -0.282299011945724487 2.20315790176391602 0 9 21
0.121307000517845154 -0.280831992626190186 2.20448708534240723 0 10 22
0.121450997889041901 -0.279523998498916626 2.20708894729614258 1 12 23
0.121348001062870026 -0.277649998664855957 2.20522689819335938 1 15 24
0.121149003505706787 -0.275559008121490479 2.20160198211669922 2 16 24
0.12116599828004837 -0.273963004350662231 2.20192408561706543 1 16 23
0.120732001960277557 -0.271353006362915039 2.19403791427612305 1 16 21
0.120284996926784515 -0.268723994493484497 2.18591499328613281 0 14 20
0.120747998356819153 -0.268128007650375366 2.19432401657104492 0 13 21
0.120697997510433197 -0.266389012336730957 2.19342207908630371 0 11 20
0.120876997709274292 -0.265150994062423706 2.19666290283203125 0 10 19
0.120714001357555389 -0.263164997100830078 2.19370698928833008 0 10 19
0.120605997741222382 -0.261301010847091675 2.19174408912658691 1 12 19
0.120274998247623444 -0.258960992097854614 2.18573498725891113 1 12 18
0.120240002870559692 -0.257261991500854492 2.18509411811828613 0 11 17
0.120346002280712128 -0.255865007638931274 2.18702507019042969 0 11 17
0.119902998208999634 -0.253304988145828247 2.17897605895996094 0 10 17
0.120030000805854797 -0.251951009035110474 2.18126606941223145 0 9 16
0.119841001927852631 -0.2499379962682724 2.17784595489501953 0 8 15
0.120893001556396484 -0.25049901008605957 2.19695091247558594 0 8 15
0.120416000485420227 -0.247886002063751221 2.18829107284545898 0 7 13
0.120789997279644012 -0.247024998068809509 2.19508004188537598 0 7 13
0.120691001415252686 -0.245193004608154297 2.19327902793884277 0 7 13
0.120728999376296997 -0.243641003966331482 2.19397091865539551 0 7 13
0.121050998568534851 -0.242657005786895752 2.19982600212097168 0 7 13
0.120935998857021332 -0.240794003009796143 2.19773507118225098 0 7 13
0.120950996875762939 -0.239191994071006775 2.19801211357116699 0 7 13
0.120796002447605133 -0.2372560054063797 2.19520306587219238 0 7 13
0.121489003300666809 -0.236974999308586121 2.20778298377990723 0 4 13
0.121583998203277588 -0.235520005226135254 2.20951294898986816 0 4 12
0.121313996613025665 -0.233358994126319885 2.2046051025390625 0 4 10
0.12052600085735321 -0.230215996503829956 2.19028401374816895 0 5 9
0.119884997606277466 -0.22737400233745575 2.17863607406616211 0 5 7
0.11922299861907959 -0.22450999915599823 2.16661310195922852 1 5 6
0.120691001415252686 -0.225644007325172424 2.19327902793884277 1 5 6
0.121321000158786774 -0.225185006856918335 2.20473599433898926 1 5 6
0.121289998292922974 -0.22021600604057312 2.20417594909667969 0 3 7
0.121033996343612671 -0.218117997050285339 2.19952607154846191 0 3 8
0.121279999613761902 -0.216922998428344727 2.20398306846618652 0 3 9
0.121243998408317566 -0.213586002588272095 2.20334005355834961 1 5 10
0.120883002877235413 -0.2113180011510849 2.19676995277404785 0 4 8
0.120844997465610504 -0.209619998931884766 2.19608211517333984 0 4 5
0.120483003556728363 -0.207367002964019775 2.18951201438903809 0 3 3
0.120553001761436462 -0.20586000382900238 2.19077706336975098 3 5 4
0.120465002954006195 -0.204082995653152466 2.18917107582092285 19 17 17
0.12084999680519104 -0.203104004263877869 2.19616889953613281 51 44 45
0.120734997093677521 -0.201281994581222534 2.1940920352935791 90 78 80
0.120709002017974854 -0.199608996510505676 2.19362092018127441 119 102 104
0.120701998472213745 -0.197966992855072021 2.19347906112670898 130 110 112
0.120890997350215912 -0.196647003293037415 2.19692707061767578 138 119 120
0.120993003249168396 -0.195179000496864319 2.19877409934997559 146 126 126
0.12083599716424942 -0.19329400360584259 2.19591403007507324 143 124 122
0.120930999517440796 -0.191815003752708435 2.19765496253967285 140 122 119
0.120708003640174866 -0.189831003546714783 2.19359803199768066 137 121 116
0.120727002620697021 -0.188232004642486572 2.19394898414611816 135 120 114
0.120862998068332672 -0.18681199848651886 2.19640994071960449 134 119 112
0.120714001357555389 -0.184953004121780396 2.19370698928833008 133 118 111
0.120794996619224548 -0.183446004986763 2.19518303871154785 132 118 110
0.120958000421524048 -0.182061001658439636 2.19814300537109375 132 119 110
0.120711997151374817 -0.180060997605323792 2.19366693496704102 130 117 108
0.120598003268241882 -0.178262993693351746 2.19159603118896484 129 116 107
0.120780996978282928 -0.176902994513511658 2.1949160099029541 127 116 106
0.120870001614093781 -0.175402998924255371 2.19654393196105957 125 115 105
0.120930001139640808 -0.173857003450393677 2.19763302803039551 122 112 102
0.120733998715877533 -0.171945005655288696 2.19406795501708984 117 107 98
0.120711997151374817 -0.170284003019332886 2.1936640739440918 114 104 96
0.120995000004768372 -0.169051006436347961 2.19881510734558105 107 98 91
0.120944999158382416 -0.167347997426986694 2.19790291786193848 95 86 79
0.120913997292518616 -0.165673002600669861 2.19733095169067383 78 69 62
0.121082998812198639 -0.164270997047424316 2.20041608810424805 58 49 43
0.120856001973152161 -0.162330999970436096 2.19628190994262695 41 31 26
0.120627999305725098 -0.160396993160247803 2.19214010238647461 30 21 15
0.120782002806663513 -0.158970996737480164 2.19493389129638672 27 18 13
0.120596997439861298 -0.15709899365901947 2.19157099723815918 28 22 15
0.12113499641418457 -0.156166002154350281 2.20136308670043945 29 27 18
0.121056996285915375 -0.154431998729705811 2.19994711875915527 32 32 23
0.121099002659320831 -0.152851000428199768 2.20071005821228027 41 42 35
0.120775997638702393 -0.150812000036239624 2.19483709335327148 55 57 51
0.120687000453472137 -0.149072006344795227 2.19321203231811523 71 74 69
0.120365001261234283 -0.147048994898796082 2.18735694885253906 89 94 88
0.119627997279167175 -0.14453500509262085 2.17397689819335938 106 111 106
0.118547998368740082 -0.141628995537757874 2.15433692932128906 113 118 113
0.118542999029159546 -0.140024006366729736 2.15425896644592285 110 115 112
0.118978001177310944 -0.138931006193161011 2.16216206550598145 110 116 113
0.119009003043174744 -0.137361004948616028 2.16271805763244629 107 114 111
0.118996001780033112 -0.135739997029304504 2.16248798370361328 100 110 109
0.118649996817111969 -0.133744001388549805 2.15620088577270508 91 104 105
0.118775002658367157 -0.132281005382537842 2.15847611427307129 73 89 92
0.119185999035835266 -0.131129994988441467 2.16594409942626953 49 67 71
0.118901997804641724 -0.12921200692653656 2.16077494621276855 26 45 48
0.118380002677440643 -0.12704700231552124 2.15128898620605469 6 24 26
0.118418000638484955 -0.125489994883537292 2.15198302268981934 2 18 20
0.12052600085735321 -0.126095995306968689 2.19028401374816895 3 17 20
0.120794996619224548 -0.124747000634670258 2.19516897201538086 2 12 17
0.118721000850200653 -0.121003001928329468 2.15748906135559082 0 6 13
0.117831997573375702 -0.11850699782371521 2.14133501052856445 0 5 13
0.118188001215457916 -0.11726900190114975 2.14780306816101074 0 4 13
0.118265002965927124 -0.115749001502990723 2.14919304847717285 0 5 13
0.117927998304367065 -0.113828003406524658 2.14308500289916992 4 15 24
0.118132002651691437 -0.112429998815059662 2.14678692817687988 21 36 44
0.118020996451377869 -0.11073099821805954 2.14476609230041504 31 48 57
0.117824003100395203 -0.108956001698970795 2.14119100570678711 27 44 53
0.118101000785827637 -0.107617996633052826 2.14622211456298828 22 40 49
0.117546997964382172 -0.10552699863910675 2.13615894317626953 26 43 52
0.117545001208782196 -0.103937998414039612 2.13610696792602539 27 45 53
0.117536000907421112 -0.102343998849391937 2.1359550952911377 21 40 46
0.117646001279354095 -0.100850999355316162 2.13794493675231934 10 30 33
0.117320999503135681 -0.0989900007843971252 2.13205099105834961 3 20 22
0.11787000298500061 -0.0978609994053840637 2.14201688766479492 0 9 13
0.118018999695777893 -0.0963919982314109802 2.14472198486328125 0 3 9
0.118178002536296844 -0.0949269980192184448 2.14762306213378906 0 1 8
0.118133001029491425 -0.0932959988713264465 2.14680695533752441 1 1 8
0.118804998695850372 -0.0922230035066604614 2.15901589393615723 1 2 7
0.118652999401092529 -0.0905039981007575989 2.15625596046447754 0 1 6
0.117723003029823303 -0.0866160020232200623 2.13935208320617676 0 1 6
0.118152998387813568 -0.0853379964828491211 2.1471710205078125 0 1 6
0.117530003190040588 -0.0833010002970695496 2.13583588600158691 0 0 6
0.117949001491069794 -0.0820059999823570251 2.1434481143951416 0 0 6
0.118164002895355225 -0.0805609971284866333 2.14736795425415039 0 0 6
0.118669003248214722 -0.0793029963970184326 2.15653395652770996 0 1 6
0.118552997708320618 -0.0776259973645210266 2.15444207191467285 0 0 6
0.117909997701644897 -0.0756129994988441467 2.14275407791137695 0 0 7
0.118073001503944397 -0.0741230025887489319 2.14570498466491699 0 0 7
0.118369996547698975 -0.0727119967341423035 2.15111398696899414 0 0 7
0.118582002818584442 -0.0712419971823692322 2.1549680233001709 0 0 7
0.118692003190517426 -0.0697060003876686096 2.1569669246673584 0 0 7
0.119016997516155243 -0.0682900026440620422 2.1628730297088623 0 0 7
0.118814997375011444 -0.0665699988603591919 2.15918803215026855 0 0 7
0.117292001843452454 -0.0641340017318725586 2.13151097297668457 0 0 7
0.11749199777841568 -0.0626569986343383789 2.1351470947265625 0 1 6
0.117390997707843781 -0.0578499995172023773 2.13331103324890137 0 1 6
0.118212997913360596 -0.0566590018570423126 2.14824700355529785 0 1 6
0.117928996682167053 -0.0549309998750686646 2.14309000968933105 1 2 7
0.117429003119468689 -0.0531129986047744751 2.13400697708129883 1 2 7
0.116915002465248108 -0.051302000880241394 2.1246640682220459 1 1 3
0.116957999765872955 -0.0497430004179477692 2.12544608116149902 1 1 0
0.117435000836849213 -0.0483600012958049774 2.13411402702331543 2 2 0
0.116980999708175659 -0.0465940013527870178 2.12586498260498047 1 2 0
0.11709199845790863 -0.0450580008327960968 2.12788200378417969 0 2 3
0.1162090003490448 -0.043150000274181366 2.11183810234069824 0 1 5
0.117152996361255646 -0.0419190004467964172 2.12899589538574219 0 2 9
0.116968996822834015 -0.0402740016579627991 2.12564611434936523 0 6 15
0.115860000252723694 -0.0383279994130134583 2.10548901557922363 0 13 25
0.115143999457359314 -0.0365369990468025208 2.09248900413513184 10 29 44
0.113605000078678131 -0.0345159992575645447 2.06451988220214844 33 58 74
0.112386003136634827 -0.0326279997825622559 2.04235506057739258 57 86 105
0.110652998089790344 -0.0306310001760721207 2.01086902618408203 69 100 122
0.11009400337934494 -0.0171019993722438812 2.00070595741271973 51 80 108
0.128053992986679077 -0.374365001916885376 2.29609799385070801 138 135 134
0.128457993268966675 -0.373834013938903809 2.30333590507507324 151 149 149
0.127657994627952576 -0.369807004928588867 2.28899908065795898 116 117 118
0.128142997622489929 -0.369504988193511963 2.29768991470336914 87 90 93
0.128557994961738586 -0.368990004062652588 2.30513906478881836 94 99 105
0.127662003040313721 -0.364717990159988403 2.28906702995300293 103 111 119
0.127890005707740784 -0.363667011260986328 2.29316210746765137 82 92 103
0.12773500382900238 -0.361523985862731934 2.2903749942779541 54 65 79
0.127161994576454163 -0.358209997415542603 2.28011298179626465 50 63 80
0.126994997262954712 -0.356047004461288452 2.27711200714111328 54 69 90
0.126292005181312561 -0.352394014596939087 2.26450395584106445 54 70 94
0.126166000962257385 -0.350362986326217651 2.26224994659423828 52 69 94
0.12601800262928009 -0.348271995782852173 2.25958395004272461 53 69 95
0.125885993242263794 -0.346231013536453247 2.25722002983093262 57 73 98
0.12574400007724762 -0.344164997339248657 2.25467491149902344 60 77 102
0.125855997204780579 -0.342795997858047485 2.2566831111907959 60 78 102
0.125826999545097351 -0.341040998697280884 2.25616002082824707 57 75 99
0.125769004225730896 -0.339210003614425659 2.25513005256652832 52 71 94
0.125933006405830383 -0.337974995374679565 2.25807404518127441 41 62 83
0.125853002071380615 -0.336082994937896729 2.25662899017333984 47 69 90
0.125814005732536316 -0.334304988384246826 2.25594401359558105 48 71 91
0.125596001744270325 -0.332051008939743042 2.25202107429504395 45 68 88
0.125434994697570801 -0.329955995082855225 2.24914288520812988 45 68 88
0.124880999326705933 -0.326835989952087402 2.23921108245849609 47 70 90
0.125306993722915649 -0.326281994581222534 2.24684906005859375 37 63 80
0.125002995133399963 -0.323823988437652588 2.24138808250427246 26 50 67
0.12477400153875351 -0.321570008993148804 2.2372889518737793 13 33 50
0.124852001667022705 -0.320107012987136841 2.23867893218994141 17 34 50
0.124122999608516693 -0.31658598780632019 2.2256169319152832 24 42 57
0.123721003532409668 -0.313912004232406616 2.21839809417724609 24 43 57
0.123855002224445343 -0.312602996826171875 2.22080802917480469 17 35 50
0.123701997101306915 -0.310571014881134033 2.21807289123535156 12 30 45
0.123517997562885284 -0.308463007211685181 2.2147679328918457 14 32 48
0.123213000595569611 -0.306059986352920532 2.20930099487304688 18 36 52
0.123010002076625824 -0.303918004035949707 2.20566010475158691 27 45 61
0.122927002608776093 -0.302074998617172241 2.20416808128356934 31 49 65
0.123006999492645264 -0.300633013248443604 2.205596923828125 30 48 63
0.122992001473903656 -0.298960000276565552 2.20534205436706543 27 46 59
0.12265700101852417 -0.296510010957717896 2.19932198524475098 24 43 55
0.122598998248577118 -0.29473799467086792 2.19828891754150391 21 40 50
0.122428998351097107 -0.29269900918006897 2.19524598121643066 17 37 44
0.122464001178741455 -0.291150987148284912 2.19586300849914551 15 34 41
0.122506998479366302 -0.289622992277145386 2.19664502143859863 10 28 37
0.122653000056743622 -0.288334012031555176 2.19925808906555176 5 19 31
0.122769996523857117 -0.286971986293792725 2.20134711265563965 4 17 30
0.122941002249717712 -0.285735994577407837 2.20442008972167969 3 15 28
0.122795999050140381 -0.283762991428375244 2.20181703567504883 3 14 27
0.123020000755786896 -0.282642006874084473 2.20583200454711914 2 14 27
0.123090997338294983 -0.281165987253189087 2.2071070671081543 2 15 28
0.12294500321149826 -0.279195010662078857 2.20448708534240723 3 16 28
0.122906997799873352 -0.277471989393234253 2.20380997657775879 2 18 27
0.122883997857570648 -0.275781989097595215 2.20338988304138184 1 17 25
0.122768998146057129 -0.273889988660812378 2.20133399963378906 0 17 24
0.122152999043464661 -0.270888000726699829 2.19028401374816895 0 17 22
0.12198600172996521 -0.268893986940383911 2.18729591369628906 0 16 22
0.121890000998973846 -0.267058998346328735 2.18557095527648926 0 15 22
0.122319996356964111 -0.266371011734008789 2.19327902793884277 0 13 21
0.122289001941680908 -0.264676988124847412 2.1927340030670166 0 11 22
0.122267000377178192 -0.262998998165130615 2.19232797622680664 0 11 21
0.122129000723361969 -0.261076986789703369 2.18986392021179199 1 12 21
0.122080996632575989 -0.259348005056381226 2.18900203704833984 1 12 18
0.12158600240945816 -0.256675988435745239 2.18011689186096191 0 11 17
0.12201700359582901 -0.255961000919342041 2.18784499168395996 0 11 17
0.121628999710083008 -0.253526985645294189 2.18088698387145996 0 9 16
0.121628999710083008 -0.251906991004943848 2.18088698387145996 0 8 15
0.122001998126506805 -0.251055002212524414 2.18757796287536621 0 7 15
0.122101001441478729 -0.249633997678756714 2.18936300277709961 0 7 14
0.122152999043464661 -0.248111993074417114 2.19028401374816895 0 7 13
0.122124001383781433 -0.246427997946739197 2.18977499008178711 0 7 13
0.121931001543998718 -0.244413003325462341 2.18630290031433105 0 7 13
0.122069001197814941 -0.243064999580383301 2.18878889083862305 0 7 13
0.122649997472763062 -0.242587998509407043 2.19919705390930176 0 6 12
0.122353002429008484 -0.240372002124786377 2.1938788890838623 0 6 12
0.122083999216556549 -0.238215997815132141 2.18904590606689453 0 6 12
0.122466996312141418 -0.237333998084068298 2.19592905044555664 0 6 12
0.122899003326892853 -0.236533001065254211 2.2036590576171875 0 4 12
0.123084001243114471 -0.235248997807502747 2.20697593688964844 0 4 11
0.122768998146057129 -0.233013004064559937 2.20133399963378906 0 4 9
0.121544003486633301 -0.229068994522094727 2.17937111854553223 0 4 8
0.120811000466346741 -0.226078003644943237 2.16622209548950195 0 4 6
0.121080003678798676 -0.224969998002052307 2.17105197906494141 0 4 5
0.121573999524116516 -0.224268004298210144 2.17990207672119141 0 4 5
0.124187998473644257 -0.225782006978988647 2.2267758846282959 0 3 5
0.122539997100830078 -0.219522997736930847 2.19723200798034668 0 3 7
0.122258000075817108 -0.217389002442359924 2.19217395782470703 0 2 7
0.122735999524593353 -0.216602995991706848 2.20073699951171875 0 2 8
0.122500002384185791 -0.21455499529838562 2.19650506973266602 0 3 10
0.123116001486778259 -0.213994994759559631 2.20755696296691895 1 4 10
0.122404001653194427 -0.211127996444702148 2.19479703903198242 0 3 6
0.121905997395515442 -0.20864500105381012 2.18586111068725586 0 4 5
0.122169002890586853 -0.207468003034591675 2.19057893753051758 0 5 4
0.121633999049663544 -0.204940006136894226 2.1809849739074707 4 6 5
0.121859997510910034 -0.203697994351387024 2.1850430965423584 18 16 17
0.122366003692150116 -0.202913001179695129 2.19410204887390137 46 40 41
0.121839001774787903 -0.200415998697280884 2.18465399742126465 80 70 72
0.122226998209953308 -0.199426993727684021 2.19161391258239746 107 93 94
0.122023001313209534 -0.197467997670173645 2.18795108795166016 119 102 103
0.122235998511314392 -0.19618600606918335 2.19178009033203125 123 105 106
0.122477002441883087 -0.194940999150276184 2.19609999656677246 126 108 107
0.122455999255180359 -0.19327700138092041 2.1957240104675293 127 109 106
0.122029997408390045 -0.190980002284049988 2.18808603286743164 126 109 105
0.121978998184204102 -0.189274996519088745 2.18716692924499512 123 108 103
0.122152999043464661 -0.187918007373809814 2.19028401374816895 121 107 100
0.122368000447750092 -0.186619997024536133 2.19414997100830078 119 106 98
0.122170001268386841 -0.184690997004508972 2.19060301780700684 118 105 97
0.12225399911403656 -0.18318900465965271 2.19210195541381836 122 109 101
0.122235998511314392 -0.18153400719165802 2.19178009033203125 126 114 104
0.12205900251865387 -0.179646000266075134 2.18860602378845215 124 112 101
0.121896997094154358 -0.177783995866775513 2.18570399284362793 121 110 100
0.122120998799800873 -0.176484003663063049 2.18972110748291016 119 109 99
0.122068002820014954 -0.17478199303150177 2.18877291679382324 116 106 96
0.122349999845027924 -0.173555999994277954 2.19382405281066895 112 102 92
0.122033998370170593 -0.17148299515247345 2.18816494941711426 106 96 87
0.122116997838020325 -0.169972002506256104 2.1896369457244873 96 87 78
0.12235800176858902 -0.168678998947143555 2.19397091865539551 82 73 66
0.122513003647327423 -0.167260006070137024 2.19674491882324219 70 61 54
0.122396998107433319 -0.165471002459526062 2.19466209411621094 54 46 39
0.122334003448486328 -0.163757994771003723 2.1935429573059082 36 29 23
0.122293002903461456 -0.162073999643325806 2.19280600547790527 23 16 10
0.12230999767780304 -0.160466998815536499 2.19310188293457031 20 14 9
0.122555002570152283 -0.15915699303150177 2.19750690460205078 29 23 17
0.122470997273921967 -0.157416000962257385 2.19599604606628418 39 36 29
0.12225399911403656 -0.155508995056152344 2.19209790229797363 43 43 33
0.122648000717163086 -0.154376998543739319 2.19916296005249023 40 42 32
0.122185997664928436 -0.152168005704879761 2.19088196754455566 50 52 44
0.122221998870372772 -0.150584995746612549 2.19153094291687012 68 71 64
0.121708996593952179 -0.148331999778747559 2.18233609199523926 81 86 81
0.121298998594284058 -0.146217003464698792 2.17497897148132324 92 98 94
0.120306998491287231 -0.143418997526168823 2.15719795227050781 106 112 109
0.119946002960205078 -0.141389995813369751 2.15070891380310059 113 119 116
0.120374001562595367 -0.140292003750801086 2.15839600563049316 109 115 113
0.120695002377033234 -0.139059007167816162 2.16415095329284668 110 118 117
0.120682001113891602 -0.137437000870704651 2.16391396522521973 107 115 115
0.120708003640174866 -0.135858997702598572 2.16438508033752441 97 107 109
0.1202550008893013 -0.133746996521949768 2.15625596046447754 81 94 98
0.120993003249168396 -0.132955998182296753 2.16948390007019043 58 73 78
0.120421998202800751 -0.130724996328353882 2.15924406051635742 30 48 53
0.121152997016906738 -0.129905000329017639 2.17235207557678223 13 30 33
0.122620001435279846 -0.128212004899978638 2.19866299629211426 7 20 22
0.121873997151851654 -0.125808998942375183 2.1852869987487793 8 20 23
0.121653996407985687 -0.123962000012397766 2.18134689331054688 4 13 19
0.120874002575874329 -0.121556997299194336 2.16735601425170898 0 5 13
0.119760997593402863 -0.118841998279094696 2.14739394187927246 0 4 12
0.119571998715400696 -0.117062002420425415 2.14400696754455566 0 6 15
0.120077997446060181 -0.115959003567695618 2.15308499336242676 0 9 18
0.119889996945858002 -0.114179998636245728 2.14971709251403809 8 23 31
0.119519002735614777 -0.112235002219676971 2.14305305480957031 26 42 51
0.119363002479076385 -0.110499002039432526 2.14026188850402832 32 50 60
0.119338996708393097 -0.108887001872062683 2.13983607292175293 24 42 52
0.119381003081798553 -0.107335999608039856 2.14058709144592285 20 38 48
0.119093000888824463 -0.105489999055862427 2.13542008399963379 25 43 53
0.118926003575325012 -0.103758998215198517 2.13242506980895996 28 46 55
0.119383998215198517 -0.10256899893283844 2.14064598083496094 21 40 46
0.119214996695518494 -0.100835002958774567 2.13760209083557129 8 28 31
0.11912199854850769 -0.0991709977388381958 2.13594889640808105 2 19 21
0.119396001100540161 -0.0978080034255981445 2.14084696769714355 0 9 13
0.119305998086929321 -0.0961460024118423462 2.13924694061279297 0 3 9
0.119705997407436371 -0.0948730036616325378 2.14640998840332031 0 1 8
0.120382003486156464 -0.0938059985637664795 2.1585381031036377 1 1 8
0.119323000311851501 -0.0866239964962005615 2.13955497741699219 0 1 6
0.119484998285770416 -0.0851500034332275391 2.14245200157165527 0 1 6
0.119470000267028809 -0.0835480019450187683 2.14217591285705566 0 0 6
0.119093000888824463 -0.0816989988088607788 2.13542699813842773 0 0 6
0.12002900242805481 -0.0807429999113082886 2.15221405029296875 0 0 6
0.120507001876831055 -0.0794589966535568237 2.16077494621276855 0 1 6
0.120141997933387756 -0.0776180028915405273 2.15422892570495605 0 1 6
0.119657002389431 -0.0757109969854354858 2.14553403854370117 0 1 6
0.119901999831199646 -0.0742689967155456543 2.14992308616638184 0 1 6
0.119944997131824493 -0.0726979970932006836 2.15069293975830078 0 1 6
0.119946002960205078 -0.0711010023951530457 2.15070891380310059 0 1 6
0.119687996804714203 -0.0693550035357475281 2.14609599113464355 0 1 6
0.119710996747016907 -0.0677739977836608887 2.14650797843933105 0 1 6
0.119710996747016907 -0.0661789998412132263 2.14650797843933105 0 0 5
0.11893799901008606 -0.064167998731136322 2.13264799118041992 0 0 5
0.119235999882221222 -0.0595640018582344055 2.13798189163208008 0 1 6
0.118091002106666565 -0.057420000433921814 2.11745500564575195 0 1 6
0.119032002985477448 -0.0562920011579990387 2.13432002067565918 0 1 6
0.119263000786304474 -0.0548130013048648834 2.13847804069519043 1 2 7
0.11931300163269043 -0.0532459989190101624 2.13936400413513184 1 2 7
0.118827000260353088 -0.0514470003545284271 2.13065409660339355 1 1 3
0.118786998093128204 -0.0498480014503002167 2.12992691993713379 1 1 0
0.118827998638153076 -0.0482820011675357819 2.13066291809082031 1 2 0
0.118835002183914185 -0.0467020012438297272 2.13079190254211426 1 1 1
0.118846997618675232 -0.0451250001788139343 2.13102102279663086 0 1 4
0.118151001632213593 -0.0432870015501976013 2.11853289604187012 0 3 9
0.118174999952316284 -0.0417210012674331665 2.11895608901977539 0 8 17
0.118424996733665466 -0.0402330011129379272 2.12344789505004883 2 17 29
0.116892002522945404 -0.0381550006568431854 2.0959620475769043 12 33 48
0.115658998489379883 -0.0362120009958744049 2.07384991645812988 32 59 77
0.114274002611637115 -0.0342560000717639923 2.04902005195617676 48 80 100
0.112902000546455383 -0.0323409996926784515 2.02440500259399414 62 97 119
0.112401001155376434 -0.029203999787569046 2.0154271125793457 61 95 124
0.112099997699260712 -0.0276330001652240753 2.01002788543701172 57 89 119
0.111625999212265015 -0.0156220002099871635 2.00153493881225586 49 75 103
0.130267992615699768 -0.375833988189697266 2.30510401725769043 129 127 125
0.129847005009651184 -0.372911006212234497 2.29764389991760254 149 148 146
0.129583999514579773 -0.370453000068664551 2.29299497604370117 121 122 122
0.129777997732162476 -0.36930200457572937 2.29642891883850098 87 90 92
0.129365995526313782 -0.366427987813949585 2.28912997245788574 84 90 94
0.129944995045661926 -0.366360992193222046 2.29938101768493652 89 98 104
0.12989400327205658 -0.364511013031005859 2.29848408699035645 74 84 93
0.129047006368637085 -0.360435992479324341 2.28348398208618164 53 65 77
0.129309996962547302 -0.359472990036010742 2.28815007209777832 51 64 80
0.128679007291793823 -0.356027007102966309 2.27698588371276855 57 71 90
0.128148004412651062 -0.352872014045715332 2.2675778865814209 54 70 92
0.128057003021240234 -0.350937992334365845 2.26596689224243164 51 66 90
0.128114998340606689 -0.34941399097442627 2.26699399948120117 47 63 87
0.12746100127696991 -0.345955014228820801 2.25542211532592773 47 63 86
0.12747800350189209 -0.344325989484786987 2.25572800636291504 46 63 86
0.127372995018959045 -0.342368990182876587 2.2538759708404541 44 61 84
0.127502992749214172 -0.341042011976242065 2.25616788864135742 40 57 80
0.127494007349014282 -0.339341998100280762 2.25601005554199219 36 54 76
0.127480000257492065 -0.337630003690719604 2.2557680606842041 34 53 74
0.127468004822731018 -0.335923999547958374 2.25555992126464844 39 60 81
0.127590000629425049 -0.334567993879318237 2.25771999359130859 42 63 84
0.127494007349014282 -0.332639008760452271 2.25601005554199219 42 63 84
0.12716500461101532 -0.330110013484954834 2.25019192695617676 49 71 92
0.126799002289772034 -0.327495008707046509 2.24372196197509766 56 78 98
0.126720994710922241 -0.325626999139785767 2.24234199523925781 43 67 85
0.126868993043899536 -0.324339002370834351 2.24495100975036621 23 46 63
0.126493006944656372 -0.321714997291564941 2.2382969856262207 7 27 42
0.126414000988006592 -0.319853007793426514 2.23690509796142578 16 34 49
0.126450002193450928 -0.318282991647720337 2.23754501342773438 24 43 57
0.125701993703842163 -0.314747005701065063 2.2243049144744873 22 41 55
0.125262007117271423 -0.311998993158340454 2.21651792526245117 16 35 49
0.125248998403549194 -0.310321003198623657 2.21629095077514648 16 35 49
0.125009000301361084 -0.308082014322280884 2.21203398704528809 22 41 56
0.124744996428489685 -0.305794000625610352 2.20737600326538086 28 47 62
0.124375000596046448 -0.30325201153755188 2.20082592964172363 34 53 69
0.124270997941493988 -0.301364988088607788 2.19898509979248047 36 55 71
0.124416999518871307 -0.300083011388778687 2.20156598091125488 34 54 69
0.124417997896671295 -0.298449993133544922 2.20158100128173828 31 52 66
0.12421099841594696 -0.296321988105773926 2.19792389869689941 28 48 61
0.124177999794483185 -0.294609993696212769 2.19733309745788574 23 44 55
0.123830996453762054 -0.292158991098403931 2.1911919116973877 18 40 47
0.123650997877120972 -0.290109008550643921 2.18800711631774902 15 36 43
0.123567000031471252 -0.288287997245788574 2.1865229606628418 10 29 37
0.123683996498584747 -0.286935001611709595 2.18859291076660156 4 21 32
0.123727999627590179 -0.285412013530731201 2.18937492370605469 5 20 33
0.123915001749992371 -0.284213989973068237 2.19267892837524414 5 20 33
0.124307997524738312 -0.283481001853942871 2.19962906837463379 6 20 33
0.124609999358654022 -0.282532006502151489 2.20497298240661621 5 20 33
0.124530002474784851 -0.280714988708496094 2.20356607437133789 5 20 33
0.1242389976978302 -0.278425008058547974 2.19840693473815918 5 20 33
0.124205000698566437 -0.276717007160186768 2.19780898094177246 3 20 31
0.124141000211238861 -0.274942994117736816 2.19668292999267578 1 19 27
0.12398800253868103 -0.272974014282226562 2.19397091865539551 1 19 26
0.123611003160476685 -0.270518988370895386 2.18729591369628906 0 18 24
0.123499996960163116 -0.268653988838195801 2.18534398078918457 0 17 24
0.123671002686023712 -0.267399013042449951 2.1883549690246582 0 16 24
0.123364001512527466 -0.265114009380340576 2.1829230785369873 0 15 24
0.123466998338699341 -0.26371300220489502 2.18474888801574707 1 13 25
0.123534001410007477 -0.262232989072799683 2.18594098091125488 1 14 23
0.123235002160072327 -0.259977996349334717 2.18064689636230469 1 14 22
0.123204998672008514 -0.258294999599456787 2.1801140308380127 0 13 19
0.122992001473903656 -0.256231993436813354 2.1763451099395752 1 12 18
0.123180001974105835 -0.255005002021789551 2.17967391014099121 0 11 17
0.123130001127719879 -0.253282994031906128 2.17878293991088867 0 9 16
0.123484000563621521 -0.252389013767242432 2.18506097793579102 0 8 15
0.123365998268127441 -0.250526994466781616 2.18297505378723145 0 7 15
0.12316499650478363 -0.248499006032943726 2.17940688133239746 0 6 14
0.123323000967502594 -0.247197002172470093 2.18220806121826172 0 7 13
0.123213998973369598 -0.24535900354385376 2.18027305603027344 0 7 13
0.12306000292301178 -0.243434995412826538 2.1775510311126709 1 7 13
0.123818002641201019 -0.243306994438171387 2.19096708297729492 1 6 12
0.123538002371788025 -0.241134002804756165 2.18601894378662109 1 6 12
0.123363003134727478 -0.239169999957084656 2.18291211128234863 0 5 11
0.124361999332904816 -0.239472001791000366 2.20058703422546387 0 4 10
0.124015003442764282 -0.237175002694129944 2.19445300102233887 0 4 10
0.124366998672485352 -0.236212998628616333 2.20068001747131348 0 3 11
0.124471001327037811 -0.234775006771087646 2.20252609252929688 0 3 11
0.124162003397941589 -0.232559993863105774 2.19705390930175781 0 3 9
0.122683003544807434 -0.228176996111869812 2.17087793350219727 0 4 8
0.12198600172996521 -0.225278005003929138 2.1585540771484375 0 4 6
0.122206002473831177 -0.224077001214027405 2.16243910789489746 0 4 5
0.124458998441696167 -0.224938005208969116 2.20231389999389648 0 4 5
0.124756999313831329 -0.223835006356239319 2.20757603645324707 0 3 5
0.123778998851776123 -0.217200994491577148 2.19028401374816895 0 2 7
0.123920001089572906 -0.215818002820014954 2.19276189804077148 0 2 7
0.123554997146129608 -0.213559001684188843 2.18630290031433105 0 2 7
0.124334998428821564 -0.213273003697395325 2.20010495185852051 0 2 7
0.124169997870922089 -0.211357995867729187 2.1971890926361084 0 2 6
0.123924002051353455 -0.209310993552207947 2.19283890724182129 0 4 6
0.123172998428344727 -0.20642399787902832 2.17955493927001953 0 5 5
0.123181000351905823 -0.204818993806838989 2.17969989776611328 1 4 4
0.123351000249385834 -0.203479006886482239 2.18269610404968262 7 7 7
0.123521998524665833 -0.202139005064964294 2.18573498725891113 21 17 19
0.123397998511791229 -0.200314000248908997 2.18354201316833496 43 35 37
0.123351000249385834 -0.198614999651908875 2.18269610404968262 67 55 56
0.123580001294612885 -0.197359994053840637 2.18675398826599121 86 72 72
0.123763002455234528 -0.196025997400283813 2.18999195098876953 100 84 85
0.124041996896266937 -0.194837003946304321 2.19492506980895996 108 92 92
0.123625002801418304 -0.192557007074356079 2.1875450611114502 112 97 96
0.123663999140262604 -0.190993994474411011 2.18824911117553711 117 103 100
0.123519003391265869 -0.189145997166633606 2.18567991256713867 118 106 101
0.123539999127388 -0.187553003430366516 2.18603801727294922 115 104 98
0.123921997845172882 -0.18650500476360321 2.19280600547790527 110 99 93
0.123692996799945831 -0.184534996747970581 2.1887509822845459 105 95 88
0.123503997921943665 -0.182629004120826721 2.18540501594543457 107 97 87
0.123510003089904785 -0.181014999747276306 2.18550801277160645 107 97 87
0.123451001942157745 -0.1793069988489151 2.1844780445098877 101 91 81
0.123506002128124237 -0.177763000130653381 2.18545198440551758 97 87 78
0.123342998325824738 -0.17590700089931488 2.1825559139251709 95 85 76
0.123484000563621521 -0.17448599636554718 2.18506097793579102 91 81 72
0.123799003660678864 -0.173302993178367615 2.19062495231628418 80 71 63
0.12365499883890152 -0.171476006507873535 2.18808197975158691 68 59 52
0.123692996799945831 -0.169902995228767395 2.1887509822845459 53 44 37
0.123853996396064758 -0.168495997786521912 2.19159889221191406 37 29 23
0.123627997934818268 -0.166564002633094788 2.18759799003601074 29 22 15
0.123744003474712372 -0.165095001459121704 2.18966197967529297 20 13 8
0.123875997960567474 -0.163641005754470825 2.19198393821716309 15 9 5
0.124108001589775085 -0.162318006157875061 2.19609999656677246 18 13 8
0.124159000813961029 -0.160752996802330017 2.19700407981872559 27 22 18
0.124248996376991272 -0.159235000610351562 2.19859004020690918 37 33 28
0.123861998319625854 -0.157112002372741699 2.19174408912658691 43 40 34
0.12404700368642807 -0.155716001987457275 2.19501709938049316 45 45 37
0.123938001692295074 -0.153950005769729614 2.1930840015411377 54 55 47
