ply
format ascii 1.0
element vertex 677
property float x
property float y
property float z
property uchar red
property uchar green
property uchar blue
end_header
0.20614999532699585 -0.237909004092216492 2.20124697685241699 0 5 14
0.205927997827529907 -0.236019998788833618 2.19888091087341309 0 4 13
0.205715999007225037 -0.234145000576972961 2.19661593437194824 0 4 13
0.205831006169319153 -0.232642993330955505 2.19783806800842285 0 3 13
0.206223994493484497 -0.231452003121376038 2.20203900337219238 0 3 13
0.205803006887435913 -0.229347005486488342 2.19754195213317871 0 3 13
0.205766007304191589 -0.227672994136810303 2.19714188575744629 0 4 13
0.20550200343132019 -0.22575099766254425 2.19432401657104492 0 4 14
0.205627992749214172 -0.22425900399684906 2.19567394256591797 0 5 13
0.205913007259368896 -0.222937002778053284 2.19871711730957031 0 5 12
0.205981999635696411 -0.22137799859046936 2.19945001602172852 0 5 12
0.205889999866485596 -0.21964600682258606 2.19846606254577637 0 5 11
0.205925002694129944 -0.2180510014295578 2.19884610176086426 0 5 11
0.205890998244285583 -0.216381996870040894 2.19848489761352539 0 5 11
0.206047996878623962 -0.21491299569606781 2.20016193389892578 0 5 11
0.205694004893302917 -0.212911993265151978 2.19637799263000488 0 5 11
0.205725997686386108 -0.211312994360923767 2.19672298431396484 0 5 11
0.204812005162239075 -0.20874999463558197 2.18696498870849609 0 5 11
0.204285994172096252 -0.206594005227088928 2.18134689331054688 0 5 11
0.20399099588394165 -0.204677000641822815 2.17819595336914062 0 5 11
0.203826993703842163 -0.202895998954772949 2.17644309997558594 0 5 11
0.204008996486663818 -0.20145900547504425 2.17838406562805176 0 5 11
0.203879997134208679 -0.199715003371238708 2.17700910568237305 0 5 11
0.203583002090454102 -0.197809994220733643 2.17384099960327148 0 5 11
0.203345999121665955 -0.195966005325317383 2.17130589485168457 0 5 11
0.204008996486663818 -0.194986999034881592 2.17838406562805176 0 5 11
0.203940004110336304 -0.193303003907203674 2.17764401435852051 0 5 11
0.204077005386352539 -0.191815003752708435 2.17910909652709961 0 5 11
0.204008996486663818 -0.190133005380630493 2.17838406562805176 0 4 10
0.203752994537353516 -0.188279002904891968 2.17565608024597168 0 4 10
0.203060001134872437 -0.186027005314826965 2.16824698448181152 0 4 10
0.203150004148483276 -0.184498995542526245 2.16921806335449219 0 4 10
0.202547997236251831 -0.182346001267433167 2.16278791427612305 0 5 12
0.202794000506401062 -0.180959001183509827 2.16541290283203125 0 5 14
0.203565999865531921 -0.180032998323440552 2.1736600399017334 0 5 15
0.203897997736930847 -0.1787090003490448 2.1772010326385498 0 5 15
0.204704001545906067 -0.177791997790336609 2.1858060359954834 0 5 15
0.204008996486663818 -0.173951998353004456 2.17838406562805176 0 5 14
0.204618006944656372 -0.172848999500274658 2.18489289283752441 0 6 13
0.205496996641159058 -0.171961992979049683 2.19427895545959473 0 5 12
0.20758800208568573 -0.172065004706382751 2.21660590171813965 0 4 11
0.207772001624107361 -0.170569002628326416 2.21856093406677246 0 4 11
0.206627994775772095 -0.161437004804611206 2.20635294914245605 2 7 13
0.204579994082450867 -0.158213004469871521 2.1844780445098877 1 6 11
0.203894004225730896 -0.156066000461578369 2.17716002464294434 1 3 8
0.203718006610870361 -0.154314994812011719 2.17527389526367188 0 2 7
0.203489005565643311 -0.152528002858161926 2.17282891273498535 0 2 7
0.203924000263214111 -0.151236996054649353 2.17747402191162109 0 1 7
0.204061999917030334 -0.149720996618270874 2.17894792556762695 0 3 10
0.204059004783630371 -0.148100003600120544 2.17892193794250488 0 3 11
0.203366994857788086 -0.145985007286071777 2.17153310775756836 4 11 20
0.203681007027626038 -0.14459499716758728 2.17488288879394531 25 36 46
0.203930005431175232 -0.143153995275497437 2.17753911018371582 46 61 73
0.201951995491981506 -0.138561993837356567 2.15641689300537109 31 50 65
0.20050300657749176 -0.135977998375892639 2.14095091819763184 26 45 60
0.203027993440628052 -0.136079996824264526 2.16791510581970215 23 42 57
0.204008996486663818 -0.135120004415512085 2.17838406562805176 21 38 54
0.203731998801231384 -0.133320003747940063 2.17542910575866699 18 34 50
0.201303005218505859 -0.130134999752044678 2.14949607849121094 16 32 47
0.198914006352424622 -0.127011999487876892 2.12398409843444824 16 32 46
0.197808995842933655 -0.124738000333309174 2.11217999458312988 15 31 44
0.195285007357597351 -0.12159699946641922 2.0852351188659668 14 30 43
0.199882000684738159 -0.121288999915122986 2.13432002067565918 11 27 40
0.200023993849754333 -0.119788996875286102 2.13583588600158691 10 26 39
0.199977993965148926 -0.118174999952316284 2.13534688949584961 10 25 38
0.199344992637634277 -0.116219997406005859 2.1285860538482666 9 24 37
0.197891995310783386 -0.113802999258041382 2.11306595802307129 10 24 37
0.197534993290901184 -0.110464997589588165 2.10925698280334473 13 26 39
0.198176994919776917 -0.109251998364925385 2.11611008644104004 14 27 41
0.196733996272087097 -0.102214999496936798 2.10070204734802246 18 32 45
0.19642600417137146 -0.10049699991941452 2.09741902351379395 18 34 47
0.197777003049850464 -0.0996199995279312134 2.11183810234069824 20 38 50
0.193238005042076111 -0.0942680016160011292 2.06337499618530273 17 35 47
0.195120006799697876 -0.0936390012502670288 2.08347511291503906 16 34 48
0.195806995034217834 -0.0924160033464431763 2.09080791473388672 15 33 47
0.199208006262779236 -0.0924410000443458557 2.12712001800537109 10 26 39
0.198231995105743408 -0.0904159992933273315 2.11670303344726562 3 19 31
0.196926996111869812 -0.0882589966058731079 2.10276699066162109 0 13 24
0.197248995304107666 -0.0868389979004859924 2.10620594024658203 0 12 21
0.198147997260093689 -0.0825200006365776062 2.11579990386962891 0 7 18
0.199301004409790039 -0.0814189985394477844 2.12811493873596191 0 7 18
0.19986000657081604 -0.0768920034170150757 2.13408708572387695 0 6 14
0.199173003435134888 -0.0750479996204376221 2.12674188613891602 0 6 12
0.199192002415657043 -0.0734750032424926758 2.12695002555847168 0 5 11
0.199536994099617004 -0.0704369992017745972 2.13063502311706543 0 2 9
0.200001999735832214 -0.0690149962902069092 2.13559889793395996 0 0 8
0.199469000101089478 -0.067249000072479248 2.12990808486938477 0 0 8
0.197568997740745544 -0.063474997878074646 2.10961604118347168 0 2 9
0.195356994867324829 -0.0550169982016086578 2.08600211143493652 0 1 9
0.195603996515274048 -0.0535349994897842407 2.08863592147827148 1 1 8
0.195640996098518372 -0.0519939996302127838 2.08903193473815918 0 2 6
0.195069998502731323 -0.0502949990332126617 2.08294105529785156 0 3 6
0.193908005952835083 -0.0484570004045963287 2.07052493095397949 0 2 6
0.193672001361846924 -0.0468619987368583679 2.06801295280456543 0 2 7
0.19488699734210968 -0.0456110015511512756 2.08098006248474121 0 2 7
0.194211006164550781 -0.0439120009541511536 2.07376503944396973 0 2 9
0.194188997149467468 -0.0423670001327991486 2.07352900505065918 0 1 11
0.194141998887062073 -0.0408169999718666077 2.07302403450012207 0 1 13
0.195978999137878418 -0.0365400016307830811 2.09264111518859863 1 4 16
0.197716996073722839 -0.0352960005402565002 2.11120200157165527 1 5 16
0.199194997549057007 -0.033980000764131546 2.12698101997375488 1 5 16
0.198690995573997498 -0.0323179997503757477 2.12160491943359375 1 5 16
0.194264993071556091 -0.030056999996304512 2.07433509826660156 0 5 16
0.194452002644538879 -0.0285439994186162949 2.07633399963378906 0 5 16
0.194722995162010193 -0.0270399991422891617 2.07922697067260742 0 5 15
0.197404995560646057 -0.0258460007607936859 2.1078639030456543 1 5 13
0.197185993194580078 -0.0195620004087686539 2.10553407669067383 0 3 10
0.193881005048751831 -0.0130829997360706329 2.07023501396179199 0 2 9
0.193620994687080383 -0.0115299997851252556 2.06746411323547363 0 2 9
0.192306995391845703 -0.00992699991911649704 2.05343508720397949 0 2 9
0.192635998129844666 -0.00688799982890486717 2.0569460391998291 0 2 9
0.193620994687080383 -0.00385199999436736107 2.06746411323547363 0 2 9
0.192999005317687988 -0.00230899988673627377 2.0608220100402832 0 1 9
0.192999005317687988 -0.00077799998689442873 2.0608220100402832 1 1 9
0.189615994691848755 0.00525100016966462135 2.02469706535339355 0 2 9
0.187468007206916809 0.0230340007692575455 2.00176596641540527 0 5 11
0.18752799928188324 0.0245280005037784576 2.00240111351013184 0 5 11
0.189188003540039062 0.0262460000813007355 2.02012801170349121 0 5 11
0.187943994998931885 0.0275640003383159637 2.00684309005737305 0 5 11
0.189827993512153625 0.0323569998145103455 2.02696394920349121 0 5 9
0.18863600492477417 0.0336499996483325958 2.01423501968383789 0 5 9
0.188730999827384949 0.0351639986038208008 2.01524806022644043 1 6 10
0.187811002135276794 0.0513780005276203156 2.00542092323303223 0 1 10
0.191383004188537598 0.0629800036549568176 2.04356694221496582 0 2 9
0.18939700722694397 0.0953740030527114868 2.02236294746398926 0 1 8
0.192011997103691101 0.0982140004634857178 2.05028390884399414 0 2 9
0.195226997137069702 0.115341998636722565 2.08460807800292969 0 1 5
0.194025993347167969 0.139254003763198853 2.07178401947021484 0 1 6
0.19343799352645874 0.141900002956390381 2.0655059814453125 0 0 3
0.194297000765800476 0.144071996212005615 2.07468509674072266 0 0 2
0.192900002002716064 0.144565999507904053 2.05976390838623047 0 0 0
0.192751005291938782 0.145982995629310608 2.05817794799804688 0 0 0
0.192812994122505188 0.147559002041816711 2.058837890625 0 0 0
0.19443899393081665 0.150345996022224426 2.07620096206665039 0 0 0
0.195020005106925964 0.152340993285179138 2.08240103721618652 0 0 0
0.195714995265007019 0.154437005519866943 2.08982300758361816 0 0 1
0.193469002842903137 0.154199004173278809 2.06584501266479492 0 0 2
0.211732000112533569 0.217454999685287476 2.26085591316223145 8 18 22
0.210269004106521606 0.217619001865386963 2.24522995948791504 55 67 67
0.207464993000030518 0.216362997889518738 2.21529293060302734 85 97 93
0.20642399787902832 0.21691499650478363 2.20417594909667969 130 146 135
0.201955005526542664 0.213819995522499084 2.15645408630371094 164 181 165
0.201717004179954529 0.215167999267578125 2.1539158821105957 153 170 150
0.205255001783370972 0.220569998025894165 2.19169211387634277 142 160 137
0.202632993459701538 0.220965996384620667 2.16369009017944336 141 161 134
0.203722000122070312 0.225384995341300964 2.17531991004943848 143 161 135
0.201065003871917725 0.22563500702381134 2.14695000648498535 145 163 140
0.201256006956100464 0.227446004748344421 2.14899396896362305 147 163 143
0.203499004244804382 0.231593996286392212 2.17293500900268555 148 163 144
0.199691995978355408 0.230430006980895996 2.13229203224182129 149 164 142
0.201189994812011719 0.233753994107246399 2.14828395843505859 149 163 140
0.200835004448890686 0.234934002161026001 2.14449000358581543 148 162 139
0.200681999325752258 0.236347004771232605 2.14286088943481445 146 160 137
0.201652005314826965 0.239087998867034912 2.15321493148803711 145 159 136
0.199982002377510071 0.238694995641708374 2.13539004325866699 144 158 135
0.200041994452476501 0.240353003144264221 2.13602590560913086 143 157 134
0.200110003352165222 0.242021992802619934 2.13675189018249512 142 158 135
0.202608004212379456 0.246649995446205139 2.16342401504516602 143 160 137
0.21700499951839447 -0.297984987497329712 2.29892611503601074 60 64 62
0.218201994895935059 -0.297912001609802246 2.31160593032836914 51 56 58
0.21270500123500824 -0.27869001030921936 2.25336909294128418 3 16 20
0.212911993265151978 -0.277285993099212646 2.25555992126464844 6 19 25
0.209935992956161499 -0.265150010585784912 2.22403097152709961 4 13 22
0.209539994597434998 -0.261352986097335815 2.21984100341796875 2 11 21
0.208923995494842529 -0.258940994739532471 2.21331310272216797 1 11 21
0.208535999059677124 -0.256819009780883789 2.20920109748840332 0 10 20
0.207962006330490112 -0.254474997520446777 2.20312094688415527 0 10 19
0.208590999245643616 -0.253603994846343994 2.20978307723999023 0 10 19
0.208810999989509583 -0.252227991819381714 2.2121129035949707 1 11 18
0.20867900550365448 -0.250427007675170898 2.21072101593017578 1 10 17
0.208083003759384155 -0.248073995113372803 2.20440101623535156 0 8 13
0.208283007144927979 -0.24667300283908844 2.20651888847351074 0 7 12
0.208489999175071716 -0.245278000831604004 2.2087099552154541 0 5 13
0.208957001566886902 -0.244183003902435303 2.21366190910339355 0 5 13
0.208746001124382019 -0.242293998599052429 2.21142411231994629 0 5 13
0.208827003836631775 -0.240744993090629578 2.21228408813476562 0 5 15
0.207749992609024048 -0.237868994474411011 2.20087504386901855 0 5 16
0.20776599645614624 -0.23625299334526062 2.20105099678039551 0 5 16
0.207542002201080322 -0.234365001320838928 2.19867706298828125 0 6 15
0.207718998193740845 -0.232930004596710205 2.20054793357849121 0 6 15
0.207773998379707336 -0.231355994939804077 2.20112895965576172 0 6 15
0.207514002919197083 -0.229433998465538025 2.19837403297424316 0 6 15
0.207433000206947327 -0.227712005376815796 2.19751501083374023 0 6 15
0.207266002893447876 -0.225897997617721558 2.19574999809265137 0 6 15
0.207344993948936462 -0.224353000521659851 2.19658589363098145 0 7 15
0.207662001252174377 -0.223061993718147278 2.19994711875915527 0 7 15
0.207774996757507324 -0.221548005938529968 2.20114398002624512 0 6 13
0.207908004522323608 -0.220054000616073608 2.20255088806152344 0 6 12
0.207751005887985229 -0.218253001570701599 2.20088410377502441 0 6 12
0.207668006420135498 -0.216532006859779358 2.2000119686126709 0 6 12
0.20780499279499054 -0.215039998292922974 2.20146298408508301 0 6 12
0.207518994808197021 -0.213109999895095825 2.1984250545501709 1 6 12
0.207089006900787354 -0.211040005087852478 2.1938788890838623 0 5 11
0.207026004791259766 -0.209345996379852295 2.1932060718536377 0 5 11
0.207047998905181885 -0.207738995552062988 2.19343709945678711 0 5 11
0.206095993518829346 -0.205163002014160156 2.18335795402526855 0 5 11
0.205952003598213196 -0.203398004174232483 2.18182492256164551 0 5 11
0.206468001008033752 -0.202282994985580444 2.18729591369628906 0 5 11
0.207223996520042419 -0.201392993330955505 2.19530296325683594 0 5 11
0.206229999661445618 -0.198805004358291626 2.18477511405944824 0 5 11
0.206144005060195923 -0.197099000215530396 2.18386006355285645 0 5 11
0.205347999930381775 -0.194721996784210205 2.17542910575866699 0 6 12
0.205727994441986084 -0.193463996052742004 2.17946004867553711 0 6 12
0.206485003232955933 -0.192551001906394958 2.18747210502624512 0 5 11
0.20697300136089325 -0.191376999020576477 2.19264006614685059 0 5 11
0.206997007131576538 -0.189770996570587158 2.19289708137512207 0 5 11
0.206299006938934326 -0.187508001923561096 2.18550801277160645 0 5 11
0.206847995519638062 -0.186379000544548035 2.19132399559020996 0 5 12
0.207385003566741943 -0.185231000185012817 2.19700407981872559 0 6 14
0.20721900463104248 -0.183451995253562927 2.19524598121643066 0 6 16
0.207298994064331055 -0.181891992688179016 2.19609999656677246 0 6 16
0.207809999585151672 -0.1807049959897995 2.2015080451965332 0 6 16
0.208615005016326904 -0.179763004183769226 2.21003890037536621 0 6 16
0.208670005202293396 -0.178168997168540955 2.21062207221984863 0 6 16
0.208233997225761414 -0.17615799605846405 2.20600199699401855 0 6 15
0.207397997379302979 -0.173818007111549377 2.19714188575744629 0 6 14
0.20836600661277771 -0.172989994287490845 2.2073979377746582 0 5 13
0.208267003297805786 -0.171268999576568604 2.20635294914245605 0 5 13
0.209249004721641541 -0.170430004596710205 2.21675491333007812 0 5 12
0.209626004099845886 -0.169088006019592285 2.22075200080871582 0 5 11
0.209497004747390747 -0.167335003614425659 2.21937990188598633 1 6 12
0.20879499614238739 -0.163488999009132385 2.21195006370544434 1 6 12
0.208113998174667358 -0.161318004131317139 2.20473599433898926 1 6 12
0.207600995898246765 -0.159286007285118103 2.19929409027099609 1 5 11
0.208539992570877075 -0.158365994691848755 2.20924806594848633 0 3 8
0.206561997532844543 -0.155239000916481018 2.18829107284545898 0 2 7
0.20748099684715271 -0.154296994209289551 2.19802999496459961 0 1 6
0.205851003527641296 -0.149845004081726074 2.18075299263000488 0 3 10
0.205514997243881226 -0.147982999682426453 2.1772010326385498 0 3 11
0.202289000153541565 -0.137702003121376038 2.14302396774291992 32 51 64
0.201428994536399841 -0.135530993342399597 2.13391399383544922 27 46 60
0.204515993595123291 -0.1343889981508255 2.16661310195922852 22 39 54
0.201574996113777161 -0.129284992814064026 2.13545703887939453 17 33 47
0.20071999728679657 -0.127157002687454224 2.12639689445495605 16 32 45
0.200623005628585815 -0.120780996978282928 2.12537288665771484 11 27 40
0.200806006789207458 -0.119310997426509857 2.12730693817138672 11 26 39
0.200748994946479797 -0.117697000503540039 2.12670993804931641 11 25 38
0.199650004506111145 -0.11548200249671936 2.11507010459899902 10 24 37
0.199924007058143616 -0.114068001508712769 2.11797308921813965 9 23 36
0.197364002466201782 -0.111054003238677979 2.09084892272949219 11 24 37
0.197963997721672058 -0.109833002090454102 2.09720206260681152 12 24 38
0.196331992745399475 -0.105838000774383545 2.07991194725036621 15 27 41
0.199136003851890564 -0.105783000588417053 2.10961604118347168 16 28 42
0.196906998753547668 -0.101499997079372406 2.08600211143493652 17 32 45
0.197473004460334778 -0.100238002836704254 2.09200406074523926 18 34 47
0.199995994567871094 -0.0999450013041496277 2.11873602867126465 19 37 50
0.199370995163917542 -0.0980639979243278503 2.11210989952087402 19 37 51
0.196485996246337891 -0.0920070037245750427 2.08155107498168945 17 34 48
0.199176996946334839 -0.0916989967226982117 2.11005902290344238 11 26 39
0.199272006750106812 -0.0901750028133392334 2.11106395721435547 4 18 31
0.198926001787185669 -0.0884530022740364075 2.10739803314208984 0 11 23
0.199036002159118652 -0.0869359970092773438 2.10855889320373535 0 10 22
0.198942005634307861 -0.085329003632068634 2.10756206512451172 0 8 19
0.19781099259853363 -0.0817309990525245667 2.09558296203613281 0 8 21
0.20070900022983551 -0.0813490003347396851 2.1262819766998291 0 8 21
0.201520994305610657 -0.0785069987177848816 2.13488888740539551 0 8 19
0.200738996267318726 -0.0750430002808570862 2.12660598754882812 0 6 12
0.199434995651245117 -0.0729859992861747742 2.11279201507568359 0 5 11
0.19761599600315094 -0.0707650035619735718 2.09351706504821777 1 3 10
0.200896993279457092 -0.0703599974513053894 2.12827801704406738 1 1 9
0.20256100594997406 -0.0693479999899864197 2.14590597152709961 0 0 8
0.200527995824813843 -0.067074999213218689 2.12436890602111816 0 0 8
0.198201999068260193 -0.0647369995713233948 2.0997309684753418 0 1 9
0.198293998837471008 -0.061645999550819397 2.10070204734802246 0 2 9
0.195895999670028687 -0.0547350011765956879 2.07529902458190918 0 1 9
0.197088003158569336 -0.0535169988870620728 2.08792591094970703 1 1 8
0.197117999196052551 -0.0519739985466003418 2.08823990821838379 0 1 8
0.196622997522354126 -0.050296001136302948 2.08299899101257324 0 3 7
0.195975005626678467 -0.0485880002379417419 2.07612895965576172 0 3 6
0.195403993129730225 -0.0469090007245540619 2.0700829029083252 0 2 7
0.196127995848655701 -0.04554000124335289 2.07775592803955078 0 2 9
0.196041002869606018 -0.043976999819278717 2.07683396339416504 0 2 11
0.195167005062103271 -0.0422450006008148193 2.06757211685180664 0 2 11
0.195893004536628723 -0.0408609993755817413 2.07526111602783203 0 1 13
0.197209000587463379 -0.0380319990217685699 2.08920097351074219 1 4 16
0.197758004069328308 -0.0365820005536079407 2.09501791000366211 1 4 16
0.197503000497817993 -0.0349799990653991699 2.0923159122467041 1 5 16
0.199344992637634277 -0.0337379984557628632 2.11183810234069824 0 5 16
0.199230998754501343 -0.0305829998105764389 2.11062502861022949 0 5 16
0.195702999830245972 -0.0285020004957914352 2.07325410842895508 0 5 16
0.197299003601074219 -0.0225239992141723633 2.09015893936157227 0 5 11
0.197546005249023438 -0.0194439999759197235 2.09277510643005371 0 3 10
0.197429001331329346 -0.0178779996931552887 2.0915369987487793 0 3 10
0.196969002485275269 -0.0162870008498430252 2.08665990829467773 0 3 10
0.195175006985664368 -0.013066999614238739 2.06765389442443848 0 2 9
0.195305004715919495 -0.00539200007915496826 2.06904006004333496 0 2 9
0.196476995944976807 0.000760000024456530809 2.08145499229431152 0 1 8
0.190345004200935364 0.00522999977692961693 2.01648688316345215 0 2 8
0.189105004072189331 0.0245399996638298035 2.00335597991943359 0 5 11
0.189775004982948303 0.0261199995875358582 2.01044797897338867 0 5 11
0.189287006855010986 0.0275430008769035339 2.00528097152709961 0 5 11
0.192761003971099854 0.0325980000197887421 2.04207992553710938 0 5 9
0.19173799455165863 0.0339340008795261383 2.03124189376831055 0 5 9
0.190788999199867249 0.0352680012583732605 2.02119803428649902 0 5 9
0.189459994435310364 0.0365130007266998291 2.00711798667907715 0 5 9
0.19004899263381958 0.0500850006937980652 2.01335597038269043 1 1 11
0.1909170001745224 0.0623320005834102631 2.02254891395568848 0 2 11
0.189814001321792603 0.063465997576713562 2.01086902618408203 0 2 11
0.192827999591827393 0.09785500168800354 2.04279088973999023 0 2 10
0.192845001816749573 0.0993809998035430908 2.04297208786010742 0 2 9
0.193157002329826355 0.101061999797821045 2.04628396034240723 0 2 7
0.193150997161865234 0.111698001623153687 2.04621601104736328 0 1 4
0.194600999355316162 0.114068001508712769 2.06157898902893066 0 1 5
0.192670002579689026 0.138708993792533875 2.0411229133605957 0 0 4
0.194031000137329102 0.142741993069648743 2.05554008483886719 0 0 0
0.192697003483772278 0.143278002738952637 2.0414121150970459 0 0 0
0.192268997430801392 0.144472002983093262 2.03687691688537598 0 0 0
0.192424997687339783 0.146102994680404663 2.03852701187133789 0 0 0
0.196936994791030884 0.152628004550933838 2.08632302284240723 0 0 0
0.189619004726409912 0.157401993870735168 2.00880193710327148 0 1 1
0.210501998662948608 0.216147005558013916 2.23003506660461426 59 71 71
0.207154005765914917 0.214339002966880798 2.1945650577545166 86 98 94
0.205347999930381775 0.214085996150970459 2.17542910575866699 135 151 140
0.205917000770568848 0.216298997402191162 2.1814570426940918 168 185 169
0.206577003002166748 0.218618005514144897 2.18844509124755859 151 169 148
0.206982001662254333 0.220675006508827209 2.19274091720581055 140 158 134
0.203442007303237915 0.220102995634078979 2.15523695945739746 141 161 133
0.204304993152618408 0.222644999623298645 2.16438508033752441 142 161 134
0.201511994004249573 0.224356994032859802 2.13479089736938477 145 163 140
0.201682001352310181 0.226134002208709717 2.13659501075744629 147 163 143
0.20136299729347229 0.230528995394706726 2.13320803642272949 149 164 142
0.201849997043609619 0.23267500102519989 2.13836789131164551 149 163 140
0.201534003019332886 0.233896002173423767 2.13502001762390137 148 162 139
0.20217500627040863 0.236230999231338501 2.14181303977966309 146 160 137
0.201772004365921021 0.237349003553390503 2.13755011558532715 145 159 136
0.201628997921943665 0.238765999674797058 2.13602590560913086 144 158 135
0.201178997755050659 0.239816993474960327 2.13125991821289062 143 157 134
0.20172099769115448 0.242050006985664368 2.13700389862060547 143 158 135
0.204175993800163269 0.246602997183799744 2.16301608085632324 143 160 137
0.200362995266914368 0.243573993444442749 2.12261390686035156 143 161 137
0.198613002896308899 0.243009999394416809 2.1040799617767334 143 161 137
0.218220993876457214 -0.297315001487731934 2.29375600814819336 76 79 76
0.218759998679161072 -0.296341001987457275 2.29941797256469727 56 61 62
0.218467995524406433 -0.294241011142730713 2.29635310173034668 51 57 60
0.216303005814552307 -0.289635986089706421 2.27360010147094727 50 58 61
0.215437993407249451 -0.286796003580093384 2.26450395584106445 44 55 58
0.214228004217147827 -0.27849501371383667 2.25178694725036621 5 18 25
0.213398993015289307 -0.269086003303527832 2.24306607246398926 4 13 22
0.212448000907897949 -0.264569997787475586 2.2330780029296875 3 12 21
0.212270006537437439 -0.262690991163253784 2.2312009334564209 2 11 20
0.211036995053291321 -0.25951799750328064 2.2182469367980957 1 11 20
0.211607992649078369 -0.258567005395889282 2.22424197196960449 1 10 20
0.211917996406555176 -0.257292002439498901 2.22750306129455566 0 10 19
0.211356997489929199 -0.254960000514984131 2.22160100936889648 0 9 18
0.211427003145217896 -0.253394991159439087 2.22234511375427246 1 9 17
0.211215004324913025 -0.25149199366569519 2.22011804580688477 0 8 14
0.211292997002601624 -0.249934002757072449 2.22093296051025391 0 7 13
0.211456999182701111 -0.2484779953956604 2.22266101837158203 0 5 11
0.211787998676300049 -0.247213006019592285 2.22614097595214844 0 5 11
0.212718993425369263 -0.24663899838924408 2.23592495918273926 0 5 11
0.211133003234863281 -0.243151992559432983 2.2192530632019043 0 5 13
0.210343003273010254 -0.24060000479221344 2.2109520435333252 0 6 16
0.21031700074672699 -0.23892800509929657 2.21067905426025391 1 8 19
0.209894999861717224 -0.236809998750686646 2.20623898506164551 1 8 21
0.210185006260871887 -0.235495999455451965 2.20928502082824707 1 9 19
0.209562003612518311 -0.233162000775337219 2.20274090766906738 1 9 19
0.209670007228851318 -0.231645002961158752 2.2038719654083252 1 9 19
0.209200993180274963 -0.229493007063865662 2.19894289970397949 0 9 19
0.209380000829696655 -0.228055000305175781 2.20082402229309082 0 9 19
0.209024995565414429 -0.226036995649337769 2.19709897041320801 0 9 18
0.209130004048347473 -0.224517002701759338 2.19819808006286621 0 10 17
0.209409996867179871 -0.223183006048202515 2.20114398002624512 0 9 16
0.209646999835968018 -0.221799001097679138 2.20363402366638184 0 9 16
0.209957003593444824 -0.220487996935844421 2.20689296722412109 0 8 15
0.209638997912406921 -0.218517005443572998 2.20354890823364258 0 7 14
0.209487006068229675 -0.216722995042800903 2.20194697380065918 0 6 12
0.209831997752189636 -0.215441003441810608 2.20557498931884766 0 6 12
0.208948001265525818 -0.212901994585990906 2.19628190994262695 0 6 12
0.20909099280834198 -0.211416006088256836 2.19778704643249512 0 5 11
0.20837700366973877 -0.209067001938819885 2.19028401374816895 0 5 11
0.208948001265525818 -0.20800800621509552 2.19628190994262695 0 5 11
0.21099400520324707 -0.208397999405860901 2.2177879810333252 0 5 11
0.211765006184577942 -0.207506000995635986 2.22589302062988281 0 5 11
0.21161399781703949 -0.205706000328063965 2.2243049144744873 0 5 11
0.209139004349708557 -0.201666995882987976 2.19828891754150391 0 5 11
0.209015995264053345 -0.199917003512382507 2.19700407981872559 0 5 11
0.207872003316879272 -0.197200000286102295 2.18497896194458008 0 6 12
0.207245007157325745 -0.194986999034881592 2.17838406562805176 0 7 13
0.207221001386642456 -0.193347007036209106 2.17813205718994141 0 8 13
0.208183005452156067 -0.192618995904922485 2.18824911117553711 0 7 12
0.20837700366973877 -0.191171005368232727 2.19028401374816895 0 7 12
0.20844799280166626 -0.18960900604724884 2.19103097915649414 0 7 12
0.209860995411872864 -0.189255997538566589 2.20587801933288574 0 7 12
0.210708007216453552 -0.188374996185302734 2.21478700637817383 0 7 13
0.210752993822097778 -0.186768993735313416 2.21525406837463379 0 7 15
0.209751993417739868 -0.184245005249977112 2.20473599433898926 0 7 17
0.209905996918678284 -0.18274100124835968 2.20635294914245605 0 7 18
0.210958003997802734 -0.182009994983673096 2.21741700172424316 0 7 18
0.210995003581047058 -0.180395007133483887 2.217803955078125 0 7 17
0.211057007312774658 -0.178800001740455627 2.21845102310180664 0 8 17
0.211131006479263306 -0.177213996648788452 2.21923398971557617 0 7 17
0.211590006947517395 -0.175946995615959167 2.22405409812927246 0 7 16
0.211606994271278381 -0.174309000372886658 2.22423195838928223 0 6 15
0.211242005228996277 -0.172360002994537354 2.22039699554443359 0 5 13
0.211110994219779968 -0.170604005455970764 2.21901607513427734 0 5 13
0.211520999670028687 -0.169284999370574951 2.22333502769470215 0 6 13
0.211989998817443848 -0.168005004525184631 2.22826099395751953 0 6 12
0.212261006236076355 -0.1665630042552948 2.23111200332641602 0 6 12
0.211484000086784363 -0.164302006363868713 2.22294402122497559 0 5 11
0.210476994514465332 -0.16187499463558197 2.21235203742980957 0 5 11
0.210456997156143188 -0.160218000411987305 2.21215009689331055 0 4 10
0.210801005363464355 -0.158833995461463928 2.21576499938964844 0 2 7
0.209850996732711792 -0.156479001045227051 2.20577597618103027 0 1 6
0.209053993225097656 -0.154253005981445312 2.19739699363708496 0 1 6
0.209685996174812317 -0.153081998229026794 2.20404291152954102 0 1 7
0.211821004748344421 -0.146372005343437195 2.22648811340332031 48 62 72
0.213181003928184509 -0.145647004246711731 2.24077606201171875 40 58 68
0.202990993857383728 -0.135516002774238586 2.13367199897766113 28 47 59
0.207964003086090088 -0.137211993336677551 2.18594098091125488 25 44 55
0.207597002387046814 -0.135349005460739136 2.18208909034729004 22 40 51
0.207728996872901917 -0.133812993764877319 2.18346810340881348 20 36 48
0.2037229984998703 -0.129641994833946228 2.14136695861816406 17 33 46
0.205054998397827148 -0.127287998795509338 2.15536808967590332 15 31 44
0.205074995756149292 -0.1256989985704422 2.1555778980255127 14 30 43
0.202837005257606506 -0.122744001448154449 2.13205099105834961 13 29 42
0.201710999011993408 -0.11891300231218338 2.12021303176879883 11 26 39
0.201327994465827942 -0.117114998400211334 2.11619400978088379 11 25 38
0.201184004545211792 -0.115460999310016632 2.11467289924621582 10 24 37
0.199967995285987854 -0.113201998174190521 2.10189509391784668 9 22 35
0.198130995035171509 -0.110615000128746033 2.08258700370788574 10 23 36
0.198300004005432129 -0.109160996973514557 2.08435893058776855 11 23 37
0.197968006134033203 -0.107432998716831207 2.08087611198425293 13 25 39
0.198340997099876404 -0.106086000800132751 2.08479094505310059 15 26 41
0.199113994836807251 -0.10494600236415863 2.09292006492614746 16 27 41
0.198244005441665649 -0.102939002215862274 2.08377194404602051 17 29 43
0.197769999504089355 -0.101149000227451324 2.07879209518432617 17 31 44
0.197925001382827759 -0.0996830016374588013 2.08042597770690918 17 33 46
0.200095996260643005 -0.0992140024900436401 2.10324406623840332 18 36 49
0.199652001261711121 -0.09743499755859375 2.09857392311096191 18 36 50
0.196285992860794067 -0.0927269980311393738 2.06319189071655273 20 38 52
0.197971001267433167 -0.0919779986143112183 2.08090090751647949 19 36 50
0.200203999876976013 -0.0898889973759651184 2.10437107086181641 4 17 30
0.199027001857757568 -0.087806999683380127 2.09200406074523926 0 10 22
0.200894996523857117 -0.0870620012283325195 2.11163496971130371 0 10 21
0.19999299943447113 -0.085110001266002655 2.10215592384338379 0 9 20
0.198686003684997559 -0.0830029994249343872 2.0884239673614502 0 9 20
0.197738006711006165 -0.081063002347946167 2.07845902442932129 0 9 22
0.198419004678726196 -0.0704979971051216125 2.08561110496520996 0 4 10
0.201377004384994507 -0.06997700035572052 2.11670303344726562 0 2 9
0.204496994614601135 -0.0694639980792999268 2.14949607849121094 0 0 8
0.198865994811058044 -0.0644460022449493408 2.09030795097351074 0 1 9
0.198746994137763977 -0.0628570020198822021 2.0890660285949707 0 2 9
0.199130997061729431 -0.0614229999482631683 2.09309601783752441 0 2 9
0.198419004678726196 -0.0550069995224475861 2.08561110496520996 0 1 9
0.198097005486488342 -0.0533710010349750519 2.08222699165344238 1 1 8
0.198097005486488342 -0.0518239997327327728 2.08222699165344238 0 2 7
0.197970002889633179 -0.0502460002899169922 2.08089494705200195 0 3 7
0.197279006242752075 -0.0485300011932849884 2.07363510131835938 0 3 7
0.196619004011154175 -0.0468330010771751404 2.06669306755065918 0 3 8
0.196701005101203918 -0.0453159995377063751 2.06755304336547852 0 3 10
0.196420997381210327 -0.0437179990112781525 2.06461191177368164 0 3 12
0.196287006139755249 -0.0421559996902942657 2.06320500373840332 0 2 12
0.196983993053436279 -0.0407680012285709381 2.07052493095397949 0 2 14
0.198200002312660217 -0.0379250012338161469 2.08330893516540527 1 5 16
0.20088900625705719 -0.0321660004556179047 2.11157608032226562 0 6 16
0.197697997093200684 -0.0223939996212720871 2.07803010940551758 0 5 11
0.197857007384300232 -0.0193220004439353943 2.07970595359802246 0 3 10
0.197925001382827759 -0.0177839994430541992 2.08042597770690918 0 3 10
0.196474000811576843 -0.0145850004628300667 2.06516504287719727 0 2 9
0.196810007095336914 0.000755999993998557329 2.06870508193969727 0 2 7
0.196757003664970398 0.00229099998250603676 2.06814789772033691 0 2 7
0.196464002132415771 0.00382199999876320362 2.06506800651550293 0 2 7
0.191854998469352722 0.00522999977692961693 2.01661896705627441 0 2 7
0.190613999962806702 0.0260310005396604538 2.00357794761657715 0 5 11
0.190743997693061829 0.0275379996746778488 2.00493788719177246 0 5 10
0.194332003593444824 0.03109000064432621 2.04265189170837402 0 5 9
0.195194005966186523 0.0327519997954368591 2.05171489715576172 0 5 9
0.193433001637458801 0.0339669995009899139 2.03320407867431641 0 5 9
0.192066997289657593 0.0352270007133483887 2.01884603500366211 0 5 9
0.190730005502700806 0.0364710018038749695 2.00479388236999512 0 5 9
0.190304994583129883 0.0750190019607543945 2.00032210350036621 1 2 7
0.193377003073692322 0.0988769978284835815 2.03261494636535645 0 2 7
0.192596003413200378 0.107500001788139343 2.02440500259399414 1 2 3
0.192709997296333313 0.110573001205921173 2.02560901641845703 0 1 4
0.194470003247261047 0.113100998103618622 2.04410791397094727 0 1 5
0.194997996091842651 0.114929996430873871 2.04965591430664062 0 1 5
0.19234900176525116 0.131390005350112915 2.02181005477905273 0 1 5
0.192066997289657593 0.141693994402885437 2.01884603500366211 0 0 0
0.191816002130508423 0.143006995320320129 2.01621198654174805 0 0 0
0.192580997943878174 0.145080000162124634 2.02424788475036621 0 0 0
0.198612004518508911 0.154275998473167419 2.0876469612121582 0 0 1
0.192802995443344116 0.161806002259254456 2.02658605575561523 0 1 1
0.21200600266456604 0.214335992932319641 2.22842597961425781 24 34 36
0.205347999930381775 0.212414994835853577 2.1584479808807373 139 155 144
0.206202000379562378 0.214907005429267883 2.16742110252380371 167 184 168
0.206682994961738586 0.217023000121116638 2.17248201370239258 151 169 147
0.208524003624916077 0.220584005117416382 2.19182801246643066 140 158 133
0.205285996198654175 0.220363005995750427 2.15778899192810059 141 161 133
0.205496996641159058 0.223800003528594971 2.16001605987548828 143 161 135
0.205090999603271484 0.22495800256729126 2.15574002265930176 144 162 138
0.203042998909950256 0.225881993770599365 2.13421201705932617 147 163 143
0.20531800389289856 0.230015993118286133 2.15813207626342773 148 163 144
0.205101996660232544 0.231374993920326233 2.15585899353027344 149 164 144
0.203327998518943787 0.230961993336677551 2.13721609115600586 149 164 142
0.203485995531082153 0.234319001436233521 2.13887500762939453 148 162 139
0.203473001718521118 0.235892996191978455 2.13874101638793945 146 160 137
0.204412996768951416 0.238578006625175476 2.14861702919006348 145 159 136
0.202837005257606506 0.238322004675865173 2.13205099105834961 144 158 135
0.204032003879547119 0.242911994457244873 2.14461398124694824 142 158 135
0.205384999513626099 0.246126994490623474 2.15883588790893555 143 160 137
0.201041996479034424 0.242492005228996277 2.1131889820098877 143 161 137
0.199652001261711121 0.242374002933502197 2.09857392311096191 143 161 137
0.217194005846977234 -0.300354987382888794 2.26528000831604004 183 177 167
0.216769993305206299 -0.298088997602462769 2.26085591316223145 173 171 161
0.218253001570701599 -0.298436999320983887 2.27631807327270508 157 158 149
0.21855500340461731 -0.297156989574432373 2.27947402000427246 130 132 126
0.218869999051094055 -0.295888990163803101 2.28275203704833984 100 103 100
0.219249993562698364 -0.29470399022102356 2.28671693801879883 71 76 76
0.21877799928188324 -0.292374998331069946 2.28179097175598145 48 54 56
0.218365997076034546 -0.290132999420166016 2.27749896049499512 39 48 50
0.218176007270812988 -0.288190990686416626 2.27552008628845215 40 50 53
0.215659007430076599 -0.279852986335754395 2.24925994873046875 15 29 33
0.216561004519462585 -0.279345989227294922 2.25867295265197754 12 25 30
0.217070996761322021 -0.278322994709014893 2.2639930248260498 11 24 31
0.217684000730514526 -0.277422010898590088 2.27038097381591797 10 23 32
0.217996999621391296 -0.27613300085067749 2.2736508846282959 7 19 29
0.218870997428894043 -0.27554398775100708 2.28276801109313965 5 16 26
0.21491299569606781 -0.268896996974945068 2.24148797988891602 4 14 23
0.214024007320404053 -0.266126006841659546 2.23221302032470703 4 13 20
0.213712006807327271 -0.264082014560699463 2.22896003723144531 4 13 21
0.213503003120422363 -0.262169986963272095 2.2267758846282959 3 12 21
0.213312998414039612 -0.260284006595611572 2.22479891777038574 2 11 20
0.213159993290901184 -0.258446007966995239 2.22319793701171875 1 10 19
0.213522002100944519 -0.257230997085571289 2.22697806358337402 1 10 19
0.213355004787445068 -0.25537601113319397 2.22523093223571777 1 10 18
0.211956992745399475 -0.252061009407043457 2.21065306663513184 1 8 15
0.211924999952316284 -0.250380992889404297 2.21031498908996582 0 7 13
0.212599992752075195 -0.249531999230384827 2.21735906600952148 0 6 12
0.213338002562522888 -0.24874599277973175 2.22505497932434082 0 5 11
0.214273005723953247 -0.24817599356174469 2.23480701446533203 0 5 11
0.21367199718952179 -0.245824992656707764 2.22854399681091309 0 5 11
0.211830005049705505 -0.242063999176025391 2.20932507514953613 0 6 14
0.211945995688438416 -0.24055500328540802 2.21053910255432129 0 8 17
0.211309000849723816 -0.23819500207901001 2.20389294624328613 3 12 22
0.211484000086784363 -0.236754000186920166 2.20572090148925781 4 13 25
0.211156994104385376 -0.234752997756004333 2.20231389999389648 4 13 24
0.211257994174957275 -0.233226999640464783 2.20336008071899414 4 14 24
0.211156994104385376 -0.231481000781059265 2.20231389999389648 4 14 24
0.210963994264602661 -0.229635000228881836 2.20029997825622559 3 13 23
0.210630998015403748 -0.227641001343727112 2.19682908058166504 3 13 22
0.210374996066093445 -0.22573399543762207 2.19414997100830078 3 13 22
0.210152000188827515 -0.22386699914932251 2.19182801246643066 1 12 19
0.21073499321937561 -0.222856000065803528 2.19791388511657715 1 12 18
0.210898995399475098 -0.221395000815391541 2.19961905479431152 1 11 17
0.211149007081985474 -0.220020994544029236 2.20222210884094238 0 10 16
0.211126998066902161 -0.218363001942634583 2.20199799537658691 0 8 14
0.21086999773979187 -0.216463997960090637 2.19932198524475098 0 7 13
0.210691004991531372 -0.214647993445396423 2.19744992256164551 0 7 13
0.210571005940437317 -0.21289399266242981 2.19619488716125488 0 6 12
0.210399001836776733 -0.211089998483657837 2.19440388679504395 1 6 12
0.21000400185585022 -0.209067001938819885 2.19028401374816895 1 6 12
0.210412994027137756 -0.207845002412796021 2.19455289840698242 0 6 12
0.210770994424819946 -0.206566005945205688 2.19828891754150391 0 6 12
0.211593002080917358 -0.205732002854347229 2.20686006546020508 0 6 12
0.212047994136810303 -0.204530999064445496 2.21160292625427246 0 6 12
0.210527002811431885 -0.201433002948760986 2.19573593139648438 0 6 12
0.209702000021934509 -0.19901999831199646 2.18713998794555664 0 6 12
0.209242001175880432 -0.19696199893951416 2.18233609199523926 0 7 13
0.208485007286071777 -0.194634005427360535 2.17444610595703125 0 8 14
0.208892002701759338 -0.193396002054214478 2.17868709564208984 0 9 14
0.209220007061958313 -0.19207899272441864 2.18211007118225098 0 8 13
0.21000400185585022 -0.191171005368232727 2.19028401374816895 0 8 13
0.210518002510070801 -0.190008997917175293 2.1956489086151123 0 8 13
0.210611000657081604 -0.188461005687713623 2.19661593437194824 0 8 13
0.210635006427764893 -0.186849996447563171 2.19686508178710938 0 8 14
0.210757002234458923 -0.185326993465423584 2.19814300537109375 0 8 16
0.210472002625465393 -0.183445006608963013 2.19516897201538086 0 8 18
0.210730999708175659 -0.182037994265556335 2.19786596298217773 0 8 19
0.210947006940841675 -0.180590003728866577 2.20011711120605469 0 8 19
0.211440995335578918 -0.179376006126403809 2.20527505874633789 0 8 18
0.211411997675895691 -0.177713006734848022 2.20497298240661621 0 9 18
0.211804002523422241 -0.176402002573013306 2.20905494689941406 0 8 18
0.212734997272491455 -0.175529003143310547 2.2187659740447998 1 8 18
0.2128400057554245 -0.17396700382232666 2.21986007690429688 0 7 16
0.212751001119613647 -0.172245994210243225 2.21893405914306641 0 6 14
0.212550997734069824 -0.17043699324131012 2.21684694290161133 0 6 14
0.213565006852149963 -0.169596001505851746 2.22742700576782227 0 6 14
0.213919997215270996 -0.168220996856689453 2.23112893104553223 0 6 13
0.214469999074935913 -0.16699199378490448 2.23686909675598145 0 5 11
0.213370993733406067 -0.164482995867729187 2.2254021167755127 0 5 11
0.213450998067855835 -0.162891998887062073 2.22623801231384277 0 4 10
0.211855992674827576 -0.160033002495765686 2.20959591865539551 0 3 9
0.211545005440711975 -0.158159002661705017 2.20635294914245605 0 1 6
0.210578992962837219 -0.155806005001068115 2.19628190994262695 0 1 6
0.209494993090629578 -0.153381004929542542 2.18497896194458008 0 1 6
0.20942099392414093 -0.151703998446464539 2.18420910835266113 1 2 7
0.215403005480766296 -0.147694006562232971 2.24659204483032227 48 63 71
0.215482994914054871 -0.146079003810882568 2.24742698669433594 40 58 67
0.204547002911567688 -0.135497003793716431 2.13336992263793945 28 48 58
0.208715006709098816 -0.136640995740890503 2.17684102058410645 26 44 54
0.208786994218826294 -0.13507099449634552 2.17759490013122559 23 41 50
0.208184003829956055 -0.133067995309829712 2.17130589485168457 20 37 46
0.207568004727363586 -0.131065994501113892 2.16488003730773926 17 34 44
0.207984000444412231 -0.129717007279396057 2.16921806335449219 16 32 45
0.207516998052597046 -0.1278190016746521 2.16434907913208008 15 31 44
0.206654995679855347 -0.125686004757881165 2.15535402297973633 14 30 43
0.205126002430915833 -0.123167999088764191 2.13941192626953125 14 29 42
0.204100996255874634 -0.12097100168466568 2.12872195243835449 13 27 40
0.202306002378463745 -0.116773001849651337 2.10999798774719238 11 25 38
0.201973006129264832 -0.115015998482704163 2.10652709007263184 10 23 37
0.20187099277973175 -0.113393999636173248 2.10546088218688965 8 20 34
0.198356002569198608 -0.109881997108459473 2.06879711151123047 9 21 35
0.198653995990753174 -0.108508996665477753 2.07190799713134766 11 23 37
0.199018001556396484 -0.107165999710559845 2.07570195198059082 12 24 38
0.199126005172729492 -0.105682000517845154 2.07683396339416504 16 25 40
0.199760004878044128 -0.104469999670982361 2.08344101905822754 17 26 41
0.198630005121231079 -0.102339997887611389 2.07165408134460449 17 27 42
0.196876004338264465 -0.0999120026826858521 2.05336189270019531 16 29 43
0.199079006910324097 -0.0994879975914955139 2.07634496688842773 17 33 46
0.200790002942085266 -0.0987870022654533386 2.09418988227844238 17 35 48
0.200721994042396545 -0.0971990004181861877 2.09347701072692871 18 36 50
0.196538999676704407 -0.0921280011534690857 2.04984807968139648 23 41 55
0.199356004595756531 -0.0919039994478225708 2.07922697067260742 21 39 53
0.200047001242637634 -0.0875729992985725403 2.08644008636474609 0 9 21
0.201829001307487488 -0.0867900028824806213 2.10502290725708008 0 9 21
0.198265001177787781 -0.0806490033864974976 2.06785106658935547 0 10 22
0.203736007213592529 -0.0749830007553100586 2.12491488456726074 0 6 12
0.198890998959541321 -0.0701180025935173035 2.07437801361083984 1 3 10
0.202559992671012878 -0.069843001663684845 2.11264705657958984 1 1 9
0.204703003168106079 -0.0689959973096847534 2.1349940299987793 0 0 8
0.205854997038841248 -0.0677890032529830933 2.14701008796691895 0 0 8
0.200040996074676514 -0.0534770004451274872 2.08636903762817383 1 1 8
0.19937799870967865 -0.051755998283624649 2.07946109771728516 0 1 8
0.198846995830535889 -0.050076998770236969 2.07392096519470215 0 3 7
0.198559001088142395 -0.0484660007059574127 2.07091593742370605 0 3 7
0.197995007038116455 -0.0467949993908405304 2.06503200531005859 0 3 8
0.198035001754760742 -0.0452699996531009674 2.06545305252075195 0 3 10
0.197689995169639587 -0.0436599999666213989 2.06185793876647949 0 3 12
0.197583004832267761 -0.0421059988439083099 2.06074094772338867 0 2 13
0.198925003409385681 -0.0408510006964206696 2.0747370719909668 0 2 14
0.202269002795219421 -0.0352700017392635345 2.10961604118347168 0 5 16
0.198782995343208313 -0.0223420001566410065 2.07325410842895508 0 5 11
0.198734000325202942 -0.0192569997161626816 2.07274389266967773 0 3 10
0.198457002639770508 -0.0161559991538524628 2.06985306739807129 0 3 10
0.198293998837471008 0.00229099998250603676 2.06814789772033691 0 2 6
0.198145002126693726 0.00382500002160668373 2.06659507751464844 0 2 6
0.193382993340492249 0.0292010009288787842 2.0169370174407959 0 5 9
0.19607900083065033 0.0311270002275705338 2.04505610466003418 0 5 9
0.195879995822906494 0.0326130017638206482 2.04297208786010742 0 5 9
0.195660993456840515 0.0340920016169548035 2.04069089889526367 0 4 8
0.193577006459236145 0.0352290011942386627 2.01895308494567871 0 4 8
0.193991005420684814 0.111947998404502869 2.0232698917388916 0 1 5
0.192249998450279236 0.140729993581771851 2.00511288642883301 0 0 0
0.192158997058868408 0.142151996493339539 2.00416803359985352 0 0 0
0.192855000495910645 0.144161000847816467 2.0114290714263916 0 0 0
0.195903003215789795 0.147956997156143188 2.04321694374084473 0 0 0
0.192427992820739746 0.163222000002861023 2.00697588920593262 0 2 5
0.21310800313949585 0.212129995226860046 2.22266101837158203 2 8 10
0.211641997098922729 0.213948994874954224 2.20736598968505859 58 70 67
0.205572992563247681 0.212592005729675293 2.14406800270080566 153 170 152
0.206936001777648926 0.215604007244110107 2.15828299522399902 152 170 148
0.210262998938560486 0.220699995756149292 2.19298291206359863 145 163 139
0.211382001638412476 0.223511993885040283 2.20465803146362305 142 160 134
0.206759005784988403 0.220226004719734192 2.15644311904907227 142 161 133
0.210642993450164795 0.225995004177093506 2.19695091247558594 143 161 134
0.205687001347541809 0.223864004015922546 2.14525890350341797 144 162 140
0.20551300048828125 0.225266993045806885 2.1434481143951416 145 162 142
0.204624995589256287 0.225878000259399414 2.13417792320251465 145 162 144
0.205741003155708313 0.2302979975938797 2.14582204818725586 147 162 142
0.204687997698783875 0.230704993009567261 2.1348419189453125 146 161 139
0.205313995480537415 0.233000993728637695 2.14136695861816406 147 161 138
0.20445600152015686 0.233611002564430237 2.1324160099029541 146 160 137
0.204964995384216309 0.235781997442245483 2.13773393630981445 145 159 136
0.204824000597000122 0.237205997109413147 2.13625788688659668 145 159 136
0.203679993748664856 0.237458005547523499 2.12432193756103516 144 158 135
0.204782992601394653 0.24033200740814209 2.13583588600158691 143 157 134
0.204793006181716919 0.241928994655609131 2.13593602180480957 144 159 136
0.206506997346878052 0.24555400013923645 2.15381097793579102 144 161 137
0.203200995922088623 0.243195995688438416 2.11932706832885742 143 161 137
0.219898000359535217 -0.29837501049041748 2.27584600448608398 164 165 156
0.220021992921829224 -0.296851992607116699 2.27713108062744141 148 149 143
0.220500007271766663 -0.295801997184753418 2.28207993507385254 128 130 127
0.220385998487472534 -0.29225999116897583 2.2808990478515625 51 56 59
0.220541000366210938 -0.290769994258880615 2.28249788284301758 36 43 46
0.220570996403694153 -0.289115011692047119 2.28281497955322266 37 47 49
0.217250004410743713 -0.278079986572265625 2.24843692779541016 20 33 39
0.218458995223045349 -0.277949988842010498 2.26095700263977051 16 29 37
