ply
format ascii 1.0
element vertex 674
property float x
property float y
property float z
property uchar red
property uchar green
property uchar blue
end_header
0.215220004320144653 -0.162977993488311768 2.22742700576782227 16 19 15
0.214791998267173767 -0.161002993583679199 2.22299599647521973 41 43 39
0.214608997106552124 -0.159217000007629395 2.22110795974731445 67 66 64
0.213532000780105591 -0.156775996088981628 2.20995688438415527 71 72 72
0.214476004242897034 -0.155819997191429138 2.21973109245300293 64 71 74
0.212909996509552002 -0.153045997023582458 2.20352411270141602 46 57 64
0.212849006056785583 -0.151365995407104492 2.20288991928100586 24 39 49
0.214123994112014771 -0.150626003742218018 2.21608209609985352 9 26 41
0.213575005531311035 -0.148598998785018921 2.21040797233581543 5 23 40
0.212625995278358459 -0.146303996443748474 2.20058703422546387 7 25 44
0.212493002414703369 -0.144578993320465088 2.19920802116394043 10 27 46
0.213631004095077515 -0.143711000680923462 2.21098804473876953 9 25 43
0.214390993118286133 -0.142573997378349304 2.21885395050048828 9 23 40
0.214726999402046204 -0.141147002577781677 2.22233200073242188 10 23 40
0.213505998253822327 -0.138703003525733948 2.20969200134277344 9 22 39
0.212310001254081726 -0.136292994022369385 2.19730997085571289 6 20 36
0.207899004220962524 -0.130265995860099792 2.15166401863098145 0 10 26
0.209638997912406921 -0.129743993282318115 2.16967105865478516 0 5 21
0.202769994735717773 -0.119258001446723938 2.09857392311096191 3 13 25
0.205213993787765503 -0.119117997586727142 2.12387299537658691 5 17 29
0.203207001090049744 -0.113266997039318085 2.10310602188110352 5 12 27
0.206293001770973206 -0.113401003181934357 2.13503789901733398 0 3 14
0.210154995322227478 -0.10260000079870224 2.17500805854797363 0 0 12
0.203005999326705933 -0.0913060009479522705 2.10101795196533203 0 0 13
0.203899994492530823 -0.090140998363494873 2.11026906967163086 0 0 13
0.206038996577262878 -0.0895029976963996887 2.1324160099029541 0 1 13
0.201314002275466919 -0.0843549966812133789 2.08351492881774902 0 2 11
0.197154000401496887 -0.0810969993472099304 2.04045701026916504 0 1 10
0.196839004755020142 -0.0794539973139762878 2.03719902038574219 0 0 8
0.19678400456905365 -0.0779189988970756531 2.03662800788879395 0 0 7
0.196385994553565979 -0.0762519985437393188 2.03250694274902344 0 0 5
0.197248995304107666 -0.0750700011849403381 2.04143500328063965 0 0 4
0.197108000516891479 -0.073500998318195343 2.03997492790222168 0 0 4
0.195733994245529175 -0.071483999490737915 2.02575588226318359 0 0 4
0.196042999625205994 -0.0700900033116340637 2.02895808219909668 0 0 4
0.197263002395629883 -0.0690099969506263733 2.04158496856689453 0 0 4
0.198917001485824585 -0.0680600032210350037 2.05870604515075684 0 0 4
0.197831004858016968 -0.0585630014538764954 2.04746603965759277 0 0 4
0.201672002673149109 -0.0565989986062049866 2.08721303939819336 0 0 4
0.199855998158454895 -0.04072599858045578 2.06841611862182617 0 0 12
0.199977993965148926 -0.0392140001058578491 2.0696868896484375 0 0 12
0.200876995921134949 -0.037845999002456665 2.07898807525634766 0 0 13
0.202652007341384888 -0.0194860007613897324 2.09735393524169922 0 1 5
0.195208996534347534 0.107283003628253937 2.0203249454498291 0 0 6
0.195012003183364868 0.108673997223377228 2.01829099655151367 0 1 6
0.194463998079299927 0.109863996505737305 2.01261806488037109 0 1 6
0.193721994757652283 0.110933996737003326 2.00493788719177246 0 1 6
0.193821996450424194 0.130360007286071777 2.0059669017791748 0 0 7
0.206222996115684509 0.208454996347427368 2.13432002067565918 0 1 6
0.207269996404647827 0.211106002330780029 2.14514708518981934 0 1 6
0.207960993051528931 0.213407993316650391 2.15229892730712891 0 1 6
0.205917000770568848 0.214477002620697021 2.13115096092224121 0 1 6
0.204613000154495239 0.214690998196601868 2.11764788627624512 0 1 6
0.193905994296073914 0.212401002645492554 2.00684309005737305 0 1 6
0.23428499698638916 -0.404834985733032227 2.40624809265136719 158 153 162
0.235903993248939514 -0.405833005905151367 2.42287707328796387 157 153 160
0.235278993844985962 -0.402963995933532715 2.41646003723144531 157 154 162
0.234575003385543823 -0.399969011545181274 2.40922999382019043 161 160 170
0.235310003161430359 -0.399426013231277466 2.41677498817443848 164 165 178
0.236513003706932068 -0.399664014577865601 2.42913293838500977 162 164 179
0.237955003976821899 -0.400285005569458008 2.4439389705657959 157 158 176
0.23606400191783905 -0.395303010940551758 2.42451691627502441 146 147 167
0.235141992568969727 -0.391965001821517944 2.41504406929016113 96 101 124
0.234634995460510254 -0.38754001259803772 2.40984106063842773 62 80 110
0.230799004435539246 -0.377683013677597046 2.37044095993041992 56 80 111
0.229403004050254822 -0.361398011445999146 2.35610294342041016 42 66 89
0.22886599600315094 -0.358806997537612915 2.35059404373168945 40 64 88
0.226485997438430786 -0.353347986936569214 2.32614898681640625 37 61 85
0.226722002029418945 -0.351987004280090332 2.32857394218444824 30 55 78
0.223550006747245789 -0.345357000827789307 2.29599595069885254 25 49 74
0.220305994153022766 -0.336984008550643921 2.26267910003662109 12 35 59
0.220185995101928711 -0.33511999249458313 2.26143908500671387 12 34 57
0.220640003681182861 -0.334127992391586304 2.26610398292541504 19 40 61
0.221003994345664978 -0.332993000745773315 2.26984596252441406 23 43 61
0.218904003500938416 -0.328159987926483154 2.24828004837036133 26 44 62
0.217616006731987 -0.324568986892700195 2.23505091667175293 31 48 68
0.216370999813079834 -0.321060985326766968 2.2222599983215332 22 37 59
0.217051997780799866 -0.320414990186691284 2.22925209999084473 13 25 48
0.216727003455162048 -0.318282008171081543 2.22591304779052734 1 13 35
0.215397000312805176 -0.314686000347137451 2.21225595474243164 0 11 28
0.213792994618415833 -0.310710996389389038 2.19578099250793457 0 13 22
0.214852005243301392 -0.31061100959777832 2.20665907859802246 2 14 19
0.214470997452735901 -0.308423995971679688 2.20274090766906738 1 13 15
0.213890999555587769 -0.305958002805709839 2.19678401947021484 0 11 15
0.214360997080802917 -0.304996013641357422 2.20161890983581543 0 6 17
0.214282006025314331 -0.303247988224029541 2.20080304145812988 0 5 19
0.214414000511169434 -0.301800012588500977 2.20216488838195801 0 4 19
0.21489599347114563 -0.300837993621826172 2.2071070671081543 0 3 17
0.214604005217552185 -0.298792988061904907 2.20411205291748047 0 3 14
0.215062007308006287 -0.297789990901947021 2.20881295204162598 0 4 13
0.214311003684997559 -0.295114994049072266 2.20110511779785156 1 5 14
0.214237004518508911 -0.293379008769989014 2.20034599304199219 2 6 16
0.214543998241424561 -0.29216301441192627 2.20350098609924316 0 3 11
0.214903995394706726 -0.291013002395629883 2.20719099044799805 0 2 8
0.214524999260902405 -0.288863003253936768 2.20329499244689941 0 2 7
0.214350000023841858 -0.28699299693107605 2.2015080451965332 0 1 6
0.214761003851890564 -0.285903990268707275 2.20572090148925781 0 0 6
0.215164005756378174 -0.284799009561538696 2.20985889434814453 0 0 6
0.215561002492904663 -0.283681005239486694 2.21394610404968262 0 0 6
0.215709000825881958 -0.282229006290435791 2.21545600891113281 0 0 6
0.216095000505447388 -0.281087011098861694 2.21942996978759766 0 0 6
0.215974003076553345 -0.279280990362167358 2.21818089485168457 0 1 5
0.214585006237030029 -0.27584800124168396 2.20391297340393066 0 1 5
0.214066997170448303 -0.27355000376701355 2.19859790802001953 0 1 5
0.21325799822807312 -0.270888000726699829 2.19028401374816895 0 1 5
0.212542995810508728 -0.268359005451202393 2.18294501304626465 0 1 5
0.213036000728607178 -0.267356008291244507 2.18800711631774902 0 1 4
0.214765995740890503 -0.26788899302482605 2.20577597618103027 0 1 3
0.214540004730224609 -0.265971004962921143 2.20345497131347656 0 1 4
0.215019002556800842 -0.264925003051757812 2.20837903022766113 0 1 6
0.214736998081207275 -0.262939006090164185 2.20548200607299805 0 1 6
0.214395001530647278 -0.260885000228881836 2.20196795463562012 0 1 6
0.215349003672599792 -0.260401993989944458 2.2117619514465332 0 2 6
0.214901000261306763 -0.25822100043296814 2.20716309547424316 0 2 6
0.213933005928993225 -0.255425989627838135 2.19721794128417969 0 1 6
0.211785003542900085 -0.251246005296707153 2.17516088485717773 0 1 6
0.212716996669769287 -0.250728994607925415 2.18473291397094727 0 1 6
0.212870001792907715 -0.249284997582435608 2.18630290031433105 0 1 6
0.210758998990058899 -0.245205000042915344 2.16462206840515137 0 1 6
0.217023000121116638 -0.250838011503219604 2.22896003723144531 0 1 6
0.215375006198883057 -0.247290000319480896 2.21203398704528809 0 1 6
0.215682998299598694 -0.245997995138168335 2.21519708633422852 0 1 6
0.214975997805595398 -0.243551000952720642 2.20793390274047852 0 1 6
0.21406400203704834 -0.24088500440120697 2.19856595993041992 0 1 6
0.214490994811058044 -0.239729002118110657 2.20295095443725586 0 1 6
0.215788006782531738 -0.232948005199432373 2.21626901626586914 1 1 10
0.21620999276638031 -0.231754004955291748 2.22060894966125488 0 0 11
0.216951996088027954 -0.230894997715950012 2.22823095321655273 0 0 12
0.217017993330955505 -0.229310005903244019 2.22890996932983398 2 3 14
0.217292994260787964 -0.227942004799842834 2.23173308372497559 1 3 11
0.216057002544403076 -0.224996998906135559 2.21903705596923828 12 15 19
0.215663999319076538 -0.22294299304485321 2.21499800682067871 28 33 33
0.215987995266914368 -0.221630007028579712 2.21832799911499023 46 52 48
0.214793995022773743 -0.218766003847122192 2.20605897903442383 66 71 67
0.214260995388031006 -0.216589003801345825 2.20058703422546387 86 90 88
0.213012993335723877 -0.213701993227005005 2.18776798248291016 100 103 106
0.213451996445655823 -0.2125139981508255 2.19228005409240723 105 108 115
0.212484002113342285 -0.209929004311561584 2.18233609199523926 115 120 129
0.212346002459526062 -0.208174005150794983 2.1809229850769043 123 129 139
0.212099000811576843 -0.206312999129295349 2.17838406562805176 127 134 144
0.21218399703502655 -0.204778000712394714 2.1792609691619873 126 133 143
0.212374001741409302 -0.203339993953704834 2.18120598793029785 125 132 142
0.212822005152702332 -0.202144995331764221 2.1858060359954834 126 133 143
0.214089006185531616 -0.201716005802154541 2.19881796836853027 129 134 145
0.215724006295204163 -0.201610997319221497 2.21561598777770996 129 133 145
0.213443994522094727 -0.197852000594139099 2.1921999454498291 124 126 140
0.212623998522758484 -0.19547000527381897 2.1837770938873291 124 125 139
0.213093996047973633 -0.194276005029678345 2.18860006332397461 125 125 139
0.212999001145362854 -0.192564994096755981 2.18762803077697754 122 121 134
0.212623998522758484 -0.190603002905845642 2.1837770938873291 118 117 128
0.212277993559837341 -0.188674002885818481 2.18021893501281738 118 118 126
0.212271004915237427 -0.187048003077507019 2.18014788627624512 116 117 122
0.212696999311447144 -0.185800999402999878 2.18452310562133789 110 111 115
0.21355399489402771 -0.184919998049736023 2.19332599639892578 114 114 119
0.2133760005235672 -0.183137997984886169 2.19149589538574219 125 124 130
0.212424993515014648 -0.180701002478599548 2.18172693252563477 130 130 137
0.213008001446723938 -0.179572999477386475 2.18772292137145996 128 128 136
0.213148996233940125 -0.17806600034236908 2.18917107582092285 129 127 137
0.21358199417591095 -0.176798000931739807 2.19361209869384766 131 127 139
0.213890999555587769 -0.175421997904777527 2.19678807258605957 135 126 139
0.213012993335723877 -0.173077002167701721 2.18776798248291016 142 129 144
0.212966993451118469 -0.171415001153945923 2.18729591369628906 147 130 145
0.213758006691932678 -0.170421004295349121 2.19542288780212402 144 124 139
0.214505001902580261 -0.16937999427318573 2.2030949592590332 126 106 119
0.214901000261306763 -0.168053001165390015 2.20716309547424316 79 61 72
0.216067999601364136 -0.167318001389503479 2.2191460132598877 31 17 25
0.216955006122589111 -0.166350007057189941 2.22826099395751953 7 0 3
0.216409996151924133 -0.164280995726585388 2.22266101837158203 5 4 3
0.216067999601364136 -0.162373006343841553 2.2191460132598877 17 19 15
0.215364992618560791 -0.160201996564865112 2.21193194389343262 46 47 42
0.21479499340057373 -0.158139005303382874 2.20607399940490723 74 74 69
0.214287996292114258 -0.156130999326705933 2.20086288452148438 76 78 75
0.214995995163917542 -0.155006006360054016 2.20813608169555664 71 78 79
0.214350000023841858 -0.15290600061416626 2.2015080451965332 57 68 73
0.213475003838539124 -0.15065300464630127 2.19251203536987305 37 52 61
0.213423997163772583 -0.148989006876945496 2.19199395179748535 19 35 50
0.214472994208335876 -0.14808499813079834 2.20276188850402832 7 24 42
0.21360500156879425 -0.145855993032455444 2.19385290145874023 6 23 42
0.21152399480342865 -0.142821997404098511 2.17248201370239258 12 28 47
0.215797007083892822 -0.142414003610610962 2.21636009216308594 11 24 41
0.215887993574142456 -0.140827000141143799 2.21730303764343262 11 24 41
0.215274006128311157 -0.138784006237983704 2.21098804473876953 10 23 40
0.213915005326271057 -0.136276006698608398 2.19703388214111328 6 21 37
0.208495005965232849 -0.129641994833946228 2.14136695861816406 0 11 26
0.208698004484176636 -0.128176003694534302 2.1434481143951416 0 5 20
0.207620993256568909 -0.124347999691963196 2.13239407539367676 0 4 21
0.204144999384880066 -0.119151003658771515 2.09669303894042969 0 7 19
0.206402003765106201 -0.118894003331661224 2.11987709999084473 2 11 23
0.203571006655693054 -0.112603999674320221 2.09079194068908691 5 11 26
0.212542995810508728 -0.106216996908187866 2.18294501304626465 1 0 12
0.21335899829864502 -0.101741999387741089 2.19132399559020996 1 0 11
0.218801006674766541 -0.100997999310493469 2.24722194671630859 0 0 11
0.206658005714416504 -0.0890870019793510437 2.12250089645385742 0 2 14
0.207342997193336487 -0.0878000035881996155 2.12953400611877441 0 2 13
0.199747994542121887 -0.081537000834941864 2.05153298377990723 0 1 10
0.198682993650436401 -0.0795859992504119873 2.04059600830078125 0 0 8
0.198191002011299133 -0.0778769999742507935 2.03553891181945801 0 0 7
0.198344007134437561 -0.0764240026473999023 2.03711104393005371 0 0 7
0.198568999767303467 -0.0749960020184516907 2.03942108154296875 0 0 5
0.198973000049591064 -0.0736310034990310669 2.04356694221496582 0 0 4
0.197516992688179016 -0.0715849995613098145 2.02862310409545898 0 0 4
0.19794599711894989 -0.0702309980988502502 2.03302788734436035 0 0 4
0.197851002216339111 -0.0686879977583885193 2.03204488754272461 0 0 4
0.199679002165794373 -0.067799001932144165 2.05082011222839355 0 0 4
0.201194003224372864 -0.0667779967188835144 2.06638002395629883 0 0 4
0.201358005404472351 -0.0652970001101493835 2.0680699348449707 0 0 4
0.203182995319366455 -0.0612390004098415375 2.08681201934814453 0 0 4
0.199321001768112183 -0.0585540011525154114 2.04714393615722656 0 0 4
0.201010003685951233 -0.0575169995427131653 2.06449604034423828 0 0 4
0.196907997131347656 -0.0473299995064735413 2.02236294746398926 3 0 6
0.200858995318412781 -0.0421510003507137299 2.0629429817199707 0 0 10
0.200974002480506897 -0.0406420007348060608 2.06412005424499512 0 0 12
0.201033994555473328 -0.0391199998557567596 2.06473493576049805 0 0 12
0.20203399658203125 -0.0377740003168582916 2.0750119686126709 0 0 13
0.203206002712249756 -0.0364420004189014435 2.08704400062561035 0 0 12
0.203630998730659485 -0.0349650010466575623 2.09141707420349121 1 0 12
0.203475996851921082 -0.0333859995007514954 2.08982300758361816 1 0 12
0.203078001737594604 -0.0271240007132291794 2.08573102951049805 0 0 10
0.202897995710372925 -0.0255520008504390717 2.08388304710388184 0 0 8
0.202478006482124329 -0.023955000564455986 2.07957005500793457 0 0 8
0.202895998954772949 -0.0224559996277093887 2.0838630199432373 0 0 8
0.202426999807357788 -0.0208599995821714401 2.07904291152954102 0 0 7
0.202502995729446411 -0.0193230006843805313 2.07982611656188965 0 1 5
0.202298998832702637 -0.0177599992603063583 2.07773089408874512 0 0 5
0.194811999797821045 0.10773400217294693 2.00083398818969727 0 1 6
0.205541998147964478 0.206181004643440247 2.1110389232635498 0 1 6
0.207164004445075989 0.212549000978469849 2.12769889831542969 0 1 6
0.205753996968269348 0.212671995162963867 2.11321306228637695 0 1 6
0.205134004354476929 0.213596001267433167 2.10684394836425781 0 1 6
0.234529003500938416 -0.405739009380340576 2.39051294326782227 157 150 158
0.234731003642082214 -0.404312998056411743 2.39258003234863281 153 146 156
0.237049996852874756 -0.406513005495071411 2.41621708869934082 158 153 162
0.236533001065254211 -0.403834998607635498 2.41094398498535156 160 157 164
0.235756993293762207 -0.40072399377822876 2.40302801132202148 162 161 166
0.235507994890213013 -0.398517996072769165 2.40049505233764648 166 166 173
0.236525997519493103 -0.398451000452041626 2.41087603569030762 167 167 177
0.238428995013237 -0.399850994348526001 2.43026590347290039 159 160 173
0.237688004970550537 -0.396807998418807983 2.42271208763122559 146 148 164
0.237177997827529907 -0.394161999225616455 2.41751694679260254 130 132 152
0.238528996706008911 -0.394600987434387207 2.43128800392150879 88 94 116
0.236212000250816345 -0.3889789879322052 2.40766596794128418 77 91 114
0.226126998662948608 -0.360388994216918945 2.30487704277038574 33 53 80
0.230281993746757507 -0.360035985708236694 2.34722495079040527 42 63 89
0.228562995791435242 -0.35561901330947876 2.32970690727233887 36 57 83
0.226669996976852417 -0.350957989692687988 2.31041598320007324 31 52 79
0.227624997496604919 -0.350712001323699951 2.3201439380645752 26 48 76
0.225372001528739929 -0.345535010099411011 2.29717898368835449 24 46 74
0.222967997193336487 -0.340160012245178223 2.27267193794250488 23 45 73
0.221119001507759094 -0.335666000843048096 2.25382804870605469 20 41 69
0.222927004098892212 -0.336724013090133667 2.27226400375366211 17 39 65
0.223005995154380798 -0.33515399694442749 2.27306294441223145 20 42 66
0.220770001411437988 -0.330121994018554688 2.25027108192443848 25 46 68
0.219821006059646606 -0.327039003372192383 2.24060201644897461 27 47 69
0.219238996505737305 -0.324514001607894897 2.23467302322387695 26 45 68
0.2186879962682724 -0.32204100489616394 2.2290489673614502 21 36 62
0.2181130051612854 -0.319543987512588501 2.2231910228729248 14 27 52
0.217217996716499329 -0.316588014364242554 2.21407008171081543 7 19 40
0.216745004057884216 -0.314258009195327759 2.20924806594848633 1 12 28
0.218234002590179443 -0.31476399302482605 2.22442197799682617 0 7 16
0.215697005391120911 -0.309471994638442993 2.19856595993041992 0 8 13
0.215882003307342529 -0.308104008436203003 2.2004539966583252 2 11 13
0.215508997440338135 -0.305938988924026489 2.19665098190307617 0 7 10
0.21578100323677063 -0.304692000150680542 2.19942092895507812 0 5 10
0.215910002589225769 -0.303238987922668457 2.20073699951171875 0 4 11
0.215791001915931702 -0.301438987255096436 2.19952607154846191 0 4 13
0.216249004006385803 -0.300440996885299683 2.20419001579284668 0 3 13
0.216134995222091675 -0.298646003007888794 2.20302605628967285 0 4 14
0.21601499617099762 -0.296844989061355591 2.20180988311767578 1 6 13
0.216278001666069031 -0.295569002628326416 2.20448708534240723 1 6 13
0.215840995311737061 -0.293336987495422363 2.2000279426574707 2 6 12
0.216012999415397644 -0.291936010122299194 2.20178794860839844 0 5 9
0.215774998068809509 -0.289979994297027588 2.19935488700866699 0 4 7
0.215964004397392273 -0.288599014282226562 2.20128488540649414 0 4 7
0.215794995427131653 -0.286740988492965698 2.19956803321838379 0 4 7
0.215837001800537109 -0.285160988569259644 2.19999003410339355 0 3 7
0.216251999139785767 -0.284072995185852051 2.20422601699829102 0 3 7
0.216168001294136047 -0.282326012849807739 2.20336604118347168 0 3 7
0.216383993625640869 -0.280970007181167603 2.20556998252868652 0 3 7
0.216461002826690674 -0.279430985450744629 2.20635294914245605 0 3 6
0.216285005211830139 -0.277565985918045044 2.20455598831176758 0 2 5
0.215970993041992188 -0.275528013706207275 2.20135903358459473 0 2 5
0.215716004371643066 -0.273570001125335693 2.19876194000244141 0 2 5
0.214750006794929504 -0.270718991756439209 2.18891692161560059 0 2 5
0.214826002717018127 -0.269187986850738525 2.18968510627746582 0 2 5
0.215320006012916565 -0.268177002668380737 2.19472408294677734 0 2 5
0.215900003910064697 -0.267264991998672485 2.20063495635986328 0 2 5
0.215948998928070068 -0.265691012144088745 2.20113396644592285 0 2 5
0.215858995914459229 -0.263945996761322021 2.20021891593933105 1 4 6
0.215490996837615967 -0.261864006519317627 2.19646811485290527 1 5 6
0.215832993388175964 -0.260645002126693726 2.19994997978210449 2 5 7
0.216002002358436584 -0.259214997291564941 2.20167803764343262 2 5 7
0.215881004929542542 -0.257434993982315063 2.20044088363647461 1 5 7
0.215133994817733765 -0.254914999008178711 2.19282388687133789 0 4 8
0.213201999664306641 -0.25101199746131897 2.17313599586486816 0 3 8
0.215444996953010559 -0.25202101469039917 2.19599604606628418 0 3 7
0.213910996913909912 -0.24860699474811554 2.18035793304443359 0 2 8
0.217610001564025879 -0.249611005187034607 2.2180631160736084 0 3 11
0.215504005551338196 -0.245563998818397522 2.19659900665283203 2 4 10
0.21636199951171875 -0.244903996586799622 2.20534205436706543 1 3 9
0.216270998120307922 -0.243164002895355225 2.20442008972167969 0 2 7
0.216461002826690674 -0.241738006472587585 2.20635294914245605 0 1 6
0.215369001030921936 -0.238887995481491089 2.195220947265625 0 1 6
0.217333003878593445 -0.232840001583099365 2.21524190902709961 0 1 12
0.216885998845100403 -0.230719000101089478 2.21068811416625977 0 0 13
0.218034997582435608 -0.230289995670318604 2.22239589691162109 0 1 13
0.217221006751060486 -0.227786004543304443 2.21410107612609863 0 3 14
0.218444004654884338 -0.227414995431900024 2.22656607627868652 0 3 12
0.217922002077102661 -0.225220993161201477 2.22124600410461426 10 16 21
0.217401996254920959 -0.223038002848625183 2.21594595909118652 27 36 34
0.216328993439674377 -0.220299005508422852 2.20500588417053223 45 54 48
0.216749995946884155 -0.219087004661560059 2.20930099487304688 63 69 63
0.216461002826690674 -0.217155992984771729 2.20635294914245605 81 85 83
0.21530500054359436 -0.21436600387096405 2.1945650577545166 99 101 107
0.2145099937915802 -0.211950004100799561 2.18646097183227539 110 113 123
0.214662998914718628 -0.210476994514465332 2.18802905082702637 116 122 132
0.2145719975233078 -0.208763003349304199 2.18709802627563477 120 128 138
0.213862001895904541 -0.206452995538711548 2.17986392974853516 124 131 141
0.213995993137359619 -0.204962000250816345 2.1812279224395752 124 131 141
0.214650005102157593 -0.203963994979858398 2.18789291381835938 124 131 141
0.215084001421928406 -0.202747002243995667 2.19231295585632324 127 134 144
0.214237004518508911 -0.200326994061470032 2.1836850643157959 128 133 144
0.21530500054359436 -0.199695006012916565 2.1945650577545166 125 129 140
0.215160995721817017 -0.197933003306388855 2.19310188293457031 121 125 136
0.214358001947402954 -0.195571005344390869 2.18491291999816895 122 124 137
0.214123994112014771 -0.193737000226974487 2.18252706527709961 123 124 136
0.214159995317459106 -0.192148000001907349 2.18289399147033691 121 121 134
0.213825002312660217 -0.19022899866104126 2.17948508262634277 121 121 133
0.213755995035171509 -0.188548997044563293 2.17878293991088867 124 125 134
0.214089006185531616 -0.187222003936767578 2.18217802047729492 125 127 135
0.212486997246742249 -0.184212997555732727 2.16584992408752441 123 124 131
0.213811993598937988 -0.18374200165271759 2.17935395240783691 122 122 129
0.213716998696327209 -0.182043001055717468 2.17838406562805176 126 125 132
0.215157002210617065 -0.181639999151229858 2.19306206703186035 128 127 134
0.21406400203704834 -0.179096996784210205 2.18191909790039062 127 126 134
0.214440003037452698 -0.177788004279136658 2.18575501441955566 128 127 136
0.214175000786781311 -0.17594599723815918 2.18304800987243652 131 128 138
0.214393004775047302 -0.17450299859046936 2.1852729320526123 135 128 139
0.215084001421928406 -0.173436000943183899 2.19231295585632324 140 130 143
0.213927999138832092 -0.170884996652603149 2.18053793907165527 143 131 144
0.214343994855880737 -0.16959400475025177 2.18477511405944824 139 125 137
0.215707004070281982 -0.16903899610042572 2.19866299629211426 118 105 115
0.216108992695808411 -0.167717993259429932 2.20276188850402832 73 61 70
0.217813000082969666 -0.162444993853569031 2.22013592720031738 23 26 23
0.214847996830940247 -0.158607006072998047 2.18990993499755859 51 54 49
0.215590998530387878 -0.157523006200790405 2.19748592376708984 74 77 71
0.216029003262519836 -0.156207993626594543 2.20194697380065918 72 78 73
0.217507004737854004 -0.155628994107246399 2.2170100212097168 70 78 76
0.214415997266769409 -0.151794999837875366 2.18550801277160645 64 76 77
0.213163003325462341 -0.149294003844261169 2.17273807525634766 53 65 71
0.21360500156879425 -0.147985994815826416 2.17723894119262695 36 49 59
0.214242994785308838 -0.146806001663208008 2.18374204635620117 18 33 45
0.213499993085861206 -0.144679993391036987 2.17616701126098633 11 25 40
0.212633997201919556 -0.142483994364738464 2.16734504699707031 13 26 43
0.216582998633384705 -0.141850993037223816 2.20759892463684082 12 25 42
0.216554999351501465 -0.140193000435829163 2.207305908203125 12 25 42
0.216262996196746826 -0.138365998864173889 2.20433211326599121 10 24 41
0.214326992630958557 -0.135505005717277527 2.1846010684967041 5 21 38
0.210102006793022156 -0.129653006792068481 2.1415400505065918 0 13 27
0.210571005940437317 -0.128347992897033691 2.1463170051574707 0 7 18
0.209934994578361511 -0.126370996236801147 2.13983607292175293 0 6 16
0.211086004972457886 -0.125466004014015198 2.15156698226928711 0 5 17
0.205446004867553711 -0.119001999497413635 2.09407711029052734 0 3 16
0.207908004522323608 -0.11885400116443634 2.11917209625244141 1 6 20
0.207126006484031677 -0.11370299756526947 2.11120200157165527 5 9 23
0.211522996425628662 -0.114514999091625214 2.15602207183837891 0 3 14
0.211943000555038452 -0.103509999811649323 2.16030311584472656 0 0 9
0.214193001389503479 -0.102987997233867645 2.18323588371276855 0 0 9
0.214494004845619202 -0.101507999002933502 2.18630290031433105 0 0 9
0.22003600001335144 -0.100799001753330231 2.24278998374938965 0 0 10
0.207333996891975403 -0.0887020006775856018 2.11332201957702637 0 1 13
0.208709999918937683 -0.0861300006508827209 2.12735199928283691 0 2 12
0.201664999127388 -0.0816960036754608154 2.05554008483886719 0 2 11
0.200347006320953369 -0.0796450003981590271 2.04210805892944336 0 0 10
0.199488997459411621 -0.077794000506401062 2.03336095809936523 0 0 10
0.199158996343612671 -0.07615700364112854 2.02999591827392578 0 0 9
0.19953000545501709 -0.074789002537727356 2.03378105163574219 0 0 7
0.200840994715690613 -0.0737600028514862061 2.04714393615722656 0 0 5
0.199900001287460327 -0.071900002658367157 2.03754997253417969 1 0 5
0.199239000678062439 -0.0701539963483810425 2.03081393241882324 0 0 5
0.199922993779182434 -0.0688809975981712341 2.0377800464630127 0 0 4
0.20008300244808197 -0.0674220025539398193 2.03940892219543457 0 0 4
0.201396003365516663 -0.0663390010595321655 2.0527949333190918 0 0 4
0.202424004673957825 -0.0651459991931915283 2.06328010559082031 0 0 4
0.203134998679161072 -0.063836999237537384 2.07052493095397949 0 0 4
0.196886003017425537 -0.0469669997692108154 2.00682902336120605 2 0 6
0.202476993203163147 -0.0437019988894462585 2.06381988525390625 0 0 10
0.201526999473571777 -0.0419710017740726471 2.05413603782653809 0 0 10
0.202138006687164307 -0.0405680015683174133 2.06035804748535156 0 0 12
0.201554998755455017 -0.0389249995350837708 2.05441999435424805 0 0 12
0.20267699658870697 -0.0376069992780685425 2.06585192680358887 0 0 13
0.20406399667263031 -0.036318998783826828 2.0799870491027832 1 0 12
0.203895002603530884 -0.0347450003027915955 2.07826900482177734 1 0 12
0.204298004508018494 -0.0332680009305477142 2.08238101005554199 1 0 12
0.202681005001068115 -0.0253320001065731049 2.06589603424072266 0 0 9
0.202101007103919983 -0.0237290002405643463 2.05998706817626953 0 0 8
0.202658995985984802 -0.022260000929236412 2.06567001342773438 0 0 8
0.201477006077766418 -0.0206049997359514236 2.05362606048583984 0 0 7
0.202271997928619385 -0.0191549994051456451 2.06172704696655273 0 0 6
0.202156007289886475 -0.0176139995455741882 2.06054401397705078 0 0 5
0.207000002264976501 0.210773006081581116 2.10991501808166504 0 1 6
0.205956995487213135 0.211270004510879517 2.09928297996520996 0 1 6
0.205338999629020691 0.212191000580787659 2.09298896789550781 0 1 6
0.204532995820045471 0.212906002998352051 2.08476805686950684 0 1 6
0.230519995093345642 -0.399273008108139038 2.33200311660766602 171 165 172
0.233291000127792358 -0.402318000793457031 2.36002707481384277 160 154 162
0.239155992865562439 -0.408838987350463867 2.41936206817626953 153 146 156
0.23828500509262085 -0.405559003353118896 2.41054606437683105 161 156 163
0.23822300136089325 -0.403663992881774902 2.40992307662963867 164 162 167
0.236491993069648743 -0.398954004049301147 2.39241504669189453 165 164 169
0.236782997846603394 -0.397666007280349731 2.39535999298095703 167 168 173
0.239178001880645752 -0.399890989065170288 2.41958808898925781 166 167 174
0.239225998520851135 -0.398173004388809204 2.42006993293762207 154 155 167
0.239950999617576599 -0.395774006843566895 2.42740297317504883 118 121 141
0.237985998392105103 -0.390744000673294067 2.40752506256103516 83 91 112
0.236491993069648743 -0.386514991521835327 2.39241504669189453 76 91 113
0.226079002022743225 -0.357603996992111206 2.28706789016723633 39 57 86
0.228634998202323914 -0.35993000864982605 2.31293201446533203 45 63 91
0.22895599901676178 -0.358714014291763306 2.31617498397827148 47 65 93
0.230309993028640747 -0.35910499095916748 2.32987189292907715 43 62 90
0.229781001806259155 -0.356552988290786743 2.32451891899108887 36 56 83
0.228385001420974731 -0.352670997381210327 2.31039905548095703 28 48 75
0.227663993835449219 -0.349848002195358276 2.30310702323913574 23 43 71
0.227825000882148743 -0.348383009433746338 2.30473709106445312 23 43 72
0.225906997919082642 -0.343753010034561157 2.28533601760864258 26 46 76
0.223104998469352722 -0.334459006786346436 2.25698089599609375 20 41 69
0.222795993089675903 -0.332323014736175537 2.25386500358581543 22 43 69
0.221967995166778564 -0.329418987035751343 2.24548101425170898 27 49 73
0.221413001418113708 -0.326932013034820557 2.23987007141113281 29 50 74
0.220989003777503967 -0.324645012617111206 2.23557901382446289 27 46 71
0.220878005027770996 -0.322822988033294678 2.23445796966552734 20 36 63
0.219236999750137329 -0.318776994943618774 2.21785593032836914 14 29 54
0.2180899977684021 -0.315470993518829346 2.20625591278076172 9 22 43
0.219348996877670288 -0.315643996000289917 2.21899199485778809 2 13 29
0.218501001596450806 -0.312781006097793579 2.21040797233581543 0 4 13
0.220936998724937439 -0.314608007669448853 2.23505091667175293 0 7 12
0.217384994029998779 -0.307915985584259033 2.19911694526672363 2 10 12
0.217122003436088562 -0.305914014577865601 2.19646501541137695 0 5 8
0.21795499324798584 -0.305447995662689209 2.20488309860229492 0 4 7
0.217691004276275635 -0.303443014621734619 2.20221209526062012 0 4 8
0.217914998531341553 -0.302118986845016479 2.20448708534240723 0 4 10
0.218178004026412964 -0.300843000411987305 2.20714211463928223 0 4 11
0.217745006084442139 -0.298610001802444458 2.20276188850402832 0 5 12
0.217984005808830261 -0.297300010919570923 2.20518302917480469 1 6 12
0.217401996254920959 -0.29487299919128418 2.19929409027099609 1 6 11
0.217957004904747009 -0.29398798942565918 2.20490908622741699 2 7 11
0.217421993613243103 -0.291631996631622314 2.19949507713317871 0 5 8
0.217292994260787964 -0.28982698917388916 2.19819092750549316 0 5 6
0.217449992895126343 -0.288401991128921509 2.19977807998657227 0 5 6
0.217401996254920959 -0.286704987287521362 2.19929409027099609 0 5 6
0.217406004667282104 -0.285077005624771118 2.19933795928955078 0 5 6
0.217673003673553467 -0.283791005611419678 2.20203304290771484 1 5 6
0.217953994870185852 -0.282519012689590454 2.20487308502197266 1 5 6
0.21761399507522583 -0.28044399619102478 2.20143795013427734 1 5 6
0.217546999454498291 -0.278723001480102539 2.20076394081115723 0 3 5
0.217794999480247498 -0.27740401029586792 2.20326900482177734 0 3 4
0.217462003231048584 -0.275344997644424438 2.19989705085754395 0 3 4
0.217003002762794495 -0.273133993148803711 2.19526100158691406 0 3 4
0.216510996222496033 -0.270888000726699829 2.19028401374816895 0 3 5
0.216818004846572876 -0.269643008708953857 2.193389892578125 0 3 6
0.217038005590438843 -0.268285989761352539 2.19561409950256348 0 3 6
0.217618003487586975 -0.267367005348205566 2.20147991180419922 0 3 6
0.217564001679420471 -0.265666007995605469 2.20093202590942383 0 3 6
0.217204004526138306 -0.263594001531600952 2.19728493690490723 1 5 6
0.216389000415802002 -0.260980010032653809 2.18904590606689453 1 6 7
0.216223001480102539 -0.259155005216598511 2.18736910820007324 2 7 8
0.217858001589775085 -0.259476989507675171 2.20390701293945312 3 8 8
0.216574996709823608 -0.256321996450424194 2.19092988967895508 2 8 8
0.216677993535995483 -0.254815012216567993 2.19196391105651855 0 7 9
0.215748995542526245 -0.250479996204376221 2.18256902694702148 0 4 10
0.217333003878593445 -0.250687003135681152 2.19859790802001953 0 4 12
0.216756001114845276 -0.248392999172210693 2.19276189804077148 0 4 12
0.216905996203422546 -0.245305001735687256 2.19427895545959473 0 4 12
0.21667499840259552 -0.243414998054504395 2.19193506240844727 0 4 11
0.217701002955436707 -0.24293200671672821 2.20231389999389648 0 3 7
0.217236995697021484 -0.240780994296073914 2.19761991500854492 0 4 7
0.217719003558158875 -0.239680007100105286 2.2025001049041748 1 4 8
0.218099996447563171 -0.233544006943702698 2.20635294914245605 0 2 14
0.217895001173019409 -0.231687992811203003 2.2042849063873291 0 2 14
0.218170002102851868 -0.230340003967285156 2.20705795288085938 0 2 14
0.218390002846717834 -0.228931993246078491 2.20928502082824707 0 2 14
0.21876099705696106 -0.227677002549171448 2.21303892135620117 0 3 14
0.218407005071640015 -0.225667998194694519 2.20946192741394043 0 7 17
0.218693003058433533 -0.224319994449615479 2.21235203742980957 9 19 26
0.217634007334709167 -0.221597999334335327 2.20164203643798828 26 37 36
0.216985002160072327 -0.219307005405426025 2.19508004188537598 42 52 46
0.217718005180358887 -0.218411996960639954 2.20248889923095703 56 65 57
0.217365995049476624 -0.216425999999046326 2.19893193244934082 73 78 76
0.216510996222496033 -0.213947996497154236 2.19028401374816895 95 96 103
0.216801002621650696 -0.212604999542236328 2.19321799278259277 112 112 125
0.216563999652862549 -0.210745006799697876 2.19081497192382812 118 123 134
0.216333001852035522 -0.208894997835159302 2.18847894668579102 121 130 139
0.216758996248245239 -0.207677006721496582 2.19278597831726074 125 133 142
0.216658994555473328 -0.205954000353813171 2.19178009033203125 125 132 142
0.217141002416610718 -0.20477999746799469 2.19665098190307617 125 132 142
0.216985002160072327 -0.203003004193305969 2.19508004188537598 127 134 144
0.216896995902061462 -0.201290994882583618 2.19418597221374512 127 131 142
0.216857999563217163 -0.199625000357627869 2.19379091262817383 121 125 136
0.217030003666877747 -0.198152005672454834 2.19552993774414062 121 125 136
0.216905996203422546 -0.196410000324249268 2.19427895545959473 122 125 137
0.216610997915267944 -0.194515004754066467 2.19129490852355957 122 124 136
0.216124996542930603 -0.19245399534702301 2.18637490272521973 122 123 135
0.216978996992111206 -0.191584005951881409 2.19501209259033203 122 123 135
0.217026993632316589 -0.189996004104614258 2.19549798965454102 120 122 133
0.216588005423545837 -0.187984004616737366 2.1910560131072998 118 121 132
0.217243999242782593 -0.186921000480651855 2.19769406318664551 118 119 129
0.216768994927406311 -0.184882998466491699 2.19288802146911621 120 120 129
0.216854006052017212 -0.183326005935668945 2.19374608993530273 122 121 129
0.216763004660606384 -0.181621000170707703 2.19283199310302734 122 121 129
0.21733500063419342 -0.180466994643211365 2.19861698150634766 123 122 130
0.217030003666877747 -0.178582996129989624 2.19552993774414062 125 124 132
0.216546997427940369 -0.176559001207351685 2.19064593315124512 128 126 135
0.216478005051612854 -0.174875006079673767 2.1899418830871582 132 129 138
0.217764005064964294 -0.174278005957603455 2.20295095443725586 136 131 140
0.217932000756263733 -0.172775000333786011 2.2046511173248291 138 131 142
0.217701002955436707 -0.170956000685691833 2.20231389999389648 133 125 135
0.217656001448631287 -0.169285997748374939 2.20186591148376465 108 102 110
0.218287006020545959 -0.168136000633239746 2.20825004577636719 64 59 65
0.218793004751205444 -0.166881993412971497 2.21336603164672852 20 17 21
0.220732003450393677 -0.166702002286911011 2.23297595977783203 2 1 3
0.220072999596595764 -0.164551004767417908 2.2263178825378418 14 16 16
0.219387993216514587 -0.162389993667602539 2.21937990188598633 37 41 39
0.218190997838973999 -0.159863993525505066 2.20727396011352539 59 65 60
0.2181130051612854 -0.158168002963066101 2.20648598670959473 72 79 72
0.219053998589515686 -0.157205000519752502 2.21600699424743652 68 77 70
0.21861499547958374 -0.155247002840042114 2.21156907081604004 68 78 72
0.21909700334072113 -0.153943002223968506 2.21643590927124023 70 81 78
0.216861993074417114 -0.150742992758750916 2.19383502006530762 68 79 79
0.215334996581077576 -0.148064002394676208 2.17838406562805176 55 66 69
0.216658994555473328 -0.147346004843711853 2.19178009033203125 38 48 55
0.216768994927406311 -0.145792007446289062 2.19288802146911621 23 32 43
0.217859998345375061 -0.143252000212669373 2.20392799377441406 14 23 41
0.218081995844841003 -0.141758993268013 2.20617008209228516 14 25 43
0.218187004327774048 -0.14018799364566803 2.20723891258239746 12 25 44
0.217765003442764282 -0.138281002640724182 2.20296788215637207 9 23 43
0.216581001877784729 -0.135901004076004028 2.19098806381225586 5 20 40
0.211541995406150818 -0.129561007022857666 2.14001607894897461 2 17 29
0.211471006274223328 -0.124750003218650818 2.13929009437561035 0 4 12
0.213772997260093689 -0.124502003192901611 2.1625831127166748 0 3 13
0.210668995976448059 -0.119528003036975861 2.1311790943145752 0 2 18
0.212845996022224426 -0.11916399747133255 2.15320301055908203 1 1 18
0.211474999785423279 -0.113628998398780823 2.13933110237121582 1 0 13
0.213403001427650452 -0.105043999850749969 2.15883588790893555 0 0 11
0.215495005249977112 -0.102834999561309814 2.17999911308288574 0 0 7
0.217011004686355591 -0.101928003132343292 2.19533300399780273 0 0 7
0.218493998050689697 -0.100983001291751862 2.21033906936645508 0 0 7
0.219530001282691956 -0.0998120009899139404 2.22082209587097168 0 0 8
0.218450993299484253 -0.0976800024509429932 2.20989990234375 0 0 9
0.207635000348091125 -0.0881630033254623413 2.10048604011535645 1 1 11
0.207068994641304016 -0.0863670036196708679 2.09475994110107422 1 2 12
0.209042996168136597 -0.0856190025806427002 2.11472702026367188 0 2 13
0.201775997877120972 -0.0811270028352737427 2.04121994972229004 0 2 13
0.201766997575759888 -0.0796070024371147156 2.0411229133605957 0 1 13
0.20152600109577179 -0.0779979974031448364 2.03868293762207031 0 1 13
0.200067996978759766 -0.0759299993515014648 2.0239410400390625 0 1 13
0.200944006443023682 -0.07475300133228302 2.03280305862426758 0 0 11
0.20174899697303772 -0.0735360011458396912 2.04094099998474121 0 0 9
0.200372993946075439 -0.071529000997543335 2.0270240306854248 0 0 9
0.20172099769115448 -0.0704950019717216492 2.04066109657287598 0 0 7
0.200378000736236572 -0.0685200020670890808 2.02707505226135254 0 0 5
0.200884997844696045 -0.0671830028295516968 2.03220295906066895 0 0 4
0.202017992734909058 -0.0660440027713775635 2.04366588592529297 0 0 4
0.202015995979309082 -0.064525999128818512 2.04364705085754395 0 0 3
0.218903005123138428 -0.0633400008082389832 2.2144770622253418 0 0 4
0.216510996222496033 -0.0593939982354640961 2.19028401374816895 0 0 4
0.202553004026412964 -0.0433889999985694885 2.04907488822937012 0 0 10
0.202371001243591309 -0.0418299995362758636 2.04723095893859863 0 0 10
0.202746003866195679 -0.040383998304605484 2.05103397369384766 0 0 12
0.203012004494667053 -0.0389109998941421509 2.05372500419616699 0 0 12
0.203593000769615173 -0.0374930016696453094 2.0596010684967041 0 0 13
0.203911006450653076 -0.0360190011560916901 2.06280994415283203 1 0 13
0.204739004373550415 -0.0346270017325878143 2.07118701934814453 1 0 13
0.20699000358581543 -0.0303419996052980423 2.09396004676818848 0 0 12
0.202067002654075623 -0.0250649992376565933 2.04416203498840332 0 0 10
0.202031999826431274 -0.0235430002212524414 2.04380488395690918 0 0 9
0.202190995216369629 -0.0220420006662607193 2.04541611671447754 0 0 9
0.201529994606971741 -0.0204559992998838425 2.0387270450592041 0 0 8
0.201704993844032288 -0.0189580004662275314 2.04050302505493164 0 0 8
0.202295005321502686 -0.017493000254034996 2.04646611213684082 0 0 7
0.20198899507522583 -0.0159489996731281281 2.04337501525878906 0 0 6
0.205684006214141846 0.209405004978179932 2.08075308799743652 0 1 6
0.203870996832847595 0.210622996091842651 2.06241297721862793 0 1 6
0.231277003884315491 -0.397596001625061035 2.32221102714538574 163 158 166
0.234271004796028137 -0.400994986295700073 2.3522648811340332 155 149 158
0.235064998269081116 -0.400600999593734741 2.36023807525634766 154 147 157
0.238912999629974365 -0.405378013849258423 2.3988800048828125 160 153 162
0.239420995116233826 -0.404453009366989136 2.4039769172668457 165 162 168
0.23923000693321228 -0.402345985174179077 2.40205907821655273 166 165 169
0.237197995185852051 -0.397159993648529053 2.38165688514709473 166 166 169
0.239803001284599304 -0.399733006954193115 2.40781402587890625 167 168 172
0.239528998732566833 -0.397489994764328003 2.4050600528717041 163 164 171
0.240246996283531189 -0.396890014410018921 2.41227102279663086 149 150 161
0.242377996444702148 -0.398602992296218872 2.4336700439453125 131 133 147
0.240379005670547485 -0.39352300763130188 2.41359710693359375 109 113 132
0.235804006457328796 -0.384274005889892578 2.36765909194946289 79 88 109
0.23745100200176239 -0.38341599702835083 2.38419604301452637 62 82 106
0.229625999927520752 -0.360505014657974243 2.30562496185302734 44 62 89
0.228826001286506653 -0.357542991638183594 2.29759407043457031 46 63 90
0.229741007089614868 -0.357259988784790039 2.30678391456604004 44 61 87
0.230354994535446167 -0.35649600625038147 2.31294608116149902 37 54 81
0.230894997715950012 -0.35561099648475647 2.3183751106262207 28 46 73
0.228459000587463379 -0.350156009197235107 2.29391598701477051 20 39 66
0.228706002235412598 -0.348827004432678223 2.2963869571685791 15 34 63
0.229451000690460205 -0.348253011703491211 2.30387306213378906 20 39 69
0.228780999779701233 -0.345530003309249878 2.29714798927307129 28 47 77
0.227842003107070923 -0.342411994934082031 2.28771710395812988 27 46 77
0.227992996573448181 -0.340938985347747803 2.28923797607421875 24 44 74
0.224096000194549561 -0.333440005779266357 2.25010204315185547 22 42 71
0.223175004124641418 -0.330404996871948242 2.24085307121276855 25 46 72
0.222959995269775391 -0.328424006700515747 2.23870110511779785 31 53 77
0.223011001944541931 -0.326835989952087402 2.23921108245849609 35 56 80
0.222459003329277039 -0.324368000030517578 2.23366689682006836 32 51 76
0.221982002258300781 -0.322017014026641846 2.22887802124023438 21 37 65
0.221158996224403381 -0.31917300820350647 2.22060894966125488 15 31 57
0.221158996224403381 -0.317523002624511719 2.22060894966125488 10 24 46
0.219665005803108215 -0.313740998506546021 2.20561790466308594 3 13 30
0.221246004104614258 -0.314348995685577393 2.22148799896240234 0 4 13
0.221803992986679077 -0.313488006591796875 2.22709298133850098 0 6 12
0.21966099739074707 -0.308820992708206177 2.20557498931884766 2 10 12
0.218536004424095154 -0.305608987808227539 2.19427895545959473 0 5 8
0.219266995787620544 -0.30499500036239624 2.20161294937133789 0 4 7
0.219414994120597839 -0.303566008806228638 2.20310711860656738 0 4 7
0.219732001423835754 -0.302365005016326904 2.20628499984741211 0 4 10
0.220256000757217407 -0.301443010568618774 2.21154594421386719 0 4 12
0.219925001263618469 -0.299351006746292114 2.20822811126708984 0 5 12
0.219586998224258423 -0.297253012657165527 2.20483207702636719 0 5 13
0.219739004969596863 -0.295819014310836792 2.20635294914245605 0 6 12
0.219336003065109253 -0.293642014265060425 2.20231389999389648 1 6 10
0.219764992594718933 -0.292575985193252563 2.20661497116088867 0 4 8
0.219583004713058472 -0.290697008371353149 2.20479393005371094 0 4 6
0.219238996505737305 -0.288605988025665283 2.20133399963378906 0 4 6
0.219132006168365479 -0.286830991506576538 2.20026206970214844 0 4 6
0.21964600682258606 -0.28586500883102417 2.20542001724243164 0 4 6
0.220412999391555786 -0.285219013690948486 2.2131190299987793 0 4 6
0.220364004373550415 -0.283513009548187256 2.21263289451599121 0 4 6
0.220017999410629272 -0.281426995992660522 2.20915889739990234 0 4 6
0.220798999071121216 -0.280779004096984863 2.21699810028076172 0 3 5
0.219853997230529785 -0.277938008308410645 2.20750999450683594 0 3 5
0.219336003065109253 -0.275647997856140137 2.20231389999389648 0 3 5
0.219279006123542786 -0.273939996957778931 2.20173811912536621 0 3 5
0.219267994165420532 -0.272291988134384155 2.2016289234161377 0 3 5
0.219316005706787109 -0.270714998245239258 2.20210909843444824 0 3 6
0.219609007239341736 -0.269439011812210083 2.20504903793334961 0 3 6
0.219993993639945984 -0.268269985914230347 2.20891189575195312 0 3 6
0.219612002372741699 -0.266167014837265015 2.20508193969726562 0 3 6
0.219457000494003296 -0.264342010021209717 2.20352411270141602 0 5 7
0.218649998307228088 -0.261739999055862427 2.19542288780212402 0 7 8
0.218968003988265991 -0.260488003492355347 2.19861698150634766 0 8 9
0.218835994601249695 -0.258697986602783203 2.19728493690490723 1 9 10
0.219449996948242188 -0.257786989212036133 2.20345497131347656 1 8 10
0.219044998288154602 -0.255677998065948486 2.19938492774963379 0 8 10
0.221362993121147156 -0.255082011222839355 2.22266101837158203 0 6 13
0.218478992581367493 -0.250129014253616333 2.19370698928833008 0 7 14
0.218315005302429199 -0.248312994837760925 2.19205808639526367 0 6 14
0.218873992562294006 -0.247317001223564148 2.19767093658447266 0 4 13
0.218663007020950317 -0.24544699490070343 2.19554901123046875 0 3 11
0.219096004962921143 -0.244298994541168213 2.19989705085754395 0 3 9
0.219124004244804382 -0.242696002125740051 2.20018100738525391 0 4 9
0.219396993517875671 -0.241362005472183228 2.20291900634765625 0 7 10
0.220271006226539612 -0.240680992603302002 2.2117009162902832 3 7 10
0.220751002430915833 -0.237912997603416443 2.21651792526245117 0 3 9
0.221830993890762329 -0.23742300271987915 2.22736501693725586 0 3 13
0.224309995770454407 -0.238403007388114929 2.25225496292114258 0 2 14
0.22218400239944458 -0.234485998749732971 2.23090600967407227 0 2 14
0.220115005970001221 -0.230661004781723022 2.21012997627258301 0 2 15
0.221621006727218628 -0.230587005615234375 2.22525811195373535 0 3 16
0.220508992671966553 -0.227783992886543274 2.21408295631408691 0 4 17
0.221263006329536438 -0.226914003491401672 2.22165989875793457 2 11 23
0.220053002238273621 -0.224031001329421997 2.20950603485107422 11 21 29
0.221699997782707214 -0.224055007100105286 2.22604799270629883 24 35 35
0.221465006470680237 -0.222166001796722412 2.22368788719177246 36 47 42
0.219477996230125427 -0.218536004424095154 2.20373797416687012 48 57 51
0.219059005379676819 -0.216483995318412781 2.19952607154846191 65 70 68
0.218712002038955688 -0.2145099937915802 2.19604206085205078 88 88 95
0.21840299665927887 -0.212578997015953064 2.19294500350952148 105 105 117
