ply
format ascii 1.0
element vertex 687
property float x
property float y
property float z
property uchar red
property uchar green
property uchar blue
end_header
0.212671995162963867 -0.160649001598358154 2.21810698509216309 0 1 1
0.209154993295669556 -0.156371995806694031 2.18143105506896973 0 1 3
0.208908006548881531 -0.154569998383522034 2.17885708808898926 0 1 3
0.207879006862640381 -0.152198001742362976 2.16812396049499512 0 1 5
0.207310006022453308 -0.150175005197525024 2.16219210624694824 0 1 5
0.213161006569862366 -0.151111006736755371 2.22320890426635742 0 1 5
0.213440001010894775 -0.146347999572753906 2.22612500190734863 0 1 6
0.201823994517326355 -0.132128998637199402 2.10497093200683594 0 1 6
0.207175001502037048 -0.132422000169754028 2.16077494621276855 0 0 8
0.211656004190444946 -0.123809002339839935 2.20750999450683594 11 29 33
0.209292992949485779 -0.114320002496242523 2.18286395072937012 2 21 24
0.209285005927085876 -0.112694002687931061 2.18278908729553223 0 16 18
0.208770006895065308 -0.110799998044967651 2.1774139404296875 0 10 12
0.2079010009765625 -0.108727999031543732 2.16834902763366699 0 6 7
0.208795994520187378 -0.107579000294208527 2.1776878833770752 0 2 3
0.209529995918273926 -0.0803619995713233948 2.18534398078918457 0 2 3
0.210541993379592896 -0.0791189968585968018 2.19589900970458984 0 3 3
0.211839005351066589 -0.0779659971594810486 2.20942807197570801 0 3 2
0.21011100709438324 -0.0757019966840744019 2.19139695167541504 0 3 4
0.204257994890213013 -0.0704279989004135132 2.13035202026367188 0 1 3
0.202554002404212952 -0.0619949996471405029 2.1125791072845459 0 0 2
0.201738998293876648 -0.0601829998195171356 2.1040799617767334 0 0 2
0.201719000935554504 -0.058614000678062439 2.10387611389160156 0 0 2
0.201727002859115601 -0.0570540018379688263 2.10395693778991699 0 1 3
0.204392999410629272 -0.0483070015907287598 2.1317598819732666 0 0 12
0.203924000263214111 -0.0466159991919994354 2.12686705589294434 0 0 12
0.20293000340461731 -0.0448170006275177002 2.11650896072387695 0 0 11
0.198612004518508911 -0.0084750000387430191 2.07146906852722168 0 1 6
0.195167005062103271 -0.005303999874740839 2.03553891181945801 0 0 6
0.19410000741481781 -0.00377200008369982243 2.02440500259399414 0 0 7
0.200278997421264648 -0.000789000012446194887 2.08885598182678223 0 0 4
0.198734000325202942 0.000757000001613050699 2.07274389266967773 0 0 4
0.196293994784355164 0.00530999992042779922 2.04729294776916504 0 0 4
0.204855993390083313 0.00871500000357627869 2.13659501075744629 0 0 4
0.207414001226425171 0.0104310000315308571 2.16327309608459473 0 0 3
0.206321001052856445 0.011974000371992588 2.15187311172485352 0 0 3
0.20603199303150177 0.0135540002956986427 2.14885401725769043 0 0 3
0.207876995205879211 0.0168960001319646835 2.16810107231140137 0 0 3
0.206122994422912598 0.0183499995619058609 2.14980602264404297 0 0 3
0.203857004642486572 0.0197279993444681168 2.12617206573486328 0 0 3
0.198765993118286133 0.0223149992525577545 2.07307600975036621 0 0 1
0.198676005005836487 0.0238439999520778656 2.07213807106018066 1 1 1
0.197669997811317444 0.0252539999783039093 2.06164693832397461 1 1 1
0.197760999202728271 0.0267980005592107773 2.06258893013000488 2 1 4
0.197828993201255798 0.0283400006592273712 2.06330609321594238 2 2 7
0.197481006383895874 0.0298200007528066635 2.05967211723327637 1 2 8
0.196868002414703369 0.031252000480890274 2.0532839298248291 0 1 9
0.196868002414703369 0.032777000218629837 2.0532839298248291 0 2 11
0.195381999015808105 0.0340429991483688354 2.0377800464630127 0 6 15
0.196412995457649231 0.0372660011053085327 2.0485389232635498 4 19 32
0.191890999674797058 0.0393810011446475983 2.00136709213256836 12 34 50
0.192973002791404724 0.0410979986190795898 2.01265597343444824 10 35 52
0.193738996982574463 0.0427620001137256622 2.02064704895019531 7 33 54
0.193046003580093384 0.0441050007939338684 2.01341605186462402 4 32 54
0.192932993173599243 0.0455739982426166534 2.01223611831665039 4 30 54
0.192479997873306274 0.0469579994678497314 2.00751304626464844 6 27 53
0.191795006394386292 0.048277001827955246 2.00037503242492676 7 27 53
0.192562997341156006 0.0544370003044605255 2.00837802886962891 4 27 48
0.192059993743896484 0.0557829998433589935 2.00313210487365723 4 27 46
0.240253999829292297 -0.348158001899719238 2.48652005195617676 126 127 129
0.240936994552612305 -0.345443993806838989 2.49358892440795898 94 107 115
0.243307992815971375 -0.346971988677978516 2.51812410354614258 67 83 95
0.244451999664306641 -0.346724987030029297 2.52997088432312012 39 56 70
0.210939005017280579 -0.278111010789871216 2.18312811851501465 23 44 59
0.211329996585845947 -0.277000993490219116 2.18716692924499512 9 31 40
0.211796000599861145 -0.272727996110916138 2.19199395179748535 6 23 25
0.21279299259185791 -0.272376000881195068 2.20231389999389648 4 17 22
0.213027000427246094 -0.2710379958152771 2.20473599433898926 3 13 20
0.212491005659103394 -0.268721997737884521 2.19918203353881836 1 10 17
0.212052002549171448 -0.266537010669708252 2.19464302062988281 1 8 17
0.210884004831314087 -0.263447999954223633 2.18255901336669922 1 10 18
0.211053997278213501 -0.262037992477416992 2.18431806564331055 1 13 19
0.211785003542900085 -0.261317014694213867 2.1918799877166748 0 13 19
0.210644006729125977 -0.256671011447906494 2.18007588386535645 0 12 18
0.212224006652832031 -0.256965011358261108 2.19642210006713867 0 11 17
0.209343999624252319 -0.251868009567260742 2.16661310195922852 1 10 17
0.210608005523681641 -0.251769989728927612 2.17969989776611328 2 9 19
0.212000995874404907 -0.251805990934371948 2.19411897659301758 3 9 20
0.21199500560760498 -0.250167995691299438 2.19405007362365723 1 5 17
0.212322995066642761 -0.248924002051353455 2.19744992256164551 0 4 16
0.210701003670692444 -0.24540199339389801 2.18066191673278809 0 2 13
0.210354000329971313 -0.243380993604660034 2.17706990242004395 0 1 12
0.210003003478050232 -0.239746004343032837 2.1734321117401123 0 2 8
0.21073499321937561 -0.238961994647979736 2.18101692199707031 0 3 7
0.212081000208854675 -0.238857999444007874 2.1949460506439209 0 3 7
0.211088001728057861 -0.236117005348205566 2.18466806411743164 0 1 8
0.211404994130134583 -0.234846994280815125 2.18795108795166016 0 1 8
0.213661998510360718 -0.235712006688117981 2.21131110191345215 1 1 9
0.213318005204200745 -0.233692005276679993 2.20775008201599121 1 2 9
0.209446996450424194 -0.227840006351470947 2.1676781177520752 1 2 10
0.210740000009536743 -0.227626994252204895 2.1810600757598877 2 3 10
0.210454002022743225 -0.224083006381988525 2.17810893058776855 3 3 11
0.208513006567955017 -0.220413997769355774 2.15802001953125 0 1 7
0.208397999405860901 -0.218688994646072388 2.15682291984558105 0 1 6
0.209125995635986328 -0.217846006155014038 2.16436409950256348 0 1 6
0.210307002067565918 -0.217458993196487427 2.17657995223999023 0 1 6
0.211333006620407104 -0.216895997524261475 2.18720006942749023 0 1 6
0.212475001811981201 -0.216434001922607422 2.1990199089050293 0 1 6
0.212157994508743286 -0.214479997754096985 2.19573593139648438 0 1 6
0.210710003972053528 -0.209776997566223145 2.18075299263000488 0 0 9
0.211053997278213501 -0.208498001098632812 2.18431806564331055 0 0 10
0.210481002926826477 -0.206312999129295349 2.17838406562805176 0 0 9
0.209720999002456665 -0.203955993056297302 2.17052197456359863 0 0 7
0.209978997707366943 -0.202592998743057251 2.17318892478942871 0 0 6
0.210344001650810242 -0.201327994465827942 2.17696499824523926 0 1 5
0.209186002612113953 -0.198611006140708923 2.16497993469238281 0 1 3
0.210563004016876221 -0.198300004005432129 2.1792299747467041 0 1 3
0.213128000497817993 -0.19580000638961792 2.20577597618103027 0 1 4
0.214441999793052673 -0.193710997700691223 2.21937990188598633 0 1 5
0.214759007096290588 -0.192346006631851196 2.22266101837158203 0 1 5
0.214525997638702393 -0.190487995743751526 2.22024798393249512 0 1 5
0.214857995510101318 -0.189132004976272583 2.22368788719177246 0 1 5
0.212732002139091492 -0.183989003300666809 2.20167803764343262 0 1 5
0.211471006274223328 -0.181273996829986572 2.18863511085510254 0 1 5
0.213403001427650452 -0.181289002299308777 2.20862197875976562 0 1 5
0.213732004165649414 -0.179925993084907532 2.21203398704528809 0 1 5
0.214470997452735901 -0.178899005055427551 2.21967792510986328 0 1 6
0.213220000267028809 -0.174576997756958008 2.20673394203186035 0 1 4
0.213183000683784485 -0.172907993197441101 2.20635294914245605 0 1 3
0.212768003344535828 -0.17093600332736969 2.202056884765625 0 1 1
0.212276995182037354 -0.168908998370170593 2.19697308540344238 0 2 0
0.214429005980491638 -0.168972998857498169 2.21924400329589844 0 2 0
0.215079993009567261 -0.167833000421524048 2.22598600387573242 0 2 0
0.213712006807327271 -0.165122002363204956 2.2118220329284668 0 2 1
0.213722005486488342 -0.163488000631332397 2.21193194389343262 0 2 1
0.212635993957519531 -0.161021992564201355 2.20069098472595215 0 2 1
0.212727993726730347 -0.159456998109817505 2.20164203643798828 0 1 1
0.210830003023147583 -0.1564130038022995 2.1819920539855957 0 1 3
0.20964600145816803 -0.153923004865646362 2.1697390079498291 0 1 3
0.209627002477645874 -0.1522970050573349 2.16954398155212402 0 1 5
0.208954006433486938 -0.150202006101608276 2.1625831127166748 0 1 5
0.210915997624397278 -0.149991005659103394 2.18288207054138184 0 1 5
0.212923005223274231 -0.149782001972198486 2.2036590576171875 0 1 5
0.214770004153251648 -0.149430006742477417 2.22277188301086426 0 1 5
0.214561000466346741 -0.147634997963905334 2.22060894966125488 0 1 5
0.214728996157646179 -0.1460999995470047 2.22235107421875 0 1 6
0.208156004548072815 -0.132027000188827515 2.15432500839233398 0 0 8
0.210041999816894531 -0.131607994437217712 2.17384099960327148 1 1 10
0.214332997798919678 -0.132649004459381104 2.2182469367980957 2 3 14
0.210672006011009216 -0.123905003070831299 2.18035793304443359 8 23 28
0.212871000170707703 -0.123562999069690704 2.20312094688415527 10 28 32
0.212026000022888184 -0.114923000335693359 2.19437694549560547 2 22 23
0.211217001080513 -0.112860001623630524 2.18599700927734375 0 16 17
0.21080799400806427 -0.111020997166633606 2.18177103996276855 0 11 11
0.210666999220848083 -0.109328001737594604 2.18031191825866699 0 7 6
0.210950002074241638 -0.107853002846240997 2.18323588371276855 0 3 2
0.209911003708839417 -0.105708003044128418 2.17248201370239258 1 0 1
0.209830000996589661 -0.104053996503353119 2.17164206504821777 2 0 3
0.209451004862785339 -0.10225600004196167 2.16772794723510742 4 0 5
0.211560994386672974 -0.101659998297691345 2.18955898284912109 1 0 5
0.208031997084617615 -0.0935669988393783569 2.15303897857666016 21 35 44
0.210337996482849121 -0.0929870009422302246 2.17690610885620117 19 36 46
0.210392996668815613 -0.0800729990005493164 2.17747402191162109 1 2 3
0.212066993117332458 -0.0790800005197525024 2.19480204582214355 0 3 2
0.212071001529693604 -0.0774509981274604797 2.19483709335327148 0 3 2
0.212511003017425537 -0.0759780034422874451 2.19939804077148438 0 3 4
0.203862994909286499 -0.0603489987552165985 2.10988593101501465 0 0 2
0.202261000871658325 -0.0583200007677078247 2.09331488609313965 0 0 2
0.203124001622200012 -0.0570069998502731323 2.10224199295043945 1 1 3
0.201833993196487427 -0.0395779982209205627 2.08889603614807129 0 0 10
0.202665999531745911 -0.0381829999387264252 2.0975029468536377 0 0 10
0.202706992626190186 -0.0366320013999938965 2.09792804718017578 0 0 9
0.201969996094703674 -0.0349470004439353943 2.09029507637023926 0 0 8
0.202308997511863708 -0.0147869996726512909 2.09380888938903809 0 1 5
0.202481001615524292 -0.0116870002821087837 2.09558296203613281 0 1 6
0.20101599395275116 -0.0100570004433393478 2.08042597770690918 0 1 6
0.201311007142066956 -0.00852399971336126328 2.08347511291503906 0 1 6
0.203914999961853027 -0.0054990001954138279 2.1104280948638916 0 0 6
0.204133003950119019 -0.00393600016832351685 2.11268997192382812 0 0 7
0.202769994735717773 -0.000791999977082014084 2.09857392311096191 0 0 4
0.198273003101348877 0.00379800004884600639 2.0520329475402832 0 0 4
0.201783999800682068 0.00696700019761919975 2.08837199211120605 0 0 4
0.205118000507354736 0.00865899957716464996 2.1228790283203125 0 0 4
0.205773994326591492 0.0102690001949667931 2.12966704368591309 0 0 3
0.206520006060600281 0.0118939997628331184 2.13738608360290527 0 0 2
0.209060996770858765 0.0136470003053545952 2.16369009017944336 0 0 2
0.208189994096755981 0.016790999099612236 2.15467095375061035 0 0 2
0.204297006130218506 0.0180479995906352997 2.11438298225402832 0 0 2
0.202769994735717773 0.0194719992578029633 2.09857392311096191 0 0 2
0.200310006737709045 0.0207749996334314346 2.07311701774597168 0 0 2
0.20144200325012207 0.0239899996668100357 2.08483290672302246 1 1 1
0.200546994805335999 0.0254250001162290573 2.07556891441345215 1 1 1
0.199571996927261353 0.026835000142455101 2.06548094749450684 2 1 4
0.199093997478485107 0.0283020008355379105 2.06053400039672852 2 2 7
0.198026001453399658 0.0296720005571842194 2.04947900772094727 0 1 7
0.198690995573997498 0.0312989987432956696 2.05636692047119141 0 0 7
0.197851002216339111 0.0326879993081092834 2.04766702651977539 0 2 12
0.196519002318382263 0.033978000283241272 2.03388404846191406 0 7 19
0.196948006749153137 0.0355670005083084106 2.03832888603210449 3 19 34
0.197246000170707703 0.0371370017528533936 2.0414121150970459 7 27 43
0.194912001490592957 0.0381960012018680573 2.01725411415100098 11 36 53
0.194674000144004822 0.0396450012922286987 2.01479005813598633 11 37 56
0.195093005895614624 0.0412309989333152771 2.01912593841552734 7 34 54
0.195263996720314026 0.0427680015563964844 2.02089309692382812 3 30 51
0.194762006402015686 0.0441550016403198242 2.01569509506225586 2 29 50
0.194407001137733459 0.0455689989030361176 2.01202011108398438 4 30 50
0.19427800178527832 0.0470319986343383789 2.01068711280822754 5 27 46
0.193406000733375549 0.0542550012469291687 2.00166606903076172 6 27 50
0.246334001421928406 -0.346729010343551636 2.5299980640411377 33 50 63
0.246920004487037659 -0.345670014619827271 2.53601288795471191 32 48 61
0.247139006853103638 -0.34409099817276001 2.53826403617858887 47 61 74
0.247757002711296082 -0.343062013387680054 2.54461288452148438 42 56 68
0.211197003722190857 -0.276327013969421387 2.16912388801574707 20 42 55
0.211882993578910828 -0.27560800313949585 2.17616701126098633 6 27 36
0.209444001317024231 -0.270837008953094482 2.15111398696899414 7 27 32
0.212264001369476318 -0.271245002746582031 2.18007588386535645 4 21 24
0.212542995810508728 -0.26998099684715271 2.18294501304626465 2 16 21
0.214490994811058044 -0.269181996583938599 2.20295095443725586 0 8 15
0.214709997177124023 -0.267818987369537354 2.20519804954528809 0 8 15
0.213576003909111023 -0.264775007963180542 2.19355201721191406 0 10 17
0.212207004427909851 -0.261460006237030029 2.17949390411376953 1 13 19
0.212281003594398499 -0.259930998086929321 2.18025398254394531 1 13 19
0.212192997336387634 -0.258204013109207153 2.17934393882751465 1 12 18
0.212397992610931396 -0.2568340003490448 2.1814570426940918 0 11 17
0.212567001581192017 -0.255416989326477051 2.18319296836853027 0 10 16
0.211737006902694702 -0.252804994583129883 2.17467093467712402 0 9 16
0.211830005049705505 -0.251298993825912476 2.17561793327331543 1 8 17
0.212369993329048157 -0.250319987535476685 2.18117189407348633 1 8 18
0.212677001953125 -0.249059006571769714 2.18431806564331055 1 5 17
0.212227001786231995 -0.24691300094127655 2.17969989776611328 0 4 16
0.21200600266456604 -0.245038002729415894 2.17742490768432617 0 1 13
0.212188005447387695 -0.243630006909370422 2.17929506301879883 0 1 11
0.211595997214317322 -0.241336002945899963 2.1732180118560791 0 2 9
0.211013004183769226 -0.23906099796295166 2.16722893714904785 0 2 8
0.211703002452850342 -0.238227993249893188 2.1743168830871582 0 2 8
0.212484002113342285 -0.237486004829406738 2.18233609199523926 0 3 8
0.212704002857208252 -0.236110001802444458 2.1846010684967041 0 1 8
0.2147350013256073 -0.235087007284164429 2.20545506477355957 0 2 9
0.213709995150566101 -0.232335001230239868 2.19492506980895996 1 3 10
0.212295994162559509 -0.229177996516227722 2.18040704727172852 2 4 11
0.211934998631477356 -0.225555002689361572 2.17669391632080078 2 4 12
0.209649994969367981 -0.219925001263618469 2.15323209762573242 0 2 7
0.209086000919342041 -0.21773800253868103 2.14744091033935547 0 1 6
0.211348995566368103 -0.21848200261592865 2.17067909240722656 0 1 6
0.216609999537467957 -0.218963995575904846 2.2247159481048584 0 1 6
0.21536700427532196 -0.216064006090164185 2.21195006370544434 0 1 6
0.215194001793861389 -0.214248001575469971 2.21016907691955566 0 1 7
0.216345995664596558 -0.213744997978210449 2.22200393676757812 0 0 9
0.208698004484176636 -0.199819996953010559 2.1434481143951416 0 0 5
0.210006996989250183 -0.199471995234489441 2.15689992904663086 0 1 5
0.209472998976707458 -0.197366997599601746 2.15141105651855469 0 1 3
0.216523006558418274 -0.197402000427246094 2.22381806373596191 0 1 4
0.216355994343757629 -0.195599004626274109 2.22210597991943359 0 1 5
0.216300994157791138 -0.193900004029273987 2.22154092788696289 0 1 5
0.21634499728679657 -0.192287996411323547 2.22199106216430664 0 1 5
0.216285005211830139 -0.190585002303123474 2.22137808799743652 0 1 5
0.216383993625640869 -0.1890220046043396 2.22239589691162109 0 1 5
0.217097997665405273 -0.187988996505737305 2.22972393035888672 0 1 5
0.21620999276638031 -0.185570999979972839 2.22060894966125488 0 1 5
0.21429799497127533 -0.182294994592666626 2.20097088813781738 0 1 5
0.214242994785308838 -0.180613994598388672 2.20040607452392578 0 1 5
0.214193999767303467 -0.178938001394271851 2.19989705085754395 0 1 5
0.215397000312805176 -0.178299993276596069 2.21225595474243164 0 1 5
0.215721994638442993 -0.176923006772994995 2.21559000015258789 0 1 5
0.214127004146575928 -0.173981994390487671 2.19920802116394043 0 1 4
0.213863000273704529 -0.172135993838310242 2.19650506973266602 0 1 3
0.216143995523452759 -0.169025003910064697 2.21992611885070801 0 2 0
0.216042995452880859 -0.167298004031181335 2.21888899803161621 0 2 0
0.21646900475025177 -0.165977001190185547 2.22326993942260742 0 1 1
0.214576005935668945 -0.162889003753662109 2.203826904296875 0 1 1
0.213616997003555298 -0.160530999302864075 2.19397091865539551 0 1 1
0.211662992835044861 -0.155833005905151367 2.1739039421081543 0 1 3
0.21152399480342865 -0.150889992713928223 2.17248201370239258 0 1 5
0.21151299774646759 -0.149268001317977905 2.17236208915710449 0 1 5
0.216447994112968445 -0.147797003388404846 2.22305202484130859 0 1 5
0.216535001993179321 -0.14620499312877655 2.22394800186157227 0 1 6
0.209096997976303101 -0.134801998734474182 2.14754796028137207 0 1 6
0.20975300669670105 -0.132025003433227539 2.15428709983825684 0 0 8
0.211538001894950867 -0.131533995270729065 2.17261910438537598 0 1 12
0.216019004583358765 -0.132672995328903198 2.21864795684814453 2 4 16
0.212002992630004883 -0.128589004278182983 2.1773979663848877 0 3 14
0.212275996804237366 -0.127136006951332092 2.1802060604095459 0 6 15
0.211151003837585449 -0.124851003289222717 2.16865110397338867 4 15 21
0.211322993040084839 -0.123340003192424774 2.17041707038879395 9 24 29
0.214429005980491638 -0.123516999185085297 2.20231389999389648 9 27 31
0.212099000811576843 -0.114084996283054352 2.17838406562805176 2 22 23
0.211566001176834106 -0.112185001373291016 2.1729130744934082 0 16 18
0.212147995829582214 -0.110873997211456299 2.17888402938842773 0 11 12
0.211897999048233032 -0.109126999974250793 2.17631888389587402 0 7 8
0.212042003870010376 -0.107583999633789062 2.17780208587646484 0 4 3
0.211322993040084839 -0.105607002973556519 2.17041707038879395 0 1 1
0.211122006177902222 -0.103895999491214752 2.16834902763366699 2 0 3
0.211279004812240601 -0.102361999452114105 2.16996288299560547 4 0 6
0.21325799822807312 -0.101692996919155121 2.19028401374816895 1 0 6
0.208467006683349609 -0.0930470004677772522 2.14107990264892578 21 34 46
0.209336996078491211 -0.0918390005826950073 2.15001606941223145 20 37 47
0.211649000644683838 -0.0880089998245239258 2.17376303672790527 5 21 28
0.210133001208305359 -0.0857760012149810791 2.15819001197814941 0 10 15
0.210044994950294495 -0.0841379985213279724 2.1572868824005127 0 4 9
0.209819003939628601 -0.0824460014700889587 2.1549680233001709 0 2 6
0.20830400288105011 -0.0802619978785514832 2.13941192626953125 1 0 4
0.212458997964859009 -0.0786210000514984131 2.18208098411560059 0 3 2
0.212037995457649231 -0.0768480002880096436 2.17776107788085938 0 3 2
0.205387994647026062 -0.0603360012173652649 2.10945892333984375 0 0 0
0.205304995179176331 -0.05874599888920784 2.10860705375671387 0 0 0
0.205561995506286621 -0.0572509989142417908 2.11124110221862793 1 1 1
0.210352003574371338 -0.0537710003554821014 2.16044497489929199 1 1 7
0.217580005526542664 -0.0506389997899532318 2.23467302322387695 1 0 14
0.206610992550849915 -0.0433580018579959869 2.12202095985412598 1 1 12
0.206590995192527771 -0.0417779982089996338 2.12181806564331055 1 1 12
0.202212005853652954 -0.0393490009009838104 2.07683396339416504 0 0 11
0.203566998243331909 -0.0380599983036518097 2.09075808525085449 0 0 10
0.20361800491809845 -0.0365159995853900909 2.09127688407897949 0 0 9
0.202875003218650818 -0.0348349995911121368 2.08365011215209961 0 0 8
0.205311000347137451 -0.0258559994399547577 2.10866498947143555 0 1 3
0.205636993050575256 -0.0211909990757703781 2.11201190948486328 0 1 5
0.205430999398231506 -0.0196029990911483765 2.10989999771118164 0 1 5
0.20309700071811676 -0.0131820002570748329 2.08593201637268066 0 1 6
0.202364996075630188 -0.0115909995511174202 2.07840895652770996 0 1 6
0.202212005853652954 -0.0100400000810623169 2.07683396339416504 0 1 6
0.202335000038146973 -0.00850200001150369644 2.07809996604919434 0 1 6
0.203934997320175171 -0.00545800011605024338 2.09453511238098145 0 0 6
0.204212993383407593 -0.00390799995511770248 2.09738707542419434 0 0 7
0.203912004828453064 -0.0023459999356418848 2.09429597854614258 0 0 6
0.202445000410079956 -0.000784999981988221407 2.07922697067260742 0 0 4
0.202895000576972961 0.000760999973863363266 2.08384990692138672 0 0 4
0.201377004384994507 0.00689999992027878761 2.06826400756835938 0 0 3
0.204471006989479065 0.00856599956750869751 2.10003900527954102 0 0 3
0.203692004084587097 0.0100870002061128616 2.09204196929931641 0 0 3
0.209891006350517273 0.013597000390291214 2.15570807456970215 0 0 2
0.209025993943214417 0.0151350004598498344 2.14682388305664062 0 0 2
0.205459997057914734 0.0164449997246265411 2.11019992828369141 0 0 2
0.203201994299888611 0.017813999205827713 2.08700799942016602 0 0 2
0.201897993683815002 0.0192399993538856506 2.07361197471618652 0 0 2
0.201802000403404236 0.0207700002938508987 2.07262396812438965 0 0 1
0.203553006052970886 0.0240560006350278854 2.09061598777770996 1 1 0
0.20121300220489502 0.0253149997442960739 2.06658196449279785 1 0 0
0.200639992952346802 0.0267730001360177994 2.06069302558898926 2 0 1
0.200437992811203003 0.0282749999314546585 2.05861806869506836 1 0 3
0.199626997113227844 0.0296839997172355652 2.05028390884399414 0 0 4
0.199064001441001892 0.0311190001666545868 2.04450702667236328 0 0 8
0.199286997318267822 0.0326739996671676636 2.04679608345031738 0 3 15
0.198544993996620178 0.0340670011937618256 2.03917694091796875 1 11 26
0.198623999953269958 0.0355959981679916382 2.03998708724975586 8 28 45
0.197439000010490417 0.036889001727104187 2.02781796455383301 9 34 53
0.196060001850128174 0.0381279997527599335 2.01365804672241211 10 38 58
0.197288006544113159 0.0398709997534751892 2.02626609802246094 7 37 57
0.196710005402565002 0.0412550009787082672 2.0203249454498291 4 31 52
0.196356996893882751 0.0426790006458759308 2.01670598983764648 1 28 49
0.195341005921363831 0.043947998434305191 2.00626707077026367 2 29 49
0.195696994662284851 0.0455209985375404358 2.00992798805236816 4 30 47
0.19547000527381897 0.0469599999487400055 2.00759696960449219 4 27 40
0.195035994052886963 0.0483429990708827972 2.00313210487365723 5 27 40
0.196466997265815735 0.0501970015466213226 2.01783299446105957 6 27 44
0.195648998022079468 0.0514799989759922028 2.00942897796630859 6 27 47
0.195089995861053467 0.0528220012784004211 2.00369000434875488 7 27 50
0.235192000865936279 -0.349907010793685913 2.39727497100830078 139 134 131
0.246864005923271179 -0.344844013452529907 2.51624298095703125 33 46 58
0.247716993093490601 -0.342285007238388062 2.52494001388549805 48 61 76
0.25012698769569397 -0.343721002340316772 2.54950308799743652 45 59 74
0.211798995733261108 -0.27501600980758667 2.15883588790893555 21 42 53
0.218439996242523193 -0.272062987089157104 2.22652292251586914 0 10 19
0.218243002891540527 -0.270164996385574341 2.22451400756835938 1 11 20
0.217776000499725342 -0.267937988042831421 2.21975398063659668 1 11 19
0.213661998510360718 -0.261258989572525024 2.17781996726989746 0 10 17
0.213746994733810425 -0.259745001792907715 2.17868709564208984 1 10 17
0.215608999133110046 -0.258742988109588623 2.19767093658447266 0 9 16
0.216839000582695007 -0.25857698917388916 2.210205078125 0 7 15
0.213485002517700195 -0.252961009740829468 2.17601895332336426 0 7 15
0.213823005557060242 -0.25174298882484436 2.17946004867553711 2 7 15
0.213254004716873169 -0.247843995690345764 2.1736600399017334 0 3 12
0.212066993117332458 -0.244857996702194214 2.16156196594238281 0 2 12
0.215627998113632202 -0.24570600688457489 2.19786596298217773 0 2 9
0.21139100193977356 -0.237675994634628296 2.15467095375061035 0 2 8
0.21224600076675415 -0.2370309978723526 2.16338801383972168 0 2 8
0.213468998670578003 -0.23678000271320343 2.17585110664367676 0 2 8
0.214123994112014771 -0.235885992646217346 2.18253397941589355 0 2 9
0.216541007161140442 -0.236909002065658569 2.20716309547424316 0 2 9
0.21649700403213501 -0.235221996903419495 2.20672202110290527 0 2 9
0.216778993606567383 -0.232245996594429016 2.20959591865539551 1 4 11
0.225109994411468506 -0.237763002514839172 2.29451394081115723 1 5 11
0.223940998315811157 -0.233136996626853943 2.28259110450744629 1 5 9
0.223336994647979736 -0.230818003416061401 2.2764430046081543 1 5 9
0.221699997782707214 -0.227448001503944397 2.25975608825683594 0 5 9
0.220045998692512512 -0.224085003137588501 2.24289488792419434 0 5 9
0.218198001384735107 -0.220550000667572021 2.22405409812927246 0 5 9
0.217208996415138245 -0.217906996607780457 2.21397805213928223 0 5 9
0.216659992933273315 -0.215715005993843079 2.20837903022766113 0 5 9
0.21718299388885498 -0.214591994881629944 2.21371293067932129 0 5 9
0.216787993907928467 -0.212559998035430908 2.20968294143676758 0 2 8
0.217390000820159912 -0.211504995822906494 2.21582198143005371 0 1 9
0.215509995818138123 -0.208044007420539856 2.19665789604187012 0 1 7
0.215158000588417053 -0.206074997782707214 2.1930699348449707 0 1 6
0.212850004434585571 -0.199029996991157532 2.16954398155212402 0 1 5
0.214790999889373779 -0.199219003319740295 2.18932700157165527 0 1 4
0.215481996536254883 -0.198228999972343445 2.19637799263000488 0 1 4
0.215953007340431213 -0.197026997804641724 2.20117306709289551 0 1 4
0.216581001877784729 -0.195960000157356262 2.20757603645324707 0 1 3
0.21603800356388092 -0.193834006786346436 2.20204496383666992 0 1 4
0.215818002820014954 -0.192001998424530029 2.19979691505432129 0 1 4
0.216065004467964172 -0.190586000680923462 2.20231389999389648 0 1 4
0.216065004467964172 -0.188950002193450928 2.20231389999389648 0 1 3
0.216566994786262512 -0.184469997882843018 2.20743298530578613 0 2 4
0.214267998933792114 -0.180889993906021118 2.18400406837463379 0 1 4
0.214229002594947815 -0.179234996438026428 2.18360400199890137 0 1 4
0.214415997266769409 -0.177768006920814514 2.18550801277160645 0 0 3
0.215399995446205139 -0.17695300281047821 2.1955409049987793 0 0 3
0.21600399911403656 -0.175814002752304077 2.20169901847839355 0 0 3
0.216965004801750183 -0.171667993068695068 2.2114861011505127 0 1 2
0.216579005122184753 -0.169723004102706909 2.20755696296691895 0 2 2
0.216882005333900452 -0.168318003416061401 2.21063995361328125 0 1 2
0.216815993189811707 -0.166626006364822388 2.20996999740600586 0 1 1
0.21667499840259552 -0.164876997470855713 2.20853495597839355 0 0 1
0.216435998678207397 -0.163056999444961548 2.2061009407043457 1 0 1
0.215452998876571655 -0.160684004426002502 2.1960749626159668 1 0 1
0.217727005481719971 -0.160732999444007874 2.21925997734069824 0 0 3
0.216255992650985718 -0.158008992671966553 2.20426702499389648 0 0 4
0.216858997941017151 -0.156808003783226013 2.21040797233581543 0 0 5
0.217761993408203125 -0.149216994643211365 2.21960902214050293 0 0 5
0.217298001050949097 -0.147254005074501038 2.21488499641418457 0 1 5
0.217699006199836731 -0.145878002047538757 2.21897101402282715 0 1 6
0.21725800633430481 -0.143938004970550537 2.2144770622253418 0 2 6
0.215320006012916565 -0.141023993492126465 2.19472408294677734 0 2 7
0.212561994791030884 -0.137608006596565247 2.16661310195922852 0 2 6
0.211623996496200562 -0.132193997502326965 2.15704894065856934 0 1 10
0.21636199951171875 -0.131877005100250244 2.20534205436706543 2 7 18
0.212145000696182251 -0.12770099937915802 2.16236400604248047 0 7 17
0.213716998696327209 -0.127029001712799072 2.17838406562805176 0 9 17
0.211647003889083862 -0.124196998775005341 2.1572868824005127 3 16 22
0.210890993475914001 -0.122156001627445221 2.14957690238952637 8 24 30
0.215797007083892822 -0.123364001512527466 2.19958591461181641 9 27 32
0.216163992881774902 -0.115391001105308533 2.20332193374633789 5 21 24
0.213756993412971497 -0.112488001585006714 2.17879199981689453 2 15 18
0.21358199417591095 -0.11077900230884552 2.17700910568237305 0 10 12
0.213659003376960754 -0.109200999140739441 2.17779207229614258 0 7 6
0.213771998882293701 -0.10764099657535553 2.17894792556762695 0 3 2
0.211331993341445923 -0.104812003672122955 2.15407800674438477 0 1 2
0.211897000670433044 -0.103487998247146606 2.1598360538482666 2 1 4
0.213600993156433105 -0.102702997624874115 2.1772010326385498 2 0 6
0.216031000018119812 -0.102236002683639526 2.20196795463562012 2 0 7
0.209064006805419922 -0.0926069989800453186 2.13095402717590332 21 35 44
0.211647003889083862 -0.0857400000095367432 2.1572868824005127 0 9 11
0.211937993764877319 -0.0842529982328414917 2.16024589538574219 0 5 7
0.209666997194290161 -0.0817629992961883545 2.1371009349822998 0 3 6
0.20982399582862854 -0.0802360028028488159 2.1387019157409668 1 1 3
0.209600001573562622 -0.0658679977059364319 2.13642001152038574 0 0 2
0.211142003536224365 -0.064754001796245575 2.15214109420776367 1 1 3
0.207304000854492188 -0.0604379996657371521 2.11301898956298828 0 0 0
0.206573992967605591 -0.0586609989404678345 2.10557103157043457 0 0 0
0.206893995404243469 -0.0571860000491142273 2.1088409423828125 1 1 1
0.211107000708580017 -0.0535550005733966827 2.15177798271179199 1 0 6
0.211171001195907593 -0.051973000168800354 2.15242910385131836 0 0 10
0.209517002105712891 -0.0452210009098052979 2.1355750560760498 0 0 11
0.209154993295669556 -0.0435589998960494995 2.1318809986114502 0 0 11
0.20861700177192688 -0.0418680012226104736 2.12639689445495605 0 0 11
0.204486995935440063 -0.0363949984312057495 2.08430790901184082 0 0 8
0.205369994044303894 -0.0210030004382133484 2.09329891204833984 0 1 5
0.205542996525764465 -0.0194649994373321533 2.09506511688232422 0 1 5
0.201664999127388 -0.0145169999450445175 2.05554008483886719 0 1 5
0.202576994895935059 -0.0130489999428391457 2.0648350715637207 0 1 6
0.201992005109786987 -0.0114820003509521484 2.05887293815612793 0 1 6
0.202369004487991333 -0.00997199956327676773 2.06271600723266602 0 1 6
0.202437996864318848 -0.00844199955463409424 2.06342196464538574 0 1 6
0.203429996967315674 -0.00694300001487135887 2.07352900505065918 0 1 6
0.203523993492126465 -0.00540600018575787544 2.07449007034301758 0 0 6
0.204088002443313599 -0.0038759999442845583 2.08023691177368164 0 0 7
0.204313993453979492 -0.00233300006948411465 2.08254504203796387 0 0 6
0.204845994710922241 -0.000788000004831701517 2.08795809745788574 0 0 4
0.202162995934486389 0.000752999971155077219 2.06061100959777832 0 0 4
0.20145300030708313 0.00532499980181455612 2.05338096618652344 0 0 4
0.201308995485305786 0.00684599997475743294 2.05191302299499512 0 0 3
0.203753992915153503 0.00847200024873018265 2.07683396339416504 0 0 2
0.204637005925178528 0.0100579997524619102 2.08583688735961914 0 0 2
0.209729000926017761 0.0134829999879002571 2.13773393630981445 1 1 3
0.207742005586624146 0.0149290002882480621 2.11748003959655762 1 1 2
0.204870998859405518 0.0162729993462562561 2.08821892738342285 1 0 2
0.202667996287345886 0.0176330003887414932 2.0657649040222168 1 0 2
0.202703997492790222 0.0191709995269775391 2.0661320686340332 1 0 2
0.202690005302429199 0.020703999325633049 2.06598591804504395 1 0 1
0.203848004341125488 0.0223650000989437103 2.07779097557067871 1 0 0
0.204395994544029236 0.0239729993045330048 2.0833740234375 1 1 0
0.204042002558708191 0.0254759993404150009 2.07977199554443359 1 0 0
0.202326998114585876 0.0267939995974302292 2.06228208541870117 2 0 1
0.202283993363380432 0.0283199995756149292 2.06184506416320801 1 0 3
0.201492995023727417 0.029734000563621521 2.05378508567810059 0 0 5
0.202313005924224854 0.0313870012760162354 2.06214690208435059 0 3 12
0.200516000390052795 0.0326259993016719818 2.04382896423339844 3 11 24
0.200380995869636536 0.034120999276638031 2.04245209693908691 7 21 38
0.199753999710083008 0.0355269983410835266 2.0360560417175293 13 34 55
0.19961799681186676 0.0370140001177787781 2.03467798233032227 10 36 59
0.198979005217552185 0.0384019985795021057 2.02816009521484375 6 36 59
0.198593005537986755 0.0398310013115406036 2.02422595024108887 2 34 56
0.197952002286911011 0.0412009991705417633 2.01769089698791504 0 30 51
0.197711005806922913 0.0426479987800121307 2.01523995399475098 0 28 49
0.196388006210327148 0.0438489988446235657 2.00175189971923828 3 29 48
0.196960002183914185 0.0454679988324642181 2.00758099555969238 5 29 43
0.197231993079185486 0.0470240004360675812 2.01035094261169434 4 27 34
0.197126001119613647 0.0484910011291503906 2.00927090644836426 5 27 36
0.197613000869750977 0.0501069985330104828 2.01423501968383789 5 27 40
0.196602001786231995 0.0513399988412857056 2.00393509864807129 6 27 45
0.251832008361816406 -0.343463987112045288 2.54760098457336426 44 57 74
0.209535002708435059 -0.276329010725021362 2.1197059154510498 25 43 56
0.217787995934486389 -0.279031991958618164 2.20319890975952148 10 29 38
0.223176002502441406 -0.277550011873245239 2.25770401954650879 1 12 23
0.219898998737335205 -0.271822988986968994 2.22455811500549316 0 12 22
0.218866005539894104 -0.26890099048614502 2.21410703659057617 0 12 21
0.218022003769874573 -0.26622501015663147 2.20556402206420898 0 12 19
0.216348007321357727 -0.262555986642837524 2.18863511085510254 0 10 16
0.217104002833366394 -0.261842012405395508 2.19628190994262695 1 10 17
0.215361997485160828 -0.258123010396957397 2.17865896224975586 0 9 16
0.217653006315231323 -0.259232997894287109 2.20182991027832031 0 8 15
0.21768699586391449 -0.257636994123458862 2.20217204093933105 0 7 15
0.216343000531196594 -0.254420995712280273 2.18857598304748535 0 7 14
0.215933993458747864 -0.252317994832992554 2.18443894386291504 2 6 13
0.216510996222496033 -0.251365989446640015 2.19028401374816895 1 5 12
0.21674799919128418 -0.250012010335922241 2.19267892837524414 0 2 9
0.217002004384994507 -0.248674005270004272 2.19524598121643066 0 2 9
0.216343000531196594 -0.246292993426322937 2.18857598304748535 0 2 9
0.216668993234634399 -0.245037004351615906 2.1918799877166748 0 2 9
0.216408997774124146 -0.243116006255149841 2.18924307823181152 0 2 9
0.213541999459266663 -0.236687004566192627 2.16024589538574219 0 2 9
0.216314002871513367 -0.236508995294570923 2.18829107284545898 0 4 10
0.21841999888420105 -0.235529005527496338 2.20959591865539551 0 3 10
0.218339994549751282 -0.233802005648612976 2.20878410339355469 0 4 10
0.21618199348449707 -0.229865998029708862 2.1869499683380127 0 5 11
0.217629998922348022 -0.229771003127098083 2.20160198211669922 1 6 12
0.224761992692947388 -0.233923003077507019 2.27375006675720215 0 6 10
0.223488003015518188 -0.230917006731033325 2.26085591316223145 0 7 10
0.223134994506835938 -0.228875994682312012 2.25728797912597656 0 7 11
0.22271999716758728 -0.226777002215385437 2.25309610366821289 0 8 11
0.220550999045372009 -0.22291100025177002 2.23114895820617676 0 8 11
0.219109997153282166 -0.219808995723724365 2.21657609939575195 0 8 11
0.21682700514793396 -0.215889006853103638 2.19347906112670898 0 8 11
0.216643005609512329 -0.214077994227409363 2.19161391258239746 0 8 10
0.217462003231048584 -0.213253006339073181 2.19989705085754395 0 7 10
0.218610003590583801 -0.212735995650291443 2.21151590347290039 0 4 8
0.217347994446754456 -0.209874004125595093 2.19874191284179688 0 2 8
0.215404003858566284 -0.204760998487472534 2.17908000946044922 0 2 7
0.21475200355052948 -0.2025270015001297 2.17248201370239258 0 3 6
0.213594004511833191 -0.198226004838943481 2.16077494621276855 1 3 6
0.214926004409790039 -0.197846993803977966 2.17424893379211426 1 2 6
0.215137004852294922 -0.196424007415771484 2.1763761043548584 1 2 6
0.215334996581077576 -0.194986999034881592 2.17838406562805176 0 1 5
0.215938001871109009 -0.193911001086235046 2.18448805809020996 0 1 3
0.215672999620437622 -0.1920509934425354 2.18179893493652344 0 1 3
0.215662002563476562 -0.190421000123023987 2.1816871166229248 1 2 4
0.215846002101898193 -0.188961997628211975 2.18355488777160645 0 1 3
0.216030001640319824 -0.1875 2.18541097640991211 0 1 3
0.215386003255844116 -0.180466994643211365 2.17889809608459473 0 2 4
0.214239999651908875 -0.177897006273269653 2.16730189323425293 0 1 3
0.214043006300926208 -0.176125004887580872 2.1653130054473877 0 0 2
0.215125992894172668 -0.175400003790855408 2.17627191543579102 0 0 2
0.215956002473831177 -0.174454003572463989 2.18466806411743164 0 0 2
0.218666002154350281 -0.173356994986534119 2.21208095550537109 0 0 2
0.217794999480247498 -0.171029999852180481 2.20326590538024902 2 2 4
0.217574998736381531 -0.169222995638847351 2.20104694366455078 2 2 4
0.217791005969047546 -0.167753994464874268 2.20322704315185547 1 1 3
0.217625007033348083 -0.16599099338054657 2.20154905319213867 0 0 2
0.217204004526138306 -0.164037004113197327 2.19728493690490723 0 0 2
0.217195004224777222 -0.162398993968963623 2.19720005989074707 1 0 2
0.215911000967025757 -0.159815996885299683 2.18420910835266113 1 0 2
0.216510996222496033 -0.158634006977081299 2.19028401374816895 1 0 4
0.217271000146865845 -0.15755799412727356 2.1979680061340332 1 0 6
0.217479005455970764 -0.156075000762939453 2.20007610321044922 1 0 6
0.215101003646850586 -0.151135995984077454 2.17601895332336426 2 0 8
0.215536996722221375 -0.149821996688842773 2.18042588233947754 1 0 7
0.218070998787879944 -0.148305997252464294 2.20605897903442383 0 0 6
0.218114003539085388 -0.146696999669075012 2.20649290084838867 0 1 6
0.217537999153137207 -0.143040001392364502 2.20066595077514648 1 5 8
0.215726003050804138 -0.140228003263473511 2.18233609199523926 0 5 9
0.215921998023986816 -0.138732001185417175 2.18431806564331055 0 4 9
0.212259992957115173 -0.131595000624656677 2.14727401733398438 0 4 16
0.216941997408866882 -0.131237998604774475 2.19464302062988281 2 11 22
0.213249996304512024 -0.127400994300842285 2.1572868824005127 1 13 23
0.214453995227813721 -0.126509994268417358 2.16947197914123535 0 12 21
0.211726993322372437 -0.123309999704360962 2.14188694953918457 0 14 22
0.212791994214057922 -0.122331000864505768 2.15265393257141113 3 21 28
0.216027006506919861 -0.122567996382713318 2.18538594245910645 9 26 34
0.215785995125770569 -0.120810002088546753 2.18294501304626465 10 27 35
0.216790005564689636 -0.116484999656677246 2.19310188293457031 7 21 28
0.215726003050804138 -0.112671002745628357 2.18233609199523926 3 13 16
0.215167999267578125 -0.110762998461723328 2.17669391632080078 0 7 10
0.214413002133369446 -0.10876300185918808 2.16905498504638672 0 3 5
0.214946001768112183 -0.1074180006980896 2.17444610595703125 0 2 2
0.213164001703262329 -0.10492599755525589 2.15641689300537109 0 1 3
0.213786005973815918 -0.10362599790096283 2.16271805763244629 0 0 5
0.215277001261711121 -0.102730996906757355 2.17779207229614258 1 0 6
0.215893998742103577 -0.101402997970581055 2.18403410911560059 3 0 7
0.209384992718696594 -0.0936259999871253967 2.11818790435791016 2 10 18
0.2132750004529953 -0.0873529985547065735 2.15754508972167969 6 20 20
0.212766006588935852 -0.0855460017919540405 2.15239691734313965 0 6 7
0.212791994214057922 -0.0839570015668869019 2.15265393257141113 0 3 3
0.212367996573448181 -0.0821940004825592041 2.14837002754211426 0 3 3
0.210126996040344238 -0.0797479972243309021 2.12569308280944824 1 4 3
0.212639003992080688 -0.0791030004620552063 2.15111398696899414 0 4 4
0.210435003042221069 -0.0656339973211288452 2.12881588935852051 0 0 4
0.212385997176170349 -0.063050001859664917 2.14855289459228516 0 0 2
0.208903998136520386 -0.0604469999670982361 2.11332201957702637 0 0 2
0.208311006426811218 -0.0587100014090538025 2.10732197761535645 0 0 2
0.208072006702423096 -0.0570789985358715057 2.1049048900604248 0 1 2
0.209060996770858765 -0.0557800009846687317 2.1149139404296875 0 1 2
0.212969005107879639 -0.0488209985196590424 2.1544499397277832 0 0 7
0.212071001529693604 -0.0454280003905296326 2.14535999298095703 0 0 7
0.210275992751121521 -0.0434640012681484222 2.12720298767089844 0 0 6
0.208171993494033813 -0.0414649993181228638 2.10592198371887207 0 0 7
0.206653997302055359 -0.0380569994449615479 2.09056806564331055 0 0 7
0.206286996603012085 -0.0364390015602111816 2.08685302734375 0 0 8
0.206008002161979675 -0.0348419994115829468 2.08403110504150391 0 0 8
0.206936001777648926 -0.0334439985454082489 2.09341788291931152 0 0 7
0.206738993525505066 -0.0318589992821216583 2.09142494201660156 0 1 6
0.206596001982688904 -0.0302840005606412888 2.08997893333435059 0 1 5
0.206711992621421814 -0.0287480000406503677 2.09114694595336914 0 1 5
0.206468001008033752 -0.0256110001355409622 2.08868288993835449 0 1 4
0.206529006361961365 -0.0225150007754564285 2.08929610252380371 0 1 5
0.205741003155708313 -0.020882999524474144 2.08132600784301758 0 1 5
0.202845007181167603 -0.0144920004531741142 2.0520329475402832 0 1 5
0.202156007289886475 -0.0129239996895194054 2.04505610466003418 0 1 5
0.20179399847984314 -0.0113850003108382225 2.04139804840087891 0 1 5
0.202585995197296143 -0.00990699976682662964 2.04941105842590332 0 1 5
0.203191995620727539 -0.00841000024229288101 2.05554008483886719 0 0 5
0.203599005937576294 -0.00689700013026595116 2.05966091156005859 0 0 6
0.204028993844985962 -0.0053790002129971981 2.06400489807128906 0 0 6
0.204043999314308167 -0.00384599994868040085 2.06416201591491699 0 0 7
0.201984003186225891 0.00378199992701411247 2.0433189868927002 0 0 3
0.201434001326560974 0.00528499996289610863 2.03775811195373535 0 0 4
0.201315000653266907 0.00679499981924891472 2.03655695915222168 0 0 3
0.204028993844985962 0.00995200034230947495 2.06400489807128906 0 0 2
0.211080998182296753 0.011881999671459198 2.13534688949584961 0 1 2
0.208307996392250061 0.0132910003885626793 2.10729503631591797 0 1 2
0.206765994429588318 0.0147470002993941307 2.09169197082519531 0 1 2
0.20408099889755249 0.0191559996455907822 2.06453704833984375 2 0 1
0.20466400682926178 0.0207480005919933319 2.07042694091796875 2 0 1
0.204629004001617432 0.0222820006310939789 2.07007789611816406 1 0 0
0.20472399890422821 0.0238310005515813828 2.07103490829467773 0 0 0
0.204526007175445557 0.0253449995070695877 2.06904006004333496 1 1 1
0.203504994511604309 0.0267469994723796844 2.05870604515075684 1 1 4
0.203783005475997925 0.0283150002360343933 2.06152200698852539 0 1 6
0.203918993473052979 0.0298660006374120712 2.0628969669342041 0 1 9
0.203461006283760071 0.0313280001282691956 2.05826306343078613 1 8 19
0.203088000416755676 0.0327970013022422791 2.05448698997497559 9 21 35
0.201204001903533936 0.0340039990842342377 2.03542900085449219 15 32 49
0.201441004872322083 0.0355580002069473267 2.03782510757446289 15 38 58
0.20143599808216095 0.0370710007846355438 2.0377800464630127 9 37 58
0.200504004955291748 0.0384059995412826538 2.02834391593933105 3 33 55
0.199609994888305664 0.0397339984774589539 2.01930809020996094 0 30 52
0.198897004127502441 0.0410870015621185303 2.01209497451782227 0 28 50
0.198680996894836426 0.0425349995493888855 2.00990796089172363 1 28 49
0.198871001601219177 0.0440700016915798187 2.01182889938354492 4 29 47
0.199553996324539185 0.0457209981977939606 2.01874303817749023 6 29 42
0.199568003416061401 0.047224000096321106 2.01888394355773926 4 27 34
0.200164005160331726 0.0488689988851547241 2.02490806579589844 4 27 35
0.199416995048522949 0.0501849986612796783 2.01735401153564453 5 27 39
0.252640008926391602 -0.34764900803565979 2.53671097755432129 29 38 48
0.253315001726150513 -0.346688002347946167 2.54348611831665039 38 49 59
0.252927005290985107 -0.344271004199981689 2.53959393501281738 49 61 75
0.253589987754821777 -0.343282014131546021 2.54624390602111816 40 52 68
0.217293992638587952 -0.27794298529624939 2.1818079948425293 21 41 49
0.217346996068954468 -0.276389002799987793 2.18233609199523926 9 27 35
0.216268002986907959 -0.270177990198135376 2.17150211334228516 6 16 28
0.223188996315002441 -0.275496006011962891 2.24099898338317871 3 13 24
0.222338005900382996 -0.272787004709243774 2.23244905471801758 1 13 23
0.217741996049880981 -0.262275993824005127 2.18630290031433105 0 10 17
0.218137994408607483 -0.261126995086669922 2.19028401374816895 0 10 17
0.219216004014015198 -0.259146988391876221 2.20110511779785156 0 8 15
0.219283998012542725 -0.257591992616653442 2.20178794860839844 0 7 15
0.217012003064155579 -0.253304988145828247 2.17897605895996094 0 7 14
0.217407003045082092 -0.252144992351531982 2.18294501304626465 1 6 12
0.21919800341129303 -0.250952005386352539 2.2009270191192627 0 2 9
0.219294995069503784 -0.249428004026412964 2.20189690589904785 0 2 9
0.218204006552696228 -0.246560007333755493 2.1909480094909668 0 2 9
0.217610001564025879 -0.244265004992485046 2.18497896194458008 0 2 9
0.216652005910873413 -0.241574004292488098 2.17536091804504395 0 2 9
0.215314999222755432 -0.238478004932403564 2.16194009780883789 0 2 9
0.218881994485855103 -0.239163994789123535 2.19775390625 0 2 9
0.217618003487586975 -0.236159995198249817 2.18506097793579102 0 4 10
0.218896999955177307 -0.23591400682926178 2.19789695739746094 0 3 10
0.220026999711990356 -0.235492005944252014 2.20924806594848633 0 3 10
0.217465996742248535 -0.231129005551338196 2.1835319995880127 0 4 10
0.217362001538276672 -0.229396998882293701 2.18248796463012695 0 5 11
0.217821002006530762 -0.22825700044631958 2.18709802627563477 1 6 12
0.219773992896080017 -0.228663995862007141 2.20670509338378906 0 7 11
0.224485993385314941 -0.231893002986907959 2.25401997566223145 0 7 10
0.224159002304077148 -0.229883000254631042 2.2507328987121582 0 7 10
0.223058000206947327 -0.227090999484062195 2.23968291282653809 0 8 11
0.222262993454933167 -0.224623993039131165 2.23169898986816406 0 9 11
0.222437992691993713 -0.223140999674797058 2.23345494270324707 0 9 11
0.219739004969596863 -0.21879500150680542 2.20635294914245605 0 9 11
0.218137994408607483 -0.215574994683265686 2.19028401374816895 0 9 11
0.218261003494262695 -0.214067995548248291 2.19151091575622559 0 9 11
0.218640998005867004 -0.21280999481678009 2.19533300399780273 0 8 10
0.218996003270149231 -0.211521998047828674 2.19889593124389648 0 4 8
0.218935996294021606 -0.209830999374389648 2.19828891754150391 0 3 8
0.218877002596855164 -0.208141997456550598 2.19769906997680664 0 3 8
0.219001993536949158 -0.206627994775772095 2.1989591121673584 0 3 8
0.214463993906974792 -0.197548002004623413 2.15338993072509766 1 3 7
0.214493006467819214 -0.195975005626678467 2.15368199348449707 2 3 7
0.215048998594284058 -0.194879993796348572 2.15926694869995117 1 2 6
