ply
format ascii 1.0
element vertex 1373
property float x
property float y
property float z
property uchar red
property uchar green
property uchar blue
end_header
0.226207 0.108820 1.890595 1 1 11
0.226244 0.110242 1.890904 1 1 11
0.228561 0.119885 1.910275 1 0 14
0.227514 0.120748 1.901518 0 0 13
0.227298 0.122044 1.899716 0 1 11
0.226341 0.122936 1.891718 0 1 9
0.225782 0.124034 1.887050 0 2 9
0.225615 0.125342 1.885649 0 2 7
0.224620 0.126184 1.877336 0 2 7
0.225954 0.128336 1.888479 0 1 8
0.225892 0.129703 1.887967 1 1 9
0.225839 0.131075 1.887521 1 1 9
0.225761 0.132431 1.886873 1 1 9
0.226043 0.134000 1.889230 1 1 10
0.226122 0.135450 1.889890 1 1 11
0.225805 0.136662 1.887235 1 1 11
0.225325 0.137770 1.883223 1 1 11
0.224728 0.138800 1.878236 1 1 11
0.225294 0.141948 1.882971 1 1 9
0.225379 0.143400 1.883682 1 1 9
0.225376 0.144797 1.883651 0 2 9
0.225526 0.146294 1.884904 0 3 10
0.225383 0.147600 1.883713 0 3 10
0.224404 0.148352 1.875526 0 4 10
0.224287 0.149667 1.874552 0 4 10
0.224168 0.150979 1.873553 0 5 11
0.225618 0.153357 1.885676 0 5 11
0.225373 0.154589 1.883630 1 5 12
0.225476 0.156060 1.884490 0 5 14
0.225458 0.157447 1.884340 0 6 16
0.221872 0.157697 1.854369 0 7 17
0.222534 0.159549 1.859898 0 8 18
0.224284 0.162196 1.874525 0 9 18
0.222506 0.162292 1.859666 0 9 18
0.222760 0.163859 1.861785 1 10 19
0.223486 0.165781 1.867857 1 10 19
0.222682 0.166567 1.861138 1 10 19
0.223427 0.169898 1.867360 0 10 19
0.220951 0.169388 1.846673 0 10 19
0.220257 0.170223 1.840872 0 10 19
0.220150 0.171507 1.839978 0 10 19
0.220059 0.172801 1.839211 0 10 19
0.221375 0.177958 1.850213 0 10 17
0.221329 0.179295 1.849826 0 10 17
0.222038 0.184005 1.855754 0 9 17
0.224010 0.188420 1.872235 0 9 16
0.223862 0.189685 1.870999 0 9 17
0.223857 0.191071 1.870956 0 9 17
0.223891 0.192489 1.871238 0 9 17
0.223963 0.193942 1.871843 0 9 16
0.224774 0.196039 1.878618 0 9 16
0.223665 0.196461 1.869349 0 8 16
0.224742 0.198802 1.878357 0 8 16
0.225237 0.200638 1.882493 0 8 16
0.224395 0.201281 1.875451 0 6 12
0.224229 0.202524 1.874065 0 5 11
0.224137 0.203832 1.873296 0 5 11
0.220338 0.203114 1.841548 0 5 11
0.222363 0.210502 1.858470 1 3 10
0.222919 0.212412 1.863115 0 2 9
0.222882 0.213760 1.862808 0 2 9
0.281823 -0.360803 2.340890 168 171 176
0.282995 -0.360558 2.350626 156 159 167
0.272370 -0.340300 2.262375 133 140 151
0.272723 -0.339058 2.265304 114 122 133
0.271644 -0.336041 2.256348 75 83 94
0.265826 -0.317363 2.208021 49 58 67
0.267249 -0.317413 2.219841 37 46 55
0.268980 -0.317810 2.234221 21 30 39
0.266911 -0.308778 2.217028 8 17 23
0.266862 -0.307075 2.216625 5 14 19
0.267328 -0.305962 2.220493 3 12 17
0.267978 -0.305052 2.225893 2 11 16
0.269070 -0.304635 2.234962 2 9 15
0.267967 -0.301733 2.225800 2 9 15
0.267872 -0.299973 2.225010 2 9 16
0.268773 -0.299324 2.232498 2 9 17
0.269581 -0.298561 2.239211 1 9 15
0.274175 -0.300266 2.277366 0 8 13
0.271447 -0.295604 2.254709 0 7 13
0.269215 -0.291511 2.236166 0 7 13
0.268278 -0.288843 2.228390 0 6 12
0.268811 -0.287758 2.232817 1 6 12
0.268664 -0.285943 2.231595 0 5 11
0.269139 -0.284788 2.235539 0 4 10
0.269065 -0.283049 2.234921 0 2 7
0.271125 -0.283544 2.252035 0 2 7
0.271095 -0.281840 2.251787 0 2 7
0.271667 -0.280759 2.256539 0 2 7
0.271343 -0.278750 2.253847 1 2 7
0.270045 -0.275750 2.243066 1 2 7
0.272251 -0.274643 2.261389 1 2 7
0.271717 -0.272428 2.256951 1 2 7
0.270462 -0.269501 2.246530 1 2 7
0.270206 -0.265911 2.244398 0 4 8
0.272084 -0.266081 2.260000 0 7 10
0.273047 -0.265338 2.267998 0 7 10
0.275312 -0.265841 2.286813 0 8 13
0.273702 -0.262597 2.273436 1 8 14
0.274041 -0.261233 2.276258 0 3 9
0.272894 -0.258456 2.266731 0 3 9
0.270994 -0.254984 2.250944 0 2 10
0.270028 -0.252409 2.242923 0 1 11
0.271400 -0.252017 2.254319 0 1 11
0.267906 -0.247119 2.225293 1 1 11
0.268313 -0.245840 2.228680 0 1 11
0.266114 -0.233973 2.210408 0 0 7
0.266122 -0.232339 2.210474 0 0 8
0.267506 -0.231897 2.221977 0 0 6
0.271095 -0.233336 2.251787 0 1 6
0.272743 -0.233071 2.265470 0 0 4
0.271416 -0.228588 2.254452 0 1 3
0.268735 -0.224672 2.232179 0 1 3
0.268352 -0.222696 2.228997 0 0 3
0.267927 -0.220691 2.225474 0 0 4
0.266206 -0.217631 2.211177 0 0 4
0.266440 -0.214534 2.213119 0 1 4
0.268029 -0.212507 2.226318 1 2 5
0.254707 -0.195658 2.115658 0 1 5
0.254837 -0.194186 2.116743 0 1 6
0.256645 -0.193980 2.131760 1 3 8
0.257921 -0.193353 2.142357 0 3 10
0.259905 -0.193237 2.158836 0 2 10
0.263168 -0.189169 2.185941 5 16 22
0.265035 -0.188876 2.201450 13 25 33
0.263451 -0.186121 2.188291 17 33 40
0.262492 -0.183824 2.180322 20 40 46
0.263464 -0.182879 2.188396 17 40 46
0.262258 -0.180425 2.178384 16 39 45
0.262786 -0.179166 2.182767 15 35 42
0.262245 -0.177180 2.178277 13 33 40
0.262672 -0.175848 2.181825 12 32 39
0.262904 -0.174381 2.183751 12 31 38
0.263931 -0.173434 2.192280 12 31 38
0.263000 -0.171199 2.184543 12 31 38
0.261323 -0.168495 2.170618 12 30 37
0.263828 -0.168483 2.191424 12 29 36
0.262647 -0.166108 2.181616 11 29 35
0.263399 -0.164959 2.187859 11 29 33
0.262855 -0.162996 2.183339 10 28 32
0.263302 -0.161649 2.187055 10 28 30
0.264229 -0.160588 2.194754 9 27 30
0.264235 -0.158962 2.194808 8 25 29
0.264942 -0.157752 2.200680 8 23 28
0.265404 -0.156390 2.204515 7 18 24
0.265548 -0.154836 2.205706 3 10 18
0.263419 -0.151970 2.188029 0 4 10
0.263691 -0.150499 2.190284 0 1 8
0.264628 -0.149402 2.198072 0 1 8
0.264393 -0.144376 2.196120 10 19 26
0.264848 -0.142990 2.199897 18 30 38
0.264574 -0.141210 2.197620 18 35 45
0.265556 -0.140095 2.205776 18 35 47
0.266236 -0.138811 2.211424 20 38 52
0.264809 -0.136433 2.199568 21 40 55
0.264103 -0.132811 2.193707 16 39 53
0.264370 -0.131315 2.195929 14 39 53
0.262870 -0.128948 2.183468 14 38 52
0.262878 -0.127330 2.183532 14 36 50
0.262382 -0.125471 2.179414 14 34 49
0.262478 -0.122277 2.180206 16 30 45
0.263007 -0.120901 2.184601 16 29 43
0.264241 -0.114947 2.194851 3 23 25
0.264793 -0.113554 2.199438 1 17 17
0.262893 -0.111117 2.183657 0 10 10
0.262655 -0.109396 2.181676 0 4 5
0.262258 -0.107613 2.178384 1 1 3
0.262641 -0.106150 2.181564 0 0 0
0.262100 -0.104314 2.177070 0 0 0
0.261328 -0.102394 2.170657 0 0 0
0.262855 -0.101371 2.183344 0 0 0
0.264507 -0.100376 2.197067 0 0 0
0.271714 -0.093053 2.256925 1 0 4
0.270648 -0.091018 2.248074 0 0 4
0.259552 -0.084084 2.155908 0 1 6
0.262064 -0.081664 2.176771 0 0 8
0.263499 -0.080485 2.188689 1 1 9
0.263403 -0.069080 2.187893 0 0 8
0.264206 -0.067661 2.194565 0 1 9
0.265211 -0.066282 2.202909 0 2 9
0.264568 -0.064489 2.197572 0 2 9
0.253091 -0.057007 2.102242 0 5 11
0.249406 -0.054638 2.071632 0 6 12
0.248988 -0.053011 2.068162 0 8 14
0.246247 -0.050908 2.045393 0 13 22
0.244890 -0.049116 2.034121 0 16 29
0.244786 -0.047585 2.033255 0 17 32
0.246473 -0.046392 2.047271 3 21 37
0.248185 -0.045183 2.061485 11 30 47
0.248700 -0.043743 2.065765 19 40 60
0.249593 -0.042360 2.073187 21 42 65
0.249792 -0.040853 2.074835 14 37 61
0.253503 -0.039895 2.105659 13 37 61
0.253408 -0.038317 2.104869 12 35 60
0.251453 -0.036470 2.088636 9 30 52
0.247963 -0.034434 2.059646 5 24 43
0.247732 -0.032874 2.057723 2 19 35
0.246243 -0.031157 2.045354 0 14 25
0.244721 -0.029454 2.032713 0 11 18
0.246885 -0.028192 2.050688 0 6 10
0.250205 -0.027027 2.078269 0 3 4
0.254314 -0.024333 2.112394 0 1 2
0.249295 -0.022315 2.070705 0 3 6
0.247812 -0.020653 2.058392 0 3 8
0.245250 -0.018926 2.037111 0 3 9
0.244029 -0.017327 2.026964 0 4 11
0.244131 -0.015828 2.027818 0 4 14
0.243463 -0.014282 2.022268 1 7 18
0.244098 -0.012813 2.027539 2 9 20
0.242602 -0.011238 2.015116 2 10 22
0.234892 -0.006533 1.951072 2 10 23
0.236837 -0.005126 1.967227 1 10 22
0.243255 -0.002264 2.020536 0 11 25
0.242761 -0.000761 2.016438 0 10 27
0.243483 0.000739 2.022435 0 9 28
0.243194 0.006739 2.020034 0 9 28
0.243373 0.008246 2.021517 0 11 28
0.242107 0.009697 2.011003 0 12 28
0.242062 0.011188 2.010628 0 16 32
0.239935 0.012570 1.992961 1 22 36
0.238110 0.013944 1.977805 1 23 37
0.240084 0.018503 1.994200 1 18 34
0.236496 0.021145 1.964401 0 9 24
0.235861 0.022543 1.959122 0 7 20
0.234839 0.023894 1.950634 0 8 20
0.235882 0.025456 1.959293 0 9 22
0.234242 0.026724 1.945671 2 10 24
0.233869 0.028124 1.942580 5 12 26
0.233306 0.029496 1.937903 7 14 28
0.233141 0.030914 1.936532 7 17 30
0.232868 0.032314 1.934259 9 20 33
0.232293 0.033667 1.929487 11 23 37
0.232230 0.035091 1.928962 9 23 36
0.232017 0.036490 1.927191 7 21 35
0.231945 0.037910 1.926593 5 20 34
0.231886 0.039331 1.926105 3 18 32
0.232117 0.040802 1.928027 2 17 31
0.231999 0.042213 1.927041 2 16 32
0.231891 0.043624 1.926150 1 12 28
0.232479 0.045169 1.931030 0 8 23
0.232178 0.046543 1.928533 0 7 22
0.232298 0.048000 1.929527 0 7 20
0.232034 0.049377 1.927333 0 6 20
0.231973 0.050795 1.926827 0 5 19
0.231873 0.052204 1.925997 0 4 17
0.232185 0.053707 1.928590 0 4 16
0.231915 0.055075 1.926349 0 2 15
0.232007 0.056528 1.927107 0 0 14
0.232088 0.057980 1.927785 1 0 13
0.231867 0.059355 1.925950 1 0 13
0.231480 0.060684 1.922730 1 0 13
0.230489 0.061847 1.914498 1 1 13
0.229667 0.063043 1.907670 0 1 12
0.229925 0.064532 1.909817 0 2 11
0.229476 0.065822 1.906091 0 1 10
0.229938 0.068792 1.909925 1 2 7
0.230897 0.070503 1.917889 1 2 7
0.229772 0.071578 1.908548 1 2 7
0.234259 0.077311 1.945811 1 2 7
0.229465 0.085639 1.905998 0 2 9
0.238341 0.099245 1.979720 0 2 9
0.237990 0.100567 1.976805 0 2 9
0.237871 0.101984 1.975814 0 2 11
0.236059 0.102664 1.960764 0 1 11
0.235002 0.103654 1.951990 1 1 11
0.233880 0.104602 1.942669 1 1 11
0.227218 0.104427 1.887334 1 1 11
0.227375 0.105901 1.888637 1 1 13
0.229368 0.119565 1.905187 1 0 14
0.229179 0.120881 1.903616 0 0 13
0.228124 0.121732 1.894853 0 1 12
0.227537 0.122823 1.889983 0 1 10
0.227529 0.124222 1.889917 0 2 9
0.227577 0.125652 1.890312 0 2 7
0.227186 0.126838 1.887068 0 2 7
0.226866 0.128059 1.884410 0 1 8
0.226924 0.129492 1.884888 1 1 9
0.226949 0.130907 1.885101 1 1 9
0.226082 0.131801 1.877892 1 1 9
0.227125 0.133811 1.886561 1 1 10
0.227412 0.135382 1.888941 1 1 11
0.227514 0.136847 1.889787 1 1 12
0.227464 0.138220 1.889377 1 1 12
0.226785 0.139207 1.883731 1 1 11
0.225758 0.139969 1.875207 1 1 11
0.226067 0.141556 1.877771 0 1 10
0.226087 0.142963 1.877937 0 1 9
0.226208 0.144435 1.878944 0 2 10
0.226657 0.146120 1.882669 0 3 10
0.227241 0.147899 1.887521 0 3 10
0.226477 0.148799 1.881177 0 4 10
0.225395 0.149478 1.872187 0 4 10
0.227387 0.152202 1.888733 0 5 11
0.226736 0.153165 1.883327 0 6 12
0.226670 0.154519 1.882778 0 6 12
0.226562 0.155844 1.881883 0 6 13
0.227009 0.157552 1.885595 0 6 15
0.226765 0.158781 1.883567 0 7 17
0.226908 0.160282 1.884758 0 7 17
0.226624 0.161479 1.882396 0 8 17
0.226086 0.162490 1.877926 0 9 18
0.225116 0.163182 1.869874 0 9 18
0.224960 0.164457 1.868577 1 10 19
0.224827 0.165747 1.867470 0 9 18
0.225063 0.167309 1.869430 0 9 18
0.224560 0.168321 1.865250 0 9 18
0.225026 0.170059 1.869123 0 9 18
0.224873 0.171331 1.867857 0 9 18
0.225116 0.172905 1.869874 0 9 18
0.225006 0.175596 1.868956 0 9 18
0.224816 0.176835 1.867377 0 9 17
0.225249 0.178565 1.870973 0 10 16
0.224731 0.179541 1.866675 0 10 16
0.223935 0.180287 1.860058 0 10 16
0.223135 0.182396 1.853414 0 10 16
0.225483 0.187098 1.872921 0 9 17
0.224754 0.187879 1.866863 0 9 18
0.223959 0.188597 1.860264 0 10 19
0.225666 0.191426 1.874439 1 11 20
0.224186 0.191554 1.862148 1 11 20
0.225690 0.194232 1.874637 0 10 19
0.226338 0.196186 1.880026 0 9 18
0.225504 0.198245 1.873092 0 8 17
0.225641 0.199758 1.874234 0 8 16
0.225805 0.201296 1.875596 0 5 11
0.224914 0.201890 1.868196 0 3 10
0.225278 0.203607 1.871219 0 4 10
0.223777 0.203630 1.858746 0 4 10
0.223187 0.204470 1.853847 0 4 10
0.223019 0.205693 1.852456 0 4 10
0.222558 0.209387 1.848624 0 2 9
0.223033 0.211209 1.852569 0 2 9
0.223416 0.212951 1.855754 0 2 9
0.221367 0.212364 1.838733 0 2 9
0.281937 -0.357007 2.327478 164 166 174
0.279955 -0.352782 2.311120 156 159 168
0.275920 -0.346005 2.277812 149 155 164
0.273106 -0.340801 2.254577 149 155 166
0.275385 -0.341957 2.273393 150 157 167
0.273778 -0.338283 2.260128 134 141 151
0.273023 -0.335676 2.253896 100 107 117
0.274502 -0.327395 2.266104 56 63 71
0.267438 -0.315690 2.207791 49 56 64
0.269081 -0.315979 2.221348 28 35 45
0.270271 -0.315719 2.231173 12 20 29
0.275959 -0.320671 2.278127 10 18 27
0.278716 -0.322166 2.300890 14 23 32
0.267387 -0.307432 2.207366 13 22 30
0.268819 -0.307430 2.219191 11 20 25
0.268428 -0.305337 2.215961 8 17 22
0.269453 -0.304851 2.224422 5 14 19
0.269595 -0.303359 2.225598 3 12 19
0.270205 -0.302388 2.230634 2 11 18
0.269323 -0.299749 2.223346 2 11 18
0.270382 -0.299270 2.232088 2 11 18
0.270460 -0.297698 2.232734 0 9 15
0.277623 -0.302178 2.291871 0 8 13
0.275774 -0.298474 2.276606 0 7 13
0.270470 -0.291075 2.232817 0 6 12
0.271244 -0.290245 2.239211 0 6 12
0.270122 -0.287388 2.229944 0 5 11
0.271451 -0.287138 2.240918 0 4 10
0.271428 -0.285449 2.240728 0 4 9
0.270559 -0.282876 2.233557 0 2 7
0.272239 -0.282962 2.247418 0 2 7
0.272586 -0.281652 2.250287 0 2 7
0.272907 -0.280311 2.252937 0 2 7
0.273710 -0.279457 2.259564 1 2 7
0.276867 -0.279285 2.285627 1 2 7
0.273875 -0.274587 2.260929 1 2 7
0.275033 -0.274062 2.270488 1 3 8
0.270702 -0.266426 2.234731 0 3 8
0.278429 -0.267203 2.298525 0 8 13
0.276528 -0.263682 2.282825 1 8 14
0.274150 -0.259733 2.263193 0 3 9
0.275064 -0.258913 2.270743 0 3 9
0.274673 -0.253493 2.267518 0 1 12
0.268956 -0.246567 2.220317 1 1 12
0.270850 -0.246642 2.235954 0 1 12
0.273567 -0.247439 2.258382 0 1 11
0.267731 -0.233952 2.210205 0 0 7
0.268772 -0.233214 2.218802 0 0 8
0.267169 -0.230184 2.205564 0 0 6
0.271023 -0.231843 2.237383 0 1 6
0.272870 -0.231750 2.252630 0 1 5
0.273343 -0.230476 2.256539 0 1 5
0.273197 -0.228678 2.255333 0 1 3
0.271895 -0.225921 2.244584 0 0 3
0.269311 -0.222122 2.223248 0 0 3
0.267764 -0.219204 2.210482 0 0 4
0.268767 -0.218377 2.218756 0 0 4
0.266861 -0.213556 2.203026 0 1 4
0.268871 -0.213516 2.219618 0 1 4
0.270024 -0.212775 2.229134 0 1 4
0.255471 -0.195042 2.108999 0 0 5
0.256220 -0.192472 2.115180 0 2 8
0.257442 -0.191811 2.125270 0 3 9
0.263137 -0.192827 2.172280 1 6 15
0.265021 -0.189332 2.187832 15 25 34
0.264372 -0.187248 2.182480 22 33 42
0.264373 -0.185628 2.182488 23 40 47
0.264343 -0.183986 2.182241 18 41 47
0.265481 -0.183150 2.191632 16 41 46
0.263910 -0.180447 2.178659 14 39 44
0.264235 -0.179050 2.181347 13 36 42
0.264133 -0.177361 2.180506 12 34 42
0.264572 -0.176033 2.184125 14 34 42
0.265186 -0.174816 2.189196 15 34 41
0.265618 -0.173472 2.192762 16 35 42
0.264927 -0.171396 2.187062 13 30 38
0.265036 -0.169842 2.187960 12 30 37
0.264595 -0.167936 2.184318 12 29 36
0.264798 -0.166442 2.185997 12 28 35
0.264447 -0.164600 2.183099 12 28 33
0.266350 -0.164151 2.198807 12 27 32
0.264923 -0.161647 2.187025 11 27 30
0.266268 -0.160835 2.198125 11 27 30
0.265647 -0.158831 2.193006 10 25 30
0.266120 -0.157482 2.196905 9 22 28
0.268512 -0.157251 2.216654 6 17 23
0.266813 -0.154620 2.202624 2 8 16
0.266670 -0.152902 2.201450 0 3 9
0.265594 -0.142513 2.192565 20 33 42
0.269386 -0.142896 2.223870 21 35 46
0.269393 -0.141248 2.223925 18 35 47
0.267581 -0.138657 2.208967 20 38 52
0.270278 -0.136741 2.231236 19 41 55
0.266633 -0.131626 2.201144 14 40 53
0.264892 -0.124270 2.186770 16 32 48
0.264081 -0.120651 2.180076 16 30 44
0.266662 -0.116925 2.201384 6 27 32
0.266399 -0.115176 2.199208 4 24 26
0.264680 -0.112809 2.185018 0 18 18
0.265013 -0.108076 2.187768 0 1 3
0.263399 -0.105803 2.174446 0 0 0
0.263917 -0.104393 2.178722 0 0 0
0.263541 -0.102628 2.175618 0 0 0
0.264248 -0.101283 2.181457 0 0 0
0.270098 -0.098557 2.229748 0 0 0
0.268977 -0.096499 2.220493 0 0 0
0.268248 -0.094592 2.214477 0 0 1
0.270554 -0.093746 2.233509 0 0 2
0.271965 -0.092568 2.245162 1 0 4
0.269240 -0.089989 2.222661 0 0 4
0.262064 -0.084377 2.163424 0 1 6
0.264137 -0.083425 2.180538 0 0 7
0.264056 -0.081780 2.179864 0 0 8
0.263941 -0.080126 2.178922 1 1 9
0.263939 -0.078507 2.178898 0 0 8
0.264007 -0.076908 2.179460 0 0 8
0.264415 -0.067299 2.182831 0 1 8
0.265746 -0.066008 2.193820 0 2 9
0.265727 -0.064374 2.193659 0 3 9
0.252885 -0.056611 2.087647 1 10 15
0.249669 -0.054360 2.061101 2 11 16
0.249383 -0.052769 2.058738 2 13 19
0.249280 -0.051219 2.057884 0 16 25
0.246622 -0.049160 2.035943 1 19 32
0.246237 -0.047574 2.032768 3 21 36
0.246747 -0.046159 2.036975 5 24 41
0.248882 -0.045033 2.054604 9 30 48
0.248933 -0.043515 2.055026 17 38 58
0.249826 -0.042140 2.062398 18 40 63
0.251010 -0.040800 2.072167 12 35 59
0.254876 -0.038303 2.104080 9 32 57
0.252697 -0.036426 2.086096 6 28 52
0.248376 -0.034280 2.050426 4 23 44
0.247396 -0.032628 2.042339 3 20 36
0.246397 -0.030985 2.034088 2 16 27
0.247806 -0.028123 2.045722 0 7 11
0.252977 -0.025608 2.088406 0 1 0
0.254518 -0.024203 2.101131 0 1 0
0.245822 -0.018854 2.029339 0 1 5
0.245224 -0.017305 2.024405 0 2 8
0.244955 -0.015784 2.022186 0 2 10
0.242825 -0.014157 2.004603 0 5 15
0.242773 -0.012666 2.004168 0 6 17
0.242296 -0.011155 2.000229 0 7 19
0.243264 -0.003742 2.008225 0 10 21
0.243332 -0.002250 2.008781 0 10 24
0.242493 -0.000756 2.001858 0 9 26
0.243178 0.000733 2.007513 0 8 27
0.242063 0.002214 1.998312 0 8 27
0.243252 0.006700 2.008122 0 8 27
0.242513 0.009653 2.002023 0 11 28
0.241621 0.011100 1.994661 0 17 32
0.239065 0.012448 1.973562 2 23 37
0.239511 0.013940 1.977245 2 24 38
0.242345 0.017077 2.000638 2 20 35
0.242100 0.018544 1.998618 1 18 34
0.240710 0.019914 1.987140 0 14 30
0.239737 0.021303 1.979107 0 13 29
0.236478 0.022464 1.952201 0 13 28
0.236930 0.023959 1.955936 0 13 28
0.235946 0.025307 1.947809 1 14 29
0.235232 0.026672 1.941919 3 15 31
0.234565 0.028035 1.936414 6 17 32
0.234357 0.029447 1.934693 8 19 34
0.233376 0.030755 1.926597 9 20 35
0.233264 0.032170 1.925668 9 21 36
0.233503 0.033635 1.927640 9 22 37
0.233887 0.035125 1.930810 7 21 36
0.233870 0.036556 1.930676 5 19 35
0.233883 0.037992 1.930776 3 17 33
0.233899 0.039429 1.930911 2 15 31
0.233634 0.040817 1.928726 0 13 29
0.233406 0.042209 1.926843 0 12 28
0.232990 0.043562 1.923410 0 9 25
0.233449 0.045079 1.927197 0 6 22
0.233467 0.046514 1.927345 0 6 22
0.233522 0.047957 1.927799 0 6 22
0.233385 0.049360 1.926666 0 6 21
0.233278 0.050768 1.925785 0 6 19
0.233464 0.052240 1.927323 0 5 18
0.233524 0.053685 1.927820 0 5 17
0.233383 0.055084 1.926652 0 3 15
0.233421 0.056524 1.926965 0 0 13
0.233545 0.057986 1.927990 1 0 13
0.233099 0.059305 1.924311 1 0 13
0.232612 0.060607 1.920286 1 0 13
0.231878 0.061838 1.914227 1 1 13
0.230666 0.062929 1.904227 0 1 12
0.231300 0.064520 1.909459 0 1 12
0.234113 0.066741 1.932681 0 1 10
0.234761 0.068365 1.938025 1 1 8
0.235024 0.069882 1.940202 1 2 7
0.235808 0.073007 1.946670 1 2 7
0.235925 0.074490 1.947641 1 2 7
0.235587 0.075828 1.944848 1 2 7
0.235225 0.077154 1.941860 1 2 7
0.234929 0.078497 1.939412 0 2 7
0.234023 0.079630 1.931936 0 2 9
0.233738 0.080966 1.929580 0 2 9
0.232767 0.082057 1.921566 0 2 9
0.233097 0.086461 1.924292 0 2 9
0.233007 0.087857 1.923552 0 2 9
0.233065 0.089307 1.924025 0 2 9
0.234044 0.091118 1.932108 0 2 9
0.233888 0.092491 1.930819 0 2 9
0.233585 0.093803 1.928316 0 2 9
0.237751 0.098392 1.962710 0 2 9
0.237601 0.099787 1.961471 0 2 9
0.236998 0.100987 1.956493 0 2 11
0.235968 0.101995 1.947993 0 1 11
0.235056 0.103042 1.940467 1 1 11
0.233901 0.103970 1.930929 1 1 11
0.230045 0.119183 1.899095 1 0 14
0.229873 0.120503 1.897672 1 0 13
0.228604 0.121240 1.887198 1 1 11
0.228947 0.122826 1.890035 0 1 9
0.229556 0.124560 1.895060 0 2 9
0.229410 0.125888 1.893856 0 2 7
0.228656 0.126876 1.887630 0 2 7
0.227774 0.127783 1.880349 0 1 8
0.228166 0.129402 1.883584 1 1 9
0.228869 0.131204 1.889387 1 1 9
0.228833 0.132587 1.889087 1 1 10
0.228727 0.133928 1.888214 1 1 11
0.229162 0.135588 1.891807 1 1 12
0.229096 0.136953 1.891259 1 1 13
0.229104 0.138363 1.891330 1 1 13
0.228666 0.139501 1.887712 1 1 11
0.227370 0.140104 1.877010 1 1 11
0.227476 0.141565 1.877892 0 1 11
0.227394 0.142908 1.877208 0 2 11
0.228362 0.144916 1.885202 0 3 12
0.228999 0.146725 1.890460 0 3 12
0.229004 0.148132 1.890503 0 3 10
0.228666 0.149316 1.887715 0 4 10
0.228869 0.150852 1.889387 0 5 11
0.228563 0.152052 1.886865 0 5 11
0.228524 0.153427 1.886544 0 6 12
0.227418 0.154079 1.877408 0 6 13
0.227506 0.155533 1.878132 0 6 15
0.228311 0.157484 1.884781 0 6 16
0.228591 0.159079 1.887093 0 7 17
0.228431 0.160368 1.885769 0 7 17
0.228424 0.161763 1.885711 0 7 17
0.227526 0.162522 1.878297 0 8 18
0.226824 0.163412 1.872509 0 8 18
0.228214 0.165813 1.883978 1 8 18
0.227853 0.166948 1.881001 1 9 18
0.226819 0.167581 1.872467 0 9 18
0.226275 0.168567 1.867977 0 9 18
0.227326 0.170743 1.876646 0 9 18
0.226817 0.171752 1.872452 0 9 18
0.227378 0.173571 1.877078 0 8 17
0.227881 0.175352 1.881229 0 8 17
0.228155 0.176962 1.883491 0 9 18
0.227295 0.177689 1.876397 0 9 17
0.226907 0.178777 1.873195 0 9 16
0.226783 0.180070 1.872172 0 9 16
0.226490 0.181226 1.869752 0 9 16
0.223103 0.179884 1.841788 0 9 16
0.222514 0.180774 1.836928 0 10 16
0.226619 0.186887 1.870812 0 9 17
0.227140 0.188710 1.875113 0 9 18
0.227097 0.190067 1.874760 0 10 19
0.227249 0.191587 1.876013 1 11 20
0.227203 0.192942 1.875636 1 11 20
0.226683 0.195280 1.871344 0 9 18
0.226502 0.197902 1.869848 0 8 18
0.226164 0.198993 1.867054 0 8 18
0.226542 0.200715 1.870180 0 4 13
0.226573 0.202132 1.870433 0 3 10
0.226505 0.203460 1.869874 0 3 10
0.225983 0.204377 1.865566 0 4 10
0.225003 0.204870 1.857473 0 4 10
0.224559 0.205842 1.853804 0 4 10
0.221379 0.204286 1.827559 0 3 10
0.221193 0.205470 1.826017 0 3 10
0.223367 0.208859 1.843968 0 2 9
0.223759 0.210598 1.847204 0 2 9
0.224095 0.212288 1.849979 0 2 9
0.275990 -0.342302 2.264504 164 168 176
0.274996 -0.339393 2.256348 165 170 179
0.276416 -0.339461 2.267998 152 156 165
0.275644 -0.336833 2.261666 124 129 138
0.277079 -0.335209 2.273436 73 78 84
0.278416 -0.331736 2.284410 45 50 56
0.273324 -0.324003 2.242627 57 64 70
0.275679 -0.325115 2.261949 67 74 80
0.268813 -0.315380 2.205618 57 62 69
0.268639 -0.313538 2.204190 34 38 47
0.270946 -0.314579 2.223117 15 19 28
0.274625 -0.317177 2.253305 11 18 26
0.278150 -0.319553 2.282227 17 24 32
0.278084 -0.317783 2.281686 18 25 31
0.268976 -0.305734 2.206949 15 22 28
0.269612 -0.304815 2.212172 12 19 25
0.270218 -0.303853 2.217139 9 16 24
0.270855 -0.302918 2.222368 6 13 21
0.271489 -0.301973 2.227574 3 12 19
0.272669 -0.301624 2.237252 2 11 18
0.274197 -0.301643 2.249792 2 11 18
0.276295 -0.302267 2.267002 0 9 15
0.277150 -0.301513 2.274018 0 8 13
0.276929 -0.299585 2.272204 0 8 13
0.276953 -0.297923 2.272402 0 7 13
0.272717 -0.291705 2.237649 0 6 12
0.272196 -0.289489 2.233373 0 5 11
0.272221 -0.287856 2.233578 0 4 10
0.272427 -0.286414 2.235269 0 4 10
0.272337 -0.284659 2.234532 0 3 8
0.272264 -0.282923 2.233927 0 2 7
0.273769 -0.282819 2.246279 0 2 7
0.273656 -0.281035 2.245353 0 2 7
0.274771 -0.280505 2.254500 0 2 7
0.276726 -0.280814 2.270539 0 2 7
0.277721 -0.280131 2.278705 0 2 7
0.279011 -0.279732 2.289285 0 2 7
0.277068 -0.276095 2.273345 0 2 7
0.273655 -0.269359 2.245342 0 3 8
0.271948 -0.266022 2.231341 0 5 9
0.279699 -0.268490 2.294935 0 8 11
0.279676 -0.266763 2.294744 0 7 13
0.277195 -0.262707 2.274385 2 7 13
0.275425 -0.259351 2.259863 0 3 9
0.274638 -0.256937 2.253409 0 2 8
0.277361 -0.257794 2.275750 0 2 8
0.272079 -0.247910 2.232411 1 1 10
0.272148 -0.246314 2.232976 0 1 10
0.273796 -0.244468 2.246496 0 2 8
0.272812 -0.240265 2.238430 1 3 7
0.274009 -0.239649 2.248251 1 2 7
0.270050 -0.232895 2.215765 0 0 7
0.268497 -0.229919 2.203026 0 0 6
0.270511 -0.229995 2.219550 0 1 6
0.272713 -0.230205 2.237616 0 1 5
0.273428 -0.229142 2.243477 0 1 5
0.273700 -0.227702 2.245714 0 1 5
0.273021 -0.225473 2.240138 0 0 4
0.269108 -0.220602 2.208035 0 0 4
0.268959 -0.218841 2.206816 0 0 4
0.268984 -0.217221 2.207014 0 0 4
0.269989 -0.214743 2.215266 0 0 4
0.269340 -0.212584 2.209936 0 0 5
0.270777 -0.212068 2.221728 0 0 5
0.258592 -0.196221 2.121749 0 0 4
0.257682 -0.193960 2.114280 0 0 5
0.257435 -0.192206 2.112262 0 2 6
0.257231 -0.190486 2.110581 0 5 9
0.260045 -0.190985 2.133672 1 8 13
0.260453 -0.189697 2.137022 6 15 20
0.265952 -0.190461 2.182143 18 31 37
0.265348 -0.188411 2.177184 24 37 44
0.265198 -0.186688 2.175955 27 42 49
0.265370 -0.185192 2.177361 24 43 49
0.265673 -0.183784 2.179847 14 39 43
0.266353 -0.182632 2.185434 14 39 44
0.265192 -0.180219 2.175903 15 39 45
0.265789 -0.179005 2.180802 16 39 45
0.265891 -0.177453 2.181638 17 39 45
0.266217 -0.176049 2.184318 18 38 45
0.266419 -0.174558 2.185971 19 38 45
0.267047 -0.173342 2.191123 18 37 44
0.267011 -0.171692 2.190828 13 31 38
0.266097 -0.169482 2.183326 13 30 37
0.267994 -0.169057 2.198896 12 29 37
0.265760 -0.166028 2.180566 12 28 35
0.267310 -0.165367 2.193279 13 28 34
0.267742 -0.164003 2.196829 12 27 32
0.267347 -0.162132 2.193589 12 27 30
0.267742 -0.160740 2.196829 11 26 29
0.267051 -0.158697 2.191154 10 25 29
0.268135 -0.157707 2.200048 9 23 26
0.267757 -0.155853 2.196951 7 16 21
0.267749 -0.154217 2.196884 1 8 15
0.268505 -0.153016 2.203086 0 3 9
0.269783 -0.152100 2.213572 0 1 8
0.268091 -0.149512 2.199687 0 1 10
0.269893 -0.147227 2.214477 1 7 17
0.267049 -0.144048 2.191139 12 21 31
0.270092 -0.144044 2.216109 21 35 46
0.270012 -0.142356 2.215456 21 36 49
0.268836 -0.140097 2.205805 18 35 49
0.268903 -0.138493 2.206353 19 38 52
0.268138 -0.136465 2.200076 21 40 55
0.269335 -0.135433 2.209900 20 41 56
0.268644 -0.133448 2.204226 16 41 54
0.266736 -0.130875 2.188576 15 41 54
0.265494 -0.123793 2.178384 16 32 48
0.267954 -0.123307 2.198566 17 30 46
0.266435 -0.117737 2.186104 7 26 34
0.267188 -0.116441 2.192280 7 27 33
0.266513 -0.114523 2.186744 5 25 26
0.265801 -0.112597 2.180897 1 18 19
0.266217 -0.111151 2.184318 0 11 10
0.266497 -0.109643 2.186608 0 4 4
0.266217 -0.106284 2.184318 0 0 0
0.265461 -0.104364 2.178109 0 0 0
0.268341 -0.102225 2.201738 0 0 0
0.270244 -0.099656 2.217359 0 0 0
0.268923 -0.097530 2.206519 0 0 0
0.268974 -0.095909 2.206932 0 0 0
0.270575 -0.094831 2.220070 0 0 0
0.269893 -0.092947 2.214477 0 0 2
0.270153 -0.091390 2.216606 1 0 3
0.266945 -0.088678 2.190284 0 0 3
0.265306 -0.086517 2.176841 0 0 5
0.262948 -0.084145 2.157489 0 1 6
0.266298 -0.083595 2.184979 0 0 7
0.265014 -0.081577 2.174446 0 1 7
0.263751 -0.077973 2.164084 0 0 8
0.265206 -0.068705 2.176019 0 1 8
0.265914 -0.067268 2.181825 0 2 8
0.265014 -0.065425 2.174446 0 3 10
0.265655 -0.063965 2.179700 0 5 11
0.252117 -0.056095 2.068627 6 16 21
0.250083 -0.054119 2.051933 8 19 24
0.250621 -0.052708 2.056351 8 21 28
0.249640 -0.050980 2.048298 3 19 31
0.247980 -0.049130 2.034678 3 22 36
0.247188 -0.047466 2.028178 6 25 40
0.247270 -0.045975 2.028851 7 27 43
0.248484 -0.044686 2.038816 8 29 47
0.250522 -0.043526 2.055540 13 33 56
0.250605 -0.042013 2.056220 15 36 60
0.250737 -0.040507 2.057298 12 33 59
0.256597 -0.039890 2.105386 9 33 60
0.255491 -0.038161 2.096304 8 30 57
0.247621 -0.027931 2.031733 0 6 9
0.255491 -0.027262 2.096304 0 3 3
0.254878 -0.025643 2.091277 0 2 0
0.255253 -0.024125 2.094358 0 1 0
0.256304 -0.022662 2.102977 0 1 1
0.247213 -0.018845 2.028388 0 1 5
0.246520 -0.017290 2.022703 0 1 7
0.242243 -0.014037 1.987609 0 3 13
0.242243 -0.012561 1.987609 0 4 15
0.242061 -0.011076 1.986118 0 4 16
0.241376 -0.009574 1.980495 0 5 18
0.239897 -0.006591 1.968355 0 7 18
0.243046 -0.005197 1.994200 0 8 19
0.243697 -0.003725 1.999536 0 9 20
0.243198 -0.002236 1.995440 0 9 24
0.243124 -0.000753 1.994840 0 9 26
0.242500 0.000727 1.989719 0 8 27
0.241991 0.002200 1.985537 0 8 27
0.242196 0.005154 1.987223 1 7 27
0.246627 0.008254 2.023577 0 8 27
0.242318 0.009587 1.988221 0 12 28
0.240399 0.010976 1.972477 1 18 33
0.240157 0.012429 1.970489 3 24 38
0.241114 0.013948 1.978347 2 24 38
0.242043 0.015476 1.985969 0 21 35
0.243152 0.017029 1.995062 1 18 34
0.242093 0.018431 1.986378 1 17 33
0.241427 0.019851 1.980911 0 16 32
0.240470 0.021238 1.973064 0 16 33
0.237957 0.022466 1.952444 0 18 34
0.236970 0.023817 1.944344 0 18 34
0.236568 0.025219 1.941041 1 18 34
0.235887 0.026584 1.935456 2 17 34
0.235371 0.027960 1.931224 4 17 35
0.235185 0.029371 1.929694 5 18 36
0.235520 0.030848 1.932443 5 19 36
0.235386 0.032265 1.931343 5 19 36
0.235250 0.033680 1.930232 5 18 35
0.235368 0.035132 1.931198 3 18 33
0.235012 0.036511 1.928276 2 16 32
0.234912 0.037927 1.927457 1 14 30
0.235128 0.039395 1.929232 0 12 28
0.234972 0.040801 1.927950 0 10 27
0.234442 0.042137 1.923601 0 9 26
0.234521 0.043581 1.924245 0 7 23
0.234650 0.045035 1.925305 0 5 22
0.234510 0.046437 1.924156 0 5 22
0.234748 0.047915 1.926111 0 6 22
0.234556 0.049305 1.924538 0 6 21
0.235039 0.050839 1.928498 0 7 20
0.234541 0.052161 1.924410 0 6 19
0.234592 0.053602 1.924832 0 6 18
0.234832 0.055088 1.926799 0 4 16
0.234668 0.056480 1.925455 0 2 13
0.234419 0.057848 1.923410 0 1 13
0.233615 0.059074 1.916811 0 1 13
0.232917 0.060317 1.911087 1 1 13
0.232536 0.061635 1.907963 1 1 13
0.231785 0.062849 1.901795 1 1 13
0.232366 0.064423 1.906569 0 2 13
0.234266 0.066377 1.922158 0 2 10
0.234603 0.067902 1.924924 1 1 8
0.234639 0.069343 1.925215 1 2 7
0.235121 0.070918 1.929168 1 2 7
0.235259 0.072394 1.930307 1 2 7
0.235657 0.073952 1.933565 1 2 7
0.235642 0.075383 1.933443 1 2 7
0.236004 0.076938 1.936414 1 2 7
0.235608 0.078244 1.933167 0 2 7
0.236280 0.079908 1.938684 0 2 9
0.234494 0.087878 1.924025 0 2 9
0.236448 0.094375 1.940058 0 2 9
0.237254 0.097588 1.946670 0 2 9
0.236821 0.098853 1.943117 0 2 9
0.236085 0.099985 1.937083 0 2 11
0.235916 0.101351 1.935695 0 1 11
0.234831 0.102316 1.926788 1 1 11
0.234194 0.103466 1.921566 1 1 11
0.234306 0.104944 1.922487 1 1 13
0.232332 0.105475 1.906284 1 1 13
0.235797 0.117107 1.934715 1 1 13
0.231722 0.117908 1.901283 1 0 14
0.230840 0.118866 1.894048 1 0 14
0.230319 0.120001 1.889767 0 0 13
0.230362 0.121428 1.890121 0 1 12
0.231103 0.124635 1.896200 0 2 9
0.231166 0.126078 1.896720 0 2 7
0.230248 0.126981 1.889186 0 2 7
0.229515 0.127975 1.883177 0 1 8
0.229622 0.129435 1.884055 1 1 9
0.230388 0.131270 1.890333 1 1 9
0.230499 0.132738 1.891244 1 1 10
0.230665 0.134240 1.892610 0 1 12
0.230637 0.135629 1.892380 0 1 13
0.230643 0.137038 1.892431 0 1 13
0.230975 0.138643 1.895150 0 1 13
0.230143 0.139546 1.888329 0 1 12
0.229119 0.140321 1.879923 0 1 11
0.229051 0.141676 1.879363 0 1 11
0.228831 0.142934 1.877560 0 2 11
0.229528 0.144769 1.883279 0 3 12
0.229753 0.146311 1.885128 0 4 13
0.229717 0.147688 1.884832 0 4 11
0.229456 0.148918 1.882687 0 5 11
0.229443 0.150308 1.882581 0 5 11
0.229381 0.151665 1.882071 0 6 12
0.228455 0.152446 1.874475 0 7 13
0.228286 0.153724 1.873092 0 7 13
0.227830 0.154806 1.869349 0 7 14
0.229692 0.157471 1.884624 0 7 16
0.230182 0.159209 1.888646 0 7 17
0.229971 0.160465 1.886917 0 7 17
0.229431 0.161486 1.882482 0 7 17
0.228776 0.162420 1.877111 0 7 17
0.228144 0.163362 1.871926 1 8 18
0.228353 0.164903 1.873639 1 8 18
0.228390 0.166321 1.873939 0 8 18
0.228286 0.167637 1.873092 0 9 18
0.227985 0.168805 1.870619 0 9 18
0.228604 0.170657 1.875697 0 9 18
0.227824 0.171463 1.869303 0 9 18
0.228439 0.173318 1.874343 0 8 17
0.228104 0.174454 1.871599 0 8 17
0.228805 0.176384 1.877344 0 8 17
0.228570 0.177596 1.875417 0 8 17
0.228064 0.178593 1.871267 0 9 16
0.227710 0.179703 1.868360 0 9 16
0.227604 0.181007 1.867490 0 9 16
0.222370 0.178200 1.824546 0 9 16
0.222131 0.179362 1.822587 0 10 16
0.222275 0.180833 1.823767 0 9 16
0.227887 0.186788 1.869817 0 9 17
0.227973 0.188248 1.870522 0 9 18
0.227306 0.189082 1.865050 1 11 20
0.229219 0.192070 1.880744 1 11 20
0.229127 0.193390 1.879993 1 11 20
0.228852 0.194553 1.877736 0 10 20
0.227636 0.194906 1.867760 0 9 19
0.227101 0.195831 1.863363 0 9 19
0.227154 0.200031 1.863805 0 4 13
0.227538 0.201756 1.866955 0 3 10
0.227897 0.203463 1.869896 0 3 10
0.225451 0.202653 1.849826 0 3 10
0.224872 0.203503 1.845079 0 3 10
0.224061 0.204134 1.838421 0 3 10
0.222246 0.203835 1.823529 0 3 10
0.222018 0.204980 1.821662 0 3 10
0.222399 0.206687 1.824786 0 2 9
0.223408 0.208986 1.833064 0 2 9
0.223424 0.210363 1.833197 0 2 9
0.222315 0.210673 1.824095 0 2 9
0.276518 -0.337529 2.255090 170 169 174
0.276002 -0.335227 2.250884 156 155 160
0.278035 -0.334328 2.267459 109 107 113
0.279322 -0.332491 2.277954 70 70 75
0.278810 -0.330193 2.273779 66 71 74
0.274176 -0.321383 2.235989 78 83 87
0.269705 -0.312875 2.199526 64 67 73
0.270352 -0.311988 2.204807 34 37 43
0.273282 -0.313714 2.228701 10 13 20
0.276016 -0.315181 2.250997 2 4 11
0.276039 -0.311863 2.251185 29 32 41
0.272102 -0.305766 2.219073 27 31 40
0.272290 -0.304328 2.220609 23 27 37
0.272798 -0.303244 2.224754 17 21 32
0.273296 -0.302141 2.228812 10 15 25
0.273469 -0.300676 2.230223 6 10 21
0.276258 -0.302069 2.252968 2 8 17
0.276259 -0.300397 2.252980 0 7 14
0.276363 -0.298836 2.253828 0 4 10
0.278031 -0.298956 2.267431 0 5 11
0.275744 -0.294826 2.248780 2 8 14
0.273837 -0.291128 2.233225 3 8 14
0.273203 -0.288799 2.228056 0 5 11
0.274061 -0.288046 2.235051 1 4 10
0.273727 -0.286038 2.232333 3 6 11
0.273215 -0.283847 2.228151 3 5 10
0.274014 -0.283018 2.234673 1 2 7
0.275168 -0.282542 2.244078 1 2 7
0.275468 -0.281182 2.246530 0 2 7
0.275924 -0.279976 2.250246 0 2 7
0.276672 -0.279059 2.256348 0 2 7
0.279547 -0.278572 2.279794 0 2 7
0.276820 -0.274177 2.257550 0 3 8
0.278073 -0.273734 2.267774 1 6 10
0.274717 -0.267102 2.240403 1 9 12
0.281283 -0.268374 2.293949 0 5 9
0.279904 -0.265363 2.282705 0 4 8
0.277374 -0.261285 2.262071 0 3 8
0.275186 -0.257556 2.244225 0 3 8
0.277672 -0.258202 2.264504 0 2 7
0.276653 -0.255578 2.256194 0 2 7
0.278897 -0.255962 2.274495 1 1 8
0.278021 -0.253474 2.267350 1 1 8
0.272592 -0.246873 2.223072 1 1 8
0.273078 -0.242351 2.227039 0 1 6
0.273466 -0.241038 2.230201 0 1 6
0.273851 -0.239719 2.233342 0 1 6
0.273972 -0.238165 2.234329 0 1 6
0.271799 -0.234630 2.216606 0 1 6
0.270790 -0.232118 2.208379 0 1 6
0.269861 -0.229687 2.200803 0 0 6
0.270567 -0.228649 2.206556 0 1 6
0.271939 -0.228161 2.217743 0 1 5
0.272672 -0.227125 2.223728 0 1 5
0.273236 -0.225939 2.228323 0 1 5
0.273383 -0.224405 2.229527 0 0 5
0.271345 -0.221088 2.212900 0 0 5
0.270047 -0.218394 2.202314 0 0 5
0.271879 -0.218230 2.217261 0 0 5
0.273638 -0.217984 2.231607 0 0 5
0.274477 -0.216989 2.238442 0 0 5
0.273088 -0.214237 2.227119 0 0 5
0.273502 -0.212905 2.230492 0 0 5
0.276849 -0.212157 2.257793 1 2 7
0.259030 -0.195364 2.112473 0 0 4
0.259828 -0.194391 2.118980 0 2 5
0.258227 -0.191629 2.105922 2 10 12
0.256878 -0.189072 2.094919 5 20 20
0.259974 -0.189776 2.120168 10 27 28
0.260507 -0.188587 2.124519 17 34 35
0.266707 -0.188228 2.175075 26 44 47
0.266842 -0.186708 2.176180 20 38 42
0.266280 -0.184702 2.171600 20 40 45
0.267054 -0.183621 2.177911 18 39 44
0.268367 -0.182898 2.188615 17 39 44
0.266650 -0.180112 2.174613 17 38 43
0.267611 -0.179140 2.182449 16 37 43
0.267455 -0.177416 2.181180 16 37 42
0.267285 -0.175684 2.179794 17 36 43
0.267212 -0.174018 2.179200 16 35 42
0.267952 -0.172876 2.185233 15 34 41
0.267385 -0.170890 2.180605 12 30 39
0.267577 -0.169393 2.182178 12 30 39
0.268331 -0.168244 2.188324 12 29 39
0.271538 -0.168610 2.214477 12 28 36
0.268399 -0.165035 2.188877 13 28 35
0.269750 -0.164232 2.199897 13 27 34
0.268340 -0.161748 2.188396 13 27 32
0.269123 -0.160590 2.194780 13 27 30
0.268477 -0.158578 2.189512 7 23 24
0.269307 -0.157437 2.196282 9 23 24
0.268939 -0.155593 2.193279 5 14 17
0.269689 -0.154393 2.199398 0 4 10
0.270111 -0.152998 2.202840 1 2 10
0.269611 -0.151082 2.198762 3 4 13
0.270594 -0.149994 2.206779 0 4 15
0.270106 -0.146451 2.202798 0 9 21
0.270394 -0.141693 2.205149 19 36 51
0.268571 -0.139111 2.190284 21 38 53
0.270303 -0.138371 2.204401 22 41 56
0.268135 -0.135637 2.186725 23 42 57
0.269800 -0.134845 2.200300 19 41 55
0.267813 -0.132229 2.184097 16 42 57
0.268181 -0.130786 2.187098 15 41 56
0.267636 -0.127278 2.182653 15 38 52
0.266492 -0.125120 2.173323 15 36 50
0.266044 -0.123298 2.169671 16 34 49
0.270174 -0.121939 2.203351 16 31 46
0.268851 -0.119713 2.192565 7 23 36
0.267509 -0.117495 2.181616 9 25 35
0.267253 -0.115764 2.179530 9 25 32
0.266690 -0.113905 2.174937 6 22 25
0.267403 -0.112589 2.180753 3 16 17
0.267840 -0.109528 2.184318 0 6 3
0.265890 -0.105510 2.168416 0 1 0
0.266555 -0.104159 2.173841 0 1 0
0.268715 -0.101747 2.191451 0 1 0
0.270412 -0.100752 2.205292 0 0 0
0.269891 -0.098923 2.201041 0 0 0
0.268905 -0.096933 2.193006 0 0 0
0.267744 -0.094892 2.183532 0 0 0
0.269794 -0.093985 2.200251 0 0 0
0.269750 -0.092335 2.199897 0 0 2
0.269471 -0.090608 2.197620 1 1 3
0.267955 -0.088475 2.185257 0 0 3
0.263533 -0.083822 2.149193 0 1 5
0.266208 -0.083060 2.171012 0 0 4
0.264525 -0.080933 2.157287 0 0 5
0.264444 -0.079306 2.156624 0 1 7
0.263946 -0.077558 2.152558 0 0 7
0.264127 -0.076011 2.154042 0 0 7
0.264141 -0.074415 2.154153 0 0 7
0.264206 -0.072833 2.154686 0 0 7
0.265341 -0.068324 2.163940 0 1 8
0.265669 -0.066799 2.166613 0 3 9
0.265216 -0.063472 2.162922 0 9 16
0.252764 -0.055899 2.061371 6 21 27
0.251825 -0.054166 2.053709 7 24 31
0.251269 -0.052524 2.049173 8 26 35
0.249952 -0.050735 2.038440 4 23 34
0.249585 -0.049148 2.035444 5 24 39
0.250088 -0.047732 2.039549 9 28 44
0.248930 -0.046003 2.030100 8 29 45
0.249999 -0.044686 2.038816 7 28 46
0.250631 -0.043281 2.043977 9 32 51
0.251209 -0.041860 2.048690 11 34 56
0.256099 -0.039572 2.088569 8 32 56
0.256393 -0.038064 2.090961 7 30 54
0.256520 -0.036529 2.092004 7 27 51
0.248232 -0.027830 2.024405 0 6 10
0.256102 -0.027161 2.088593 0 4 4
0.255454 -0.025545 2.083309 0 2 1
0.257940 -0.024231 2.103578 0 1 0
0.255846 -0.022485 2.086504 0 1 2
0.250246 -0.018961 2.040836 0 1 6
0.247866 -0.017279 2.021429 0 1 8
0.243889 -0.015525 1.988993 0 2 10
0.241921 -0.013934 1.972939 0 2 11
0.242290 -0.012487 1.975948 0 3 12
0.241669 -0.010992 1.970886 0 3 14
0.241746 -0.009531 1.971513 0 4 15
0.241055 -0.008043 1.965879 0 5 16
0.241401 -0.006592 1.968696 0 6 17
0.242940 -0.005163 1.981249 0 6 18
0.243225 -0.003696 1.983575 0 7 19
0.244385 -0.002233 1.993034 0 8 22
0.244030 -0.000751 1.990139 0 9 25
0.242933 0.000724 1.981193 0 8 26
0.242696 0.002193 1.979264 0 8 26
0.243518 0.003676 1.985969 1 7 26
0.243679 0.005154 1.987281 0 7 27
0.247606 0.008237 2.019308 0 9 27
0.240956 0.010935 1.965071 2 19 35
0.240791 0.012386 1.963728 4 25 39
0.242187 0.013925 1.975114 2 24 38
0.243451 0.015472 1.985422 0 20 34
0.255673 0.017798 2.085093 0 17 33
0.240757 0.021135 1.963449 0 18 35
0.239333 0.022459 1.951839 0 20 37
0.238826 0.023858 1.947702 0 19 36
0.238594 0.025281 1.945811 0 18 36
0.239092 0.026782 1.949867 0 16 34
0.238617 0.028174 1.945997 0 15 34
0.237980 0.029540 1.940802 1 16 34
0.236827 0.030832 1.931398 1 15 33
0.236708 0.032250 1.930429 1 15 34
0.236301 0.033626 1.927107 1 16 33
0.236593 0.035101 1.929492 1 15 31
0.236904 0.036582 1.932024 1 13 30
0.236431 0.037941 1.928167 0 12 29
0.236823 0.039438 1.931362 0 9 27
0.236994 0.040903 1.932762 0 8 26
0.236994 0.042338 1.932762 0 7 25
0.236264 0.043639 1.926809 0 6 23
0.237084 0.045227 1.933496 1 5 21
0.236432 0.046534 1.928177 1 5 21
0.236463 0.047973 1.928431 0 5 21
0.237980 0.049722 1.940802 0 6 20
0.237902 0.051147 1.940162 0 6 19
0.237546 0.052509 1.937265 0 6 19
0.237744 0.053993 1.938878 0 6 18
0.236702 0.055191 1.930382 0 4 16
0.237307 0.056769 1.935315 0 2 14
0.235786 0.057833 1.922907 0 2 14
0.234703 0.058989 1.914075 0 2 14
0.233875 0.060198 1.907326 0 2 14
0.233072 0.061403 1.900775 2 2 14
0.232575 0.062681 1.896720 1 2 14
0.233998 0.064482 1.908327 0 2 13
0.234150 0.065942 1.909565 0 2 10
0.233981 0.067312 1.908187 1 1 8
0.234240 0.068806 1.910304 1 2 7
0.235004 0.070453 1.916531 1 2 7
0.235114 0.071911 1.917425 1 2 7
0.235268 0.073383 1.918688 1 2 7
0.235428 0.074859 1.919989 1 2 7
0.235886 0.076433 1.923725 1 2 7
0.235923 0.077874 1.924025 0 2 7
0.236017 0.079335 1.924795 0 2 9
0.236476 0.080922 1.928533 0 2 9
0.236230 0.082269 1.926529 0 2 9
0.236031 0.086489 1.924905 0 2 9
0.236301 0.088019 1.927107 0 2 9
0.236187 0.089407 1.926182 0 2 9
0.235764 0.090675 1.922730 0 2 9
0.236554 0.092412 1.929168 0 2 9
0.236511 0.093828 1.928824 0 2 9
0.235734 0.094948 1.922487 0 2 9
0.236404 0.096650 1.927950 0 2 9
0.236058 0.097938 1.925125 0 2 9
0.235658 0.099200 1.921865 0 2 11
0.235391 0.100513 1.919690 0 1 11
0.234577 0.101586 1.913045 1 1 11
0.233998 0.102753 1.908327 1 1 11
0.234423 0.104360 1.911793 1 1 13
0.234423 0.105780 1.911793 1 0 13
0.233524 0.106789 1.904465 1 0 13
0.235657 0.113474 1.921855 1 1 13
0.235681 0.114913 1.922053 1 1 13
0.234736 0.115874 1.914345 1 1 13
0.233920 0.116889 1.907691 1 0 13
0.233016 0.117848 1.900316 1 0 14
0.231666 0.118569 1.889307 1 0 14
0.230864 0.119557 1.882767 0 0 13
0.232722 0.123338 1.897918 0 1 9
0.232884 0.124835 1.899242 0 2 9
0.232286 0.125922 1.894369 0 2 7
0.231655 0.126983 1.889222 0 2 7
0.230461 0.127724 1.879478 0 1 8
0.230980 0.129411 1.883713 1 1 9
0.231503 0.131106 1.887975 1 1 9
0.232078 0.132838 1.892670 1 1 10
0.232365 0.134410 1.895006 0 1 12
0.232306 0.135783 1.894525 0 1 14
0.231968 0.136991 1.891774 0 1 13
0.231844 0.138321 1.890758 0 1 13
0.231681 0.139628 1.889431 0 1 13
0.231277 0.140785 1.886133 0 1 13
0.231126 0.142093 1.884904 0 2 11
0.230644 0.143195 1.880978 0 2 11
0.230647 0.144593 1.881001 0 3 12
0.230405 0.145837 1.879023 0 4 13
0.231041 0.147639 1.884211 0 4 11
0.229445 0.148009 1.871192 0 5 11
0.229013 0.149118 1.867669 0 6 12
0.229073 0.150544 1.868159 0 6 12
0.228562 0.151593 1.863997 0 7 13
0.228648 0.153035 1.864698 0 7 14
0.229142 0.154754 1.868727 0 7 15
0.230902 0.157341 1.883078 0 7 16
0.231458 0.159122 1.887611 0 6 16
0.230827 0.160086 1.882463 0 7 17
0.230756 0.161435 1.881883 0 7 17
0.230204 0.162443 1.877384 0 7 17
0.229297 0.163193 1.869992 0 7 17
0.229109 0.164446 1.868455 0 6 16
0.228644 0.165498 1.864662 0 6 16
0.228781 0.166983 1.865782 0 8 18
0.228265 0.167989 1.861575 0 8 18
0.229029 0.169939 1.867804 0 8 17
0.229199 0.171453 1.869191 0 7 17
0.229249 0.172879 1.869599 0 7 17
0.228773 0.173906 1.865717 0 7 17
0.229492 0.175842 1.871577 0 7 17
0.229631 0.177340 1.872712 0 7 16
0.229499 0.178628 1.871635 0 8 16
0.228647 0.179350 1.864687 0 8 16
0.228337 0.180491 1.862162 0 9 16
0.221717 0.177944 1.808171 0 9 16
0.221919 0.179450 1.809819 0 9 16
0.229178 0.186708 1.869018 0 9 18
0.230138 0.188884 1.876850 0 9 18
0.228860 0.189222 1.866425 1 11 21
0.231266 0.192612 1.886049 1 11 20
0.230926 0.193727 1.883270 1 11 20
0.229320 0.193770 1.870180 0 10 20
0.228881 0.194785 1.866599 0 9 19
0.227385 0.194889 1.854398 0 9 19
0.228555 0.201430 1.863938 0 3 10
0.228944 0.203159 1.867106 0 3 10
0.226811 0.202640 1.849711 0 3 10
0.224380 0.201828 1.829888 0 3 10
0.224143 0.202972 1.827955 0 3 10
0.223868 0.204079 1.825709 0 3 10
0.222044 0.203762 1.810840 0 3 10
0.222286 0.205331 1.812815 0 2 9
0.223065 0.207401 1.819161 0 2 9
0.222767 0.208473 1.816730 0 2 9
0.222577 0.209644 1.815188 0 2 9
0.276577 -0.333903 2.241994 166 162 166
0.280183 -0.329822 2.271223 85 89 90
0.276014 -0.323252 2.237427 81 86 89
0.273457 -0.318611 2.216703 84 88 91
0.273580 -0.317107 2.217700 87 91 94
0.271348 -0.312886 2.199602 76 78 82
0.271310 -0.311208 2.199294 48 49 53
0.273183 -0.311712 2.214477 20 22 27
0.275794 -0.313031 2.235644 6 7 12
0.275501 -0.311040 2.233272 24 24 32
0.275064 -0.308890 2.229724 26 29 37
0.274440 -0.306537 2.224666 26 28 39
0.273116 -0.303413 2.213934 23 26 37
0.274131 -0.302891 2.222167 17 21 33
0.274395 -0.301530 2.224305 11 15 27
0.275030 -0.300572 2.229453 6 10 21
0.276397 -0.300401 2.240529 2 8 17
0.277785 -0.300238 2.251787 1 8 15
0.276084 -0.296736 2.237992 0 5 11
0.276733 -0.295768 2.243253 0 5 11
0.275849 -0.293162 2.236090 2 8 14
0.272707 -0.288181 2.210622 2 7 13
0.275432 -0.289402 2.232706 0 5 11
0.274431 -0.286698 2.224595 0 5 10
0.274569 -0.285190 2.225716 2 6 11
0.275110 -0.284095 2.230099 1 4 9
0.275117 -0.282445 2.230153 0 3 8
0.276574 -0.282276 2.241963 0 2 7
0.276676 -0.280714 2.242790 0 2 7
0.277311 -0.279689 2.247944 0 2 7
0.277785 -0.278495 2.251787 0 2 7
0.280259 -0.279287 2.271836 0 3 8
0.279153 -0.276504 2.262873 0 3 8
0.278698 -0.274376 2.259188 0 4 8
0.278081 -0.272094 2.254182 0 7 10
0.276888 -0.269260 2.244515 0 8 11
0.278680 -0.267646 2.259036 1 8 11
0.283975 -0.271022 2.301964 1 6 10
0.281394 -0.266864 2.281040 0 5 9
0.281064 -0.264859 2.278362 0 3 8
0.277266 -0.259611 2.247579 0 3 8
0.277315 -0.257986 2.247970 0 3 8
0.278219 -0.257153 2.255305 0 2 7
0.277474 -0.254793 2.249260 0 2 7
0.278237 -0.253818 2.255446 1 1 7
0.279687 -0.253457 2.267200 1 1 7
0.272688 -0.245473 2.210469 1 1 7
0.273687 -0.244724 2.218561 1 1 7
0.273874 -0.241594 2.220082 0 1 6
0.273738 -0.239825 2.218979 0 1 6
0.274008 -0.238412 2.221169 0 1 6
0.273247 -0.236105 2.214998 0 1 6
0.271533 -0.232989 2.201105 0 1 6
0.271485 -0.231313 2.200717 0 1 6
0.269925 -0.228359 2.188070 0 1 6
0.270906 -0.227557 2.196021 0 1 6
0.271356 -0.226302 2.199671 0 1 6
0.272027 -0.225223 2.205109 0 1 6
0.272488 -0.223964 2.208847 0 1 6
0.273615 -0.223243 2.217977 0 1 6
0.270746 -0.219272 2.194724 0 1 6
0.271235 -0.218035 2.198691 0 1 6
0.272228 -0.217194 2.206734 0 1 6
0.274268 -0.217170 2.223274 0 1 6
0.274664 -0.215830 2.226481 0 0 5
0.274918 -0.214374 2.228544 0 0 5
0.274345 -0.212275 2.223894 0 0 6
0.274497 -0.210740 2.225128 0 1 6
0.262512 -0.196797 2.127977 0 0 5
0.260101 -0.193424 2.108435 2 4 8
0.259357 -0.191309 2.102401 8 18 19
0.259564 -0.189899 2.104080 17 35 33
0.261372 -0.189648 2.118736 19 40 38
0.268568 -0.188401 2.177070 24 43 45
0.268534 -0.186760 2.176795 18 37 41
0.268590 -0.185182 2.177249 20 40 44
0.268588 -0.183563 2.177230 18 39 44
0.269617 -0.182643 2.185571 18 38 44
0.269080 -0.180660 2.181221 18 37 43
0.269462 -0.179294 2.184318 17 36 42
0.269241 -0.177525 2.182520 16 36 42
0.268873 -0.175664 2.179539 16 35 42
0.269140 -0.174217 2.181703 16 35 42
0.269011 -0.172515 2.180662 15 34 41
0.269549 -0.171237 2.185024 12 31 40
0.269160 -0.169369 2.181870 12 31 40
0.272208 -0.169647 2.206572 12 30 39
0.271623 -0.167647 2.201830 12 30 37
0.272719 -0.166682 2.210721 12 28 35
0.271881 -0.164533 2.203928 13 27 34
0.270043 -0.161795 2.189025 14 27 32
0.271270 -0.160897 2.198973 13 27 29
0.270895 -0.159043 2.195929 6 22 22
0.270913 -0.157422 2.196075 7 22 21
0.272790 -0.156870 2.211291 3 13 15
0.272181 -0.154881 2.206353 0 3 8
0.270790 -0.152459 2.195080 2 2 10
0.270389 -0.150606 2.191828 3 4 14
0.272221 -0.149987 2.206677 0 4 16
0.273750 -0.149181 2.219073 0 5 17
0.274221 -0.147787 2.222896 0 12 25
0.273874 -0.145951 2.220082 9 23 38
0.271640 -0.143125 2.201968 17 33 49
0.271981 -0.140029 2.204736 21 39 55
0.271062 -0.137924 2.197285 24 43 58
0.270982 -0.136252 2.196636 23 44 58
0.269411 -0.133839 2.183899 19 41 55
0.269023 -0.132027 2.180753 17 42 57
0.269055 -0.130423 2.181017 15 42 57
0.268764 -0.128664 2.178659 15 41 54
0.268759 -0.127043 2.178616 14 39 53
0.268730 -0.122175 2.178384 15 34 48
0.269311 -0.120818 2.183090 15 32 47
0.269855 -0.119437 2.187504 8 24 37
0.268430 -0.117190 2.175950 10 24 36
0.267356 -0.115111 2.167246 10 24 32
0.268816 -0.114121 2.179080 8 20 24
0.268351 -0.112308 2.175308 4 15 16
0.267600 -0.110383 2.169218 0 10 8
0.268680 -0.109210 2.177976 0 7 2
0.268297 -0.107439 2.174871 0 5 1
0.268106 -0.105749 2.173323 0 2 1
0.268988 -0.104477 2.180474 0 2 1
0.268831 -0.102797 2.179200 0 2 0
0.270304 -0.101733 2.191139 0 2 0
0.270596 -0.100214 2.193510 0 1 0
0.270008 -0.098370 2.188741 1 1 0
0.268591 -0.096237 2.177257 1 1 0
0.268023 -0.094419 2.172651 1 1 0
0.269450 -0.093300 2.184216 0 0 0
0.269247 -0.091608 2.182569 0 0 1
0.269303 -0.090006 2.183025 1 1 2
0.269238 -0.088363 2.182498 1 1 3
0.264952 -0.083766 2.147754 1 1 3
0.263462 -0.073777 2.135675 1 0 6
0.265512 -0.066358 2.152299 0 3 9
0.264893 -0.064608 2.147274 0 8 14
0.264068 -0.062817 2.140587 1 14 21
0.252928 -0.054075 2.050284 0 22 33
0.251712 -0.052300 2.040431 0 23 35
0.250918 -0.050624 2.033990 3 25 39
0.251199 -0.049168 2.036268 4 25 42
0.250853 -0.047590 2.033464 7 28 45
0.255029 -0.046847 2.067316 8 31 47
0.251257 -0.044641 2.036745 10 33 49
0.251780 -0.043218 2.040982 9 34 51
0.254977 -0.042231 2.066893 8 34 53
0.255178 -0.040728 2.068525 8 33 53
0.255754 -0.039280 2.073194 8 33 53
0.258960 -0.036654 2.099184 10 29 49
0.257537 -0.034902 2.087647 11 27 46
0.257537 -0.033352 2.087647 11 24 41
