ply
format ascii 1.0
element vertex 1249
property float x
property float y
property float z
property uchar red
property uchar green
property uchar blue
end_header
0.016691 -0.219325 2.228390 217 228 249
0.017003 -0.220056 2.270079 127 134 161
0.016993 -0.218236 2.268688 136 144 171
0.017036 -0.217095 2.274385 148 157 182
0.017089 -0.216086 2.281574 163 170 188
0.017034 -0.213701 2.274224 169 174 187
0.017046 -0.212152 2.275735 160 164 175
0.017087 -0.210977 2.281301 159 163 174
0.017053 -0.200403 2.276673 158 162 171
0.017052 -0.198701 2.276548 148 152 161
0.017079 -0.197319 2.280126 145 149 159
0.017062 -0.195439 2.277945 147 151 162
0.017026 -0.193338 2.273143 149 153 164
0.017029 -0.191675 2.273444 157 161 173
0.017067 -0.187033 2.278611 202 208 233
0.017035 -0.184986 2.274248 208 215 238
0.017008 -0.183007 2.270649 209 216 235
0.017059 -0.181870 2.277534 207 213 232
0.017034 -0.179909 2.274137 207 212 230
0.017049 -0.178375 2.276115 204 209 225
0.017171 -0.131981 2.292499 155 153 160
0.017098 -0.128025 2.282680 167 166 170
0.017108 -0.126408 2.284112 169 168 170
0.017182 -0.125245 2.293869 168 168 168
0.017085 -0.122845 2.280950 168 167 167
0.015865 0.178553 2.118115 183 178 169
0.015825 0.179672 2.112772 183 179 168
0.015795 0.180899 2.108783 183 179 168
0.015776 0.182239 2.106168 183 179 168
0.015733 0.183307 2.100474 183 179 168
0.015680 0.184250 2.093461 183 179 168
0.015754 0.186675 2.103271 184 178 169
0.015642 0.191554 2.088327 181 172 165
0.015659 0.193316 2.090616 176 167 160
0.015623 0.194417 2.085765 174 166 157
0.015619 0.195916 2.085235 175 169 158
0.015623 0.197514 2.085747 177 173 161
0.015582 0.198546 2.080329 179 176 164
0.015551 0.199692 2.076178 178 175 163
0.015525 0.200904 2.072772 176 173 161
0.015517 0.202339 2.071699 174 171 159
0.015511 0.203790 2.070814 175 172 160
0.015517 0.205407 2.071603 178 175 163
0.015507 0.206818 2.070331 180 176 164
0.015488 0.208099 2.067771 177 174 162
0.015510 0.209937 2.070753 173 170 158
0.015521 0.211618 2.072151 175 171 159
0.015505 0.212937 2.070011 179 175 163
0.015515 0.214621 2.071427 181 178 166
0.015494 0.215858 2.068534 182 178 166
0.015482 0.217233 2.066999 180 176 164
0.015501 0.219035 2.069522 179 175 163
0.015491 0.220429 2.068182 180 176 164
0.015484 0.221862 2.067217 182 178 166
0.015479 0.223330 2.066595 180 176 165
0.015469 0.224714 2.065205 176 172 161
0.015480 0.226417 2.066751 176 172 161
0.015469 0.227786 2.065238 179 174 163
0.015458 0.229153 2.063741 184 180 166
0.015452 0.230604 2.063006 188 184 169
0.015446 0.232040 2.062147 187 184 169
0.015420 0.233179 2.058684 183 180 167
0.015390 0.235773 2.054637 221 219 210
0.015370 0.236991 2.051967 225 224 217
0.023513 -0.410487 2.855917 161 164 167
0.019017 -0.328564 2.309819 132 140 147
0.018912 -0.323345 2.297123 121 130 139
0.019001 -0.323155 2.307953 113 125 134
0.019020 -0.320034 2.310169 97 111 123
0.019022 -0.318366 2.310520 95 110 124
0.018962 -0.315638 2.303132 80 97 111
0.018924 -0.311599 2.298581 80 99 114
0.018873 -0.309057 2.292390 64 83 98
0.018965 -0.308849 2.303534 44 63 78
0.018811 -0.304643 2.284821 43 62 77
0.018865 -0.303815 2.291382 57 76 91
0.018767 -0.300539 2.279438 68 87 101
0.018835 -0.299937 2.287761 64 81 94
0.018873 -0.298841 2.292390 56 69 82
0.018955 -0.298427 2.302331 63 75 89
0.018996 -0.297350 2.307245 66 78 92
0.019246 -0.299529 2.337625 59 71 86
0.018929 -0.291181 2.299131 44 55 71
0.018883 -0.288771 2.293551 46 58 74
0.018828 -0.286240 2.286937 49 61 77
0.018903 -0.285668 2.295996 42 56 73
0.018795 -0.282346 2.282923 43 59 75
0.018737 -0.279776 2.275815 45 62 79
0.018833 -0.279510 2.287472 46 63 81
0.018739 -0.276432 2.276115 48 63 83
0.018785 -0.275414 2.281686 48 63 84
0.018748 -0.273174 2.277147 49 64 85
0.018756 -0.271605 2.278175 51 65 84
0.018735 -0.269615 2.275659 49 61 78
0.018732 -0.267881 2.275282 39 51 66
0.018761 -0.266594 2.278728 33 45 58
0.018714 -0.264243 2.273063 32 45 56
0.018681 -0.262092 2.269061 25 38 47
0.018653 -0.260011 2.265617 11 24 32
0.018589 -0.257446 2.257873 4 17 25
0.018682 -0.257043 2.269126 6 19 27
0.018718 -0.255856 2.273551 4 18 27
0.018641 -0.253116 2.264154 8 22 31
0.018799 -0.253568 2.283367 7 20 29
0.018796 -0.251830 2.282985 5 17 26
0.018781 -0.249939 2.281205 8 18 26
0.018842 -0.249047 2.288572 10 18 26
0.018900 -0.248109 2.295620 18 25 30
0.018898 -0.246377 2.295370 32 35 40
0.018960 -0.245475 2.302903 51 50 56
0.018857 -0.242438 2.290375 82 79 85
0.019081 -0.243604 2.317656 127 128 129
0.018973 -0.240510 2.304502 152 156 153
0.019054 -0.239819 2.314356 156 159 154
0.018967 -0.237015 2.303803 153 155 152
0.018981 -0.235469 2.305425 147 149 152
0.018809 -0.231650 2.284646 151 155 164
0.018526 -0.224811 2.250166 195 206 225
0.018405 -0.221691 2.235557 220 230 245
0.018364 -0.219537 2.230546 227 236 252
0.018453 -0.218931 2.241298 160 168 192
0.018576 -0.218721 2.256313 106 112 141
0.018507 -0.216241 2.247944 115 123 152
0.018752 -0.217411 2.277698 139 149 176
0.018711 -0.215243 2.272672 167 175 196
0.018857 -0.213517 2.290375 160 164 176
0.018764 -0.210775 2.279115 158 162 174
0.018864 -0.203389 2.291262 169 173 185
0.018868 -0.201726 2.291707 148 152 164
0.018824 -0.199562 2.286417 139 143 155
0.018820 -0.197817 2.285872 137 141 153
0.018706 -0.194932 2.272036 140 144 156
0.018583 -0.191973 2.257088 146 150 162
0.018662 -0.191114 2.266790 161 165 177
0.018723 -0.188359 2.274184 201 207 227
0.018750 -0.186931 2.277366 206 213 236
0.018691 -0.184662 2.270267 207 214 236
0.018698 -0.183041 2.271074 205 211 230
0.018722 -0.181587 2.273992 200 205 224
0.018773 -0.151597 2.280209 213 212 222
0.018819 -0.134989 2.285767 167 167 175
0.018916 -0.130564 2.297534 161 160 168
0.018895 -0.128721 2.295089 164 163 170
0.018827 -0.126558 2.286813 167 166 171
0.018897 -0.125322 2.295292 169 168 172
0.018898 -0.123622 2.295370 168 168 170
0.018908 -0.121983 2.296622 169 169 171
0.017429 0.178452 2.116913 184 178 168
0.017395 0.179682 2.112885 184 178 168
0.017402 0.181316 2.113642 183 178 168
0.017378 0.182640 2.110797 183 178 168
0.017304 0.183418 2.101752 183 179 168
0.017299 0.184934 2.101233 183 178 168
0.017255 0.186020 2.095892 184 178 169
0.017293 0.189548 2.100477 179 171 164
0.017293 0.191110 2.100503 179 171 164
0.017214 0.191787 2.090870 179 171 164
0.017198 0.193160 2.088921 179 172 165
0.017177 0.194473 2.086369 179 172 165
0.017175 0.196004 2.086166 178 174 164
0.017167 0.197454 2.085114 179 177 166
0.017149 0.198796 2.082948 178 178 167
0.017113 0.199920 2.078547 174 175 163
0.017089 0.201187 2.075695 176 176 165
0.017068 0.202480 2.073149 180 180 169
0.017054 0.208464 2.071403 180 180 169
0.017064 0.210130 2.072655 178 179 167
0.017053 0.211525 2.071243 177 176 164
0.017058 0.213128 2.071867 177 175 163
0.017068 0.214796 2.073114 178 177 165
0.017041 0.216000 2.069901 179 178 166
0.017028 0.217363 2.068237 179 177 165
0.017041 0.219070 2.069850 177 175 163
0.017036 0.220540 2.069224 176 174 162
0.017026 0.221947 2.068013 174 172 160
0.017017 0.223372 2.066983 178 175 164
0.020638 -0.327072 2.299330 125 133 140
0.020589 -0.319480 2.293869 111 124 135
0.020651 -0.318733 2.300780 105 120 133
0.020622 -0.316577 2.297534 104 120 134
0.020558 -0.310487 2.290375 91 110 125
0.020514 -0.306436 2.285540 51 70 85
0.020512 -0.303009 2.285298 49 68 83
0.020343 -0.298829 2.266473 53 71 86
0.020501 -0.299445 2.284011 53 70 85
0.020527 -0.298130 2.286937 56 72 86
0.020523 -0.296375 2.286505 60 74 87
0.020700 -0.293787 2.306183 41 53 69
0.020429 -0.288255 2.276029 35 47 63
0.020402 -0.286191 2.273063 34 46 62
0.020407 -0.284572 2.273617 35 48 64
0.020384 -0.282558 2.271003 33 49 65
0.020367 -0.280634 2.269081 34 50 66
0.020350 -0.278722 2.267236 34 51 69
0.020352 -0.277065 2.267459 35 52 70
0.020339 -0.275202 2.265988 37 52 72
0.020366 -0.273878 2.268961 39 54 75
0.020352 -0.272009 2.267431 39 54 75
0.020322 -0.269927 2.264098 43 55 74
0.020308 -0.268055 2.262486 47 58 76
0.020321 -0.266557 2.264039 37 49 63
0.020370 -0.265510 2.269466 30 42 54
0.020304 -0.262963 2.262054 27 40 49
0.020291 -0.261116 2.260609 21 34 42
0.020172 -0.257917 2.247369 10 23 31
0.020309 -0.257993 2.262679 7 20 28
0.020329 -0.256557 2.264836 11 24 32
0.020383 -0.255559 2.270917 8 22 31
0.020451 -0.254719 2.278485 13 27 36
0.020485 -0.253445 2.282258 10 23 32
0.020520 -0.252176 2.286124 5 17 26
0.020526 -0.250555 2.286827 10 21 28
0.020582 -0.249538 2.293085 16 25 31
0.020565 -0.247625 2.291145 26 33 37
0.020548 -0.245724 2.289285 42 46 51
0.020552 -0.244073 2.289752 64 62 69
0.020645 -0.243471 2.300135 97 94 100
0.020640 -0.241697 2.299513 139 140 141
0.020642 -0.240009 2.299697 155 159 156
0.020734 -0.239371 2.310028 163 166 162
0.020583 -0.235920 2.293162 165 167 165
0.020630 -0.234750 2.298386 152 154 157
0.020511 -0.231701 2.285154 163 168 177
0.020361 -0.228322 2.268446 200 208 222
0.019997 -0.220932 2.227901 212 224 243
0.020006 -0.219376 2.228910 235 245 254
0.020155 -0.217672 2.245481 82 89 117
0.020370 -0.216620 2.269413 132 141 170
0.020410 -0.215360 2.273910 167 176 198
0.020413 -0.213700 2.274218 169 176 192
0.020488 -0.212788 2.282552 155 161 175
0.020460 -0.210806 2.279454 157 163 177
0.020433 -0.200388 2.276504 167 170 185
0.020379 -0.188048 2.270422 201 207 226
0.020381 -0.186381 2.270660 202 208 230
0.020361 -0.184511 2.268403 200 206 227
0.018968 0.178139 2.113196 185 178 168
0.018963 0.179668 2.112720 185 178 168
0.018955 0.181159 2.111806 185 178 168
0.018935 0.182538 2.109616 184 178 168
0.018850 0.183274 2.100097 183 179 168
0.018758 0.183936 2.089893 183 178 168
0.018777 0.188781 2.091980 180 173 165
0.018792 0.190487 2.093658 182 175 167
0.018705 0.197342 2.083930 173 173 164
0.018675 0.198572 2.080600 167 169 159
0.018652 0.199872 2.078053 175 179 168
0.018596 0.213120 2.071792 179 179 169
0.018577 0.220594 2.069725 222 219 210
0.018570 0.222039 2.068870 224 222 214
0.018585 0.223766 2.070625 234 234 227
0.018613 0.225641 2.073725 240 242 235
0.018614 0.227193 2.073833 230 232 225
0.018600 0.228559 2.072246 220 223 216
0.018541 0.235500 2.065625 154 155 148
0.018507 0.236605 2.061882 92 92 86
0.018480 0.237788 2.058873 70 71 65
0.022391 -0.320889 2.303990 107 119 132
0.022351 -0.318598 2.299807 99 112 127
0.022495 -0.318930 2.314615 96 110 126
0.022373 -0.313792 2.302141 85 102 118
0.022383 -0.312216 2.303132 85 102 118
0.022308 -0.307761 2.295418 48 65 80
0.022209 -0.304701 2.285256 39 57 71
0.022157 -0.302284 2.279833 40 58 72
0.022146 -0.300442 2.278705 38 56 70
0.022185 -0.299274 2.282705 40 57 71
0.022111 -0.296592 2.275138 47 62 77
0.022796 -0.302299 2.345645 41 54 70
0.022331 -0.292722 2.297820 33 45 61
0.021932 -0.285813 2.256746 30 42 58
0.022030 -0.285407 2.266832 27 40 57
0.022033 -0.283752 2.267065 27 41 58
0.021994 -0.281576 2.263110 31 47 63
0.021905 -0.278759 2.253924 30 47 63
0.021898 -0.277004 2.253266 29 46 62
0.021929 -0.275710 2.256370 28 45 63
0.021800 -0.272430 2.243167 29 44 63
0.021919 -0.272241 2.255406 28 43 63
0.021899 -0.270322 2.253369 30 43 63
0.021958 -0.269367 2.259400 31 43 62
0.021891 -0.266872 2.252503 39 50 68
0.021930 -0.265670 2.256508 31 43 58
0.021960 -0.264353 2.259579 24 36 49
0.021902 -0.261979 2.253595 21 33 45
0.021826 -0.259403 2.245781 17 30 39
0.021793 -0.257352 2.242443 11 24 32
0.021890 -0.256824 2.252419 11 24 32
0.021956 -0.255922 2.259225 16 29 37
0.022104 -0.255952 2.274409 10 24 33
0.022077 -0.253959 2.271689 16 30 39
0.022188 -0.253534 2.283054 14 27 36
0.022145 -0.251350 2.278635 11 22 32
0.022162 -0.249853 2.280414 17 27 35
0.022233 -0.248947 2.287653 24 32 39
0.022210 -0.247001 2.285376 35 42 47
0.022203 -0.245224 2.284633 52 56 61
0.022177 -0.243235 2.281887 79 77 85
0.022197 -0.241766 2.284028 110 107 115
0.022266 -0.240813 2.291102 148 148 151
0.022348 -0.239989 2.299513 160 163 162
0.022442 -0.239287 2.309219 168 170 168
0.022276 -0.234110 2.292121 158 160 165
0.021919 -0.227010 2.255406 205 215 228
0.021613 -0.220538 2.223925 215 229 246
0.021562 -0.218369 2.218678 232 244 254
0.021687 -0.217971 2.231476 157 166 183
0.021916 -0.216926 2.255070 62 70 99
0.022044 -0.216508 2.268241 108 117 145
0.021991 -0.214312 2.262837 151 159 181
0.021990 -0.212621 2.262729 166 173 189
0.022093 -0.211923 2.273272 168 175 189
0.022118 -0.207094 2.275875 202 208 223
0.022127 -0.205485 2.276778 203 209 224
0.022129 -0.203813 2.276986 200 206 222
0.022100 -0.201855 2.273988 209 213 230
0.022044 -0.199665 2.268289 218 221 237
0.021988 -0.197471 2.262460 219 222 239
0.021906 -0.195066 2.254088 221 224 240
0.021876 -0.193127 2.250997 220 223 238
0.021894 -0.191609 2.252812 219 222 236
0.021966 -0.190563 2.260249 216 220 232
0.022036 -0.189486 2.267459 213 218 231
0.021974 -0.187271 2.261041 203 209 225
0.021891 -0.176524 2.252490 168 168 185
0.022056 -0.174486 2.269506 166 167 176
0.022122 -0.173316 2.276276 165 166 170
0.022134 -0.171719 2.277522 165 166 170
0.022109 -0.169835 2.274944 165 166 172
0.022111 -0.168161 2.275167 167 167 175
0.022134 -0.166644 2.277518 168 168 178
0.022158 -0.165129 2.279956 169 169 178
0.022125 -0.163196 2.276627 169 169 177
0.020514 0.174799 2.110772 187 177 169
0.020519 0.176417 2.111380 187 177 169
0.020504 0.177849 2.109756 185 177 168
0.020479 0.179201 2.107234 185 178 168
0.020490 0.180860 2.108326 185 178 168
0.020473 0.182276 2.106593 184 178 168
0.020367 0.182886 2.095649 183 179 168
0.020331 0.184123 2.092020 183 178 168
0.020335 0.187262 2.092370 184 178 169
0.020332 0.188792 2.092107 181 175 168
0.020319 0.190224 2.090758 179 173 166
0.020311 0.191704 2.089968 179 172 167
0.020309 0.193231 2.089688 178 174 168
0.020200 0.224618 2.078509 162 165 160
0.020210 0.226276 2.079558 137 142 137
0.020219 0.227916 2.080426 123 129 125
0.020187 0.229096 2.077117 106 112 107
0.020159 0.230327 2.074306 87 93 89
0.020149 0.231755 2.073300 68 74 69
0.020124 0.232997 2.070653 49 55 50
0.020092 0.234162 2.067362 34 38 34
0.020083 0.235593 2.066446 25 28 24
0.020062 0.236886 2.064336 15 20 14
0.020052 0.238292 2.063233 9 13 7
0.024134 -0.323014 2.306942 107 116 126
0.024031 -0.319933 2.297123 91 102 113
0.024052 -0.318505 2.299131 77 89 102
0.024069 -0.317026 2.300790 69 82 97
0.024052 -0.315089 2.299131 63 78 93
0.024174 -0.314969 2.310774 62 78 93
0.024059 -0.311769 2.299834 58 74 89
0.024040 -0.309813 2.297997 44 61 75
0.023878 -0.306036 2.282552 30 48 62
0.023828 -0.303699 2.277747 29 47 60
0.023851 -0.302301 2.279956 32 50 62
0.023767 -0.297860 2.271918 30 46 61
0.023557 -0.293548 2.251787 30 46 61
0.024382 -0.300375 2.330719 25 38 54
0.024420 -0.299103 2.334299 28 41 57
0.024649 -0.300165 2.356247 32 45 61
0.023819 -0.288356 2.276827 35 47 63
0.023774 -0.286130 2.272580 33 46 63
0.023770 -0.284395 2.272204 33 47 64
0.023738 -0.282323 2.269114 36 52 68
0.023693 -0.280111 2.264857 34 50 66
0.023638 -0.277776 2.259542 32 49 65
0.023646 -0.276191 2.260307 30 47 63
0.023586 -0.273817 2.254586 28 44 60
0.023627 -0.272623 2.258563 27 42 59
0.023608 -0.270727 2.256746 27 40 57
0.023601 -0.268963 2.256010 26 39 56
0.023608 -0.267368 2.256687 26 38 55
0.023606 -0.265669 2.256494 23 35 49
0.023629 -0.264256 2.258743 19 31 43
0.023587 -0.262112 2.254736 17 30 40
0.023525 -0.259751 2.248796 16 29 37
0.023507 -0.257881 2.247054 13 26 34
0.023541 -0.256581 2.250292 13 26 34
0.023624 -0.255806 2.258203 15 28 36
0.023714 -0.255100 2.266832 12 25 34
0.023803 -0.254365 2.275326 17 31 40
0.023872 -0.253411 2.281952 16 29 38
0.023910 -0.252112 2.285540 14 26 35
0.023869 -0.249992 2.281686 22 32 40
0.023877 -0.248379 2.282439 30 39 45
0.023915 -0.247071 2.286022 43 50 54
0.023894 -0.245161 2.284049 60 64 70
0.023885 -0.243370 2.283160 89 87 97
0.023847 -0.241289 2.279524 117 114 124
0.023889 -0.240024 2.283592 149 148 154
0.023994 -0.239371 2.293593 158 159 161
0.024150 -0.239210 2.308474 165 166 168
0.024023 -0.236250 2.296372 168 170 173
0.024009 -0.234405 2.295002 156 159 166
0.023829 -0.230957 2.277812 169 175 186
0.023159 -0.217891 2.213816 222 236 249
0.023623 -0.218897 2.258128 66 73 97
0.023761 -0.218487 2.271295 52 58 84
0.023772 -0.216902 2.272362 85 90 117
0.023762 -0.213440 2.271453 167 174 192
0.023869 -0.209318 2.281686 199 206 222
0.023851 -0.207466 2.279956 209 216 232
0.023797 -0.205305 2.274782 215 221 238
0.023750 -0.203208 2.270228 217 222 240
0.023714 -0.201222 2.266856 226 231 247
0.023665 -0.199125 2.262155 233 238 253
0.023658 -0.197387 2.261499 233 237 252
0.023612 -0.195329 2.257124 231 234 251
0.023550 -0.193137 2.251122 226 229 246
0.023651 -0.192293 2.260856 218 222 236
0.023733 -0.191271 2.268649 210 214 226
0.023577 -0.181648 2.253785 167 172 187
0.023515 -0.179500 2.247855 161 164 179
0.023471 -0.177496 2.243634 159 160 174
0.023543 -0.176365 2.250456 160 159 172
0.023702 -0.175878 2.265723 161 161 172
0.023733 -0.174417 2.268604 158 158 168
0.023719 -0.172636 2.267350 155 155 162
0.023716 -0.170928 2.267037 154 156 161
0.023701 -0.169140 2.265633 154 157 163
0.023690 -0.167373 2.264504 155 157 165
0.023733 -0.165998 2.268693 156 159 168
0.023721 -0.164226 2.267498 157 159 168
0.023690 -0.162327 2.264504 159 159 167
0.023660 -0.160444 2.261666 161 162 168
0.023620 -0.158499 2.257892 164 165 170
0.023680 -0.157216 2.263557 164 165 170
0.023527 -0.154533 2.248980 164 165 171
0.023368 -0.151827 2.233754 165 165 173
0.023477 -0.150872 2.244225 165 165 175
0.023557 -0.149708 2.251787 165 166 176
0.023612 -0.148383 2.257068 164 166 176
0.023615 -0.146725 2.257365 165 168 177
0.023631 -0.145146 2.258882 168 170 180
0.023625 -0.143431 2.258300 168 171 180
0.023703 -0.142226 2.265817 168 171 180
0.023733 -0.140720 2.268676 168 173 180
0.023754 -0.125666 2.270695 169 170 175
0.023869 -0.124579 2.281686 169 169 173
0.023797 -0.122513 2.274782 168 168 172
0.023766 -0.120663 2.271767 169 169 173
0.023781 -0.115677 2.273258 169 169 172
0.023732 -0.113752 2.268550 168 168 172
0.023682 -0.111831 2.263774 169 169 172
0.023412 -0.059024 2.237936 156 160 163
0.023499 -0.057575 2.246259 126 130 132
0.023503 -0.055916 2.246625 109 113 114
0.023514 -0.054274 2.247729 122 125 125
0.022081 0.173225 2.110699 187 178 169
0.022079 0.174783 2.110581 187 178 169
0.022106 0.176565 2.113153 187 177 168
0.022073 0.177864 2.109940 185 177 168
0.022049 0.179242 2.107718 185 178 168
0.022041 0.180739 2.106915 184 178 168
0.022001 0.181976 2.103122 183 178 169
0.021778 0.201773 2.081735 155 167 164
0.021773 0.203272 2.081250 135 147 144
0.021795 0.205033 2.083436 123 134 131
0.021775 0.206384 2.081455 122 134 130
0.021748 0.207673 2.078885 129 140 137
0.021711 0.208860 2.075341 135 145 142
0.021723 0.210518 2.076481 138 148 145
0.021723 0.212063 2.076508 148 155 153
0.021747 0.213843 2.078818 146 152 150
0.021736 0.215275 2.077743 134 139 137
0.021726 0.216724 2.076834 116 120 119
0.021720 0.218205 2.076253 95 98 97
0.021718 0.219721 2.076007 71 73 72
0.021717 0.221253 2.075913 46 48 47
0.021735 0.222983 2.077662 28 31 30
0.021749 0.224672 2.079012 15 21 19
0.021758 0.226311 2.079881 8 17 15
0.021758 0.227852 2.079846 8 17 16
0.021721 0.229003 2.076275 8 16 15
0.021689 0.230210 2.073254 8 14 15
0.021688 0.231745 2.073211 6 12 13
0.021659 0.232968 2.070400 3 9 9
0.021609 0.233963 2.065600 1 5 4
0.021565 0.235019 2.061411 0 4 1
0.021548 0.236367 2.059814 1 6 2
0.021578 0.238229 2.062685 0 4 0
0.025836 -0.322880 2.305987 102 110 120
0.025816 -0.319202 2.304164 65 75 87
0.025753 -0.316721 2.298581 55 66 79
0.025840 -0.312652 2.306344 39 52 68
0.025740 -0.309724 2.297338 26 39 54
0.025521 -0.303706 2.277797 25 39 52
0.025532 -0.302148 2.278805 33 47 60
0.026041 -0.301268 2.324253 19 35 51
0.025901 -0.297931 2.311755 19 34 50
0.026113 -0.296903 2.330639 35 48 65
0.025513 -0.288393 2.277112 40 53 70
0.025485 -0.286392 2.274657 40 53 69
0.025314 -0.282783 2.259320 38 52 68
0.025405 -0.282125 2.267518 37 53 68
0.025299 -0.279263 2.257998 36 52 67
0.025204 -0.276551 2.249578 33 51 65
0.025201 -0.274841 2.249260 30 48 62
0.025169 -0.272821 2.246380 29 45 60
0.025192 -0.271406 2.248488 26 42 57
0.025226 -0.270098 2.251506 26 39 55
0.025273 -0.268926 2.255697 24 37 53
0.025269 -0.267206 2.255321 14 26 42
0.025328 -0.266153 2.260609 16 28 43
0.025312 -0.264308 2.259188 17 29 42
0.025244 -0.261921 2.253089 16 29 40
0.025181 -0.259596 2.247454 16 29 38
0.025150 -0.257610 2.244696 15 28 36
0.025235 -0.256814 2.252337 13 26 34
0.025278 -0.255572 2.256136 11 24 32
0.025372 -0.254838 2.264504 11 25 34
0.025434 -0.253781 2.270099 18 32 41
0.025455 -0.252301 2.271955 16 29 38
0.025475 -0.250809 2.273724 15 26 35
0.025410 -0.248484 2.267920 23 33 41
0.025434 -0.247031 2.270048 33 41 48
0.025484 -0.245832 2.274558 45 51 57
0.025507 -0.244357 2.276558 63 67 73
0.025421 -0.241850 2.268898 93 92 103
0.025525 -0.241147 2.278175 118 114 127
0.025421 -0.238482 2.268923 145 143 151
0.025557 -0.238064 2.281068 149 150 155
0.025786 -0.238490 2.301530 157 158 162
0.025722 -0.236185 2.295740 161 164 170
0.025724 -0.234502 2.295956 149 153 162
0.025449 -0.230306 2.271388 161 169 182
0.025212 -0.219807 2.250271 121 131 150
0.025203 -0.218060 2.249490 65 71 93
0.025419 -0.218244 2.268775 57 61 86
0.025348 -0.215948 2.262375 77 80 105
0.025482 -0.212027 2.274385 210 217 235
0.025605 -0.211349 2.285322 214 222 238
0.025450 -0.208383 2.271502 209 217 233
0.025428 -0.206521 2.269575 214 221 237
0.025410 -0.204688 2.267948 221 228 245
0.025381 -0.202770 2.265337 225 231 250
0.025421 -0.201402 2.268880 222 228 247
0.025410 -0.199630 2.267900 219 224 245
0.025397 -0.197850 2.266802 220 223 243
0.025365 -0.195919 2.263948 218 221 240
0.025414 -0.194610 2.268284 212 215 233
0.025396 -0.192785 2.266638 204 207 222
0.025213 -0.181369 2.250328 169 171 185
0.025198 -0.179590 2.248980 164 165 178
0.025046 -0.176852 2.235485 162 162 174
0.025363 -0.177405 2.263730 161 161 171
0.025481 -0.176542 2.274273 160 160 170
0.025450 -0.174642 2.271529 158 159 165
0.025467 -0.173064 2.272974 155 156 162
0.025466 -0.171375 2.272965 154 156 161
0.025482 -0.169792 2.274365 154 157 163
0.025458 -0.167943 2.272204 155 158 165
0.025442 -0.166151 2.270786 156 159 166
0.025462 -0.164592 2.272553 157 159 167
0.025443 -0.162781 2.270833 158 159 166
0.025488 -0.161380 2.274865 160 161 166
0.025505 -0.159799 2.276408 162 163 167
0.025453 -0.157787 2.271781 162 163 167
0.025488 -0.156315 2.274922 162 163 168
0.025447 -0.154374 2.271223 163 163 170
0.025164 -0.149321 2.245965 162 164 174
0.025321 -0.148575 2.260000 162 165 174
0.025395 -0.147326 2.266613 162 165 174
0.025400 -0.145669 2.267023 161 165 173
0.025410 -0.144044 2.267953 161 166 172
0.025413 -0.142373 2.268164 161 166 172
0.025416 -0.140708 2.268474 162 167 172
0.025410 -0.138989 2.267920 163 168 174
0.025390 -0.137196 2.266129 164 169 175
0.025398 -0.135557 2.266868 164 169 176
0.025314 -0.133432 2.259400 165 169 176
0.025372 -0.132051 2.264504 167 168 176
0.025431 -0.130672 2.269763 167 167 175
0.025462 -0.129145 2.272550 165 166 173
0.025499 -0.127644 2.275889 164 164 170
0.025443 -0.125678 2.270917 162 163 167
0.025525 -0.124389 2.278201 161 162 164
0.025547 -0.122801 2.280126 160 161 163
0.025518 -0.120971 2.277565 160 162 162
0.025500 -0.119196 2.275969 162 163 164
0.025578 -0.117864 2.282923 160 162 162
0.025543 -0.116008 2.279764 158 160 161
0.025567 -0.114423 2.281920 158 159 160
0.025472 -0.112311 2.273492 157 159 159
0.025459 -0.110565 2.272316 158 159 160
0.025457 -0.108870 2.272149 159 160 160
0.025509 -0.107400 2.276778 165 165 165
0.025044 -0.060615 2.235295 128 132 136
0.024998 -0.058844 2.231112 65 70 74
0.025134 -0.057499 2.243290 27 32 35
0.025152 -0.055873 2.244883 9 14 17
0.025205 -0.054320 2.249649 50 52 54
0.023606 0.171350 2.106928 184 178 169
0.023629 0.173081 2.108947 185 177 169
0.023382 0.196075 2.086923 162 166 166
0.023368 0.197511 2.085717 127 132 134
0.023346 0.198869 2.083713 104 112 112
0.023329 0.200268 2.082163 71 81 82
0.023307 0.201629 2.080251 44 57 58
0.023346 0.203514 2.083733 15 29 30
0.023344 0.205039 2.083505 2 12 13
0.023319 0.206366 2.081273 0 11 12
0.023318 0.207906 2.081219 6 19 20
0.023342 0.209670 2.083386 11 23 24
0.023285 0.210694 2.078223 10 22 22
0.023279 0.212185 2.077704 2 9 11
0.023287 0.213800 2.078404 0 4 5
0.023277 0.215251 2.077507 0 3 5
0.023266 0.216693 2.076539 0 5 7
0.023254 0.218125 2.075490 2 8 11
0.023269 0.219809 2.076834 5 10 13
0.023275 0.221412 2.077405 3 8 11
0.023280 0.223004 2.077859 1 4 6
0.023297 0.224711 2.079368 0 5 6
0.023303 0.226308 2.079853 0 8 8
0.023294 0.227764 2.079043 0 8 8
0.023238 0.228761 2.074086 0 7 9
0.023214 0.230067 2.071966 0 6 10
0.023247 0.231929 2.074854 0 7 11
0.023223 0.233234 2.072757 0 8 11
0.023178 0.234311 2.068679 0 10 11
0.023141 0.235472 2.065380 4 13 12
0.023091 0.236499 2.060966 8 17 13
0.023063 0.237738 2.058437 3 10 7
0.027441 -0.321613 2.296935 105 111 120
0.027501 -0.320601 2.301921 87 94 105
0.027467 -0.318505 2.299131 71 79 90
0.027517 -0.317370 2.303293 63 72 83
0.027464 -0.315052 2.298860 61 72 84
0.027488 -0.313621 2.300890 54 66 78
0.027482 -0.311838 2.300343 38 50 62
0.027406 -0.309276 2.294015 24 37 49
0.027385 -0.307335 2.292246 21 35 46
0.027291 -0.304580 2.284353 28 42 53
0.027263 -0.302574 2.282019 35 49 60
0.027198 -0.300162 2.276582 36 50 61
0.027330 -0.299915 2.287595 33 48 60
0.027540 -0.300509 2.305189 29 45 60
0.027520 -0.298583 2.303534 26 42 58
0.027824 -0.300148 2.328955 25 41 57
0.027944 -0.299711 2.339048 30 45 61
0.027723 -0.295611 2.320501 37 50 67
0.027324 -0.289666 2.287166 39 52 69
0.027287 -0.287570 2.284011 38 52 67
0.027201 -0.284979 2.276865 35 50 65
0.027128 -0.282526 2.270743 33 49 64
0.027109 -0.280640 2.269129 32 48 63
0.027042 -0.278263 2.263506 30 48 61
0.027012 -0.276276 2.261003 28 45 58
0.027010 -0.274583 2.260888 27 43 56
0.027030 -0.273104 2.262555 25 41 54
0.027073 -0.271855 2.266145 25 38 52
0.027112 -0.270562 2.269420 22 36 50
0.027092 -0.268673 2.267706 11 23 39
0.027138 -0.267444 2.271569 16 28 43
0.027129 -0.265672 2.270848 18 30 42
0.027088 -0.263579 2.267350 17 29 39
0.026972 -0.260775 2.257662 16 29 38
0.027058 -0.259927 2.264881 17 30 38
0.027066 -0.258323 2.265571 14 27 35
0.027091 -0.256870 2.267596 9 22 30
0.027144 -0.255684 2.272026 12 26 35
0.027184 -0.254378 2.275441 18 32 41
0.027216 -0.252984 2.278105 16 29 38
0.027156 -0.250736 2.273063 14 26 35
0.027159 -0.249080 2.273359 22 32 39
0.027182 -0.247593 2.275212 30 39 45
0.027237 -0.246404 2.279846 42 49 54
0.027305 -0.245319 2.285517 60 64 71
0.027271 -0.243319 2.282680 95 94 106
0.027198 -0.240981 2.276606 117 113 127
0.027250 -0.239746 2.280950 139 137 148
0.027236 -0.237926 2.279744 142 142 150
0.027352 -0.237241 2.289473 151 152 159
0.027329 -0.235339 2.287517 156 158 168
0.027355 -0.233870 2.289767 143 148 160
0.027198 -0.230835 2.276606 154 163 178
0.026822 -0.220971 2.245111 204 222 234
0.026878 -0.219765 2.249843 117 128 144
0.027023 -0.219268 2.261949 65 71 89
0.026986 -0.217288 2.258834 66 68 89
0.026857 -0.214583 2.248074 92 93 115
0.027091 -0.214767 2.267641 139 144 164
0.027199 -0.212241 2.276686 222 230 247
0.027215 -0.210672 2.278003 224 233 249
0.027099 -0.208089 2.268289 215 224 241
0.027059 -0.206102 2.264969 216 224 241
0.027120 -0.204877 2.270035 220 228 246
0.027176 -0.203615 2.274782 223 230 249
0.027196 -0.202072 2.276429 220 225 246
0.027135 -0.199934 2.271346 216 221 243
0.027129 -0.198202 2.270833 216 219 241
0.027106 -0.196343 2.268848 214 216 236
0.027115 -0.194725 2.269632 208 211 229
0.026811 -0.179210 2.244225 167 168 179
0.027077 -0.179300 2.266436 165 164 173
0.027118 -0.177888 2.269902 162 161 168
0.027126 -0.176253 2.270560 159 158 164
0.027127 -0.174571 2.270611 156 157 163
0.027177 -0.173206 2.274838 156 157 164
0.027174 -0.171496 2.274569 154 157 164
0.027199 -0.169962 2.276648 154 158 165
0.027153 -0.167985 2.272786 155 159 166
0.027178 -0.166454 2.274922 157 160 166
0.027154 -0.164620 2.272935 158 160 166
0.027167 -0.163009 2.274018 159 160 166
0.027156 -0.161253 2.273063 160 161 165
0.027171 -0.159650 2.274291 161 162 164
0.027149 -0.157839 2.272526 160 162 165
0.027132 -0.156048 2.271034 160 163 167
0.027174 -0.154602 2.274580 161 164 169
0.026537 -0.147680 2.221293 163 166 173
0.026637 -0.146579 2.229633 163 166 174
0.027020 -0.147005 2.261666 161 165 172
0.027026 -0.145358 2.262181 158 163 169
0.026932 -0.143178 2.254319 159 164 168
0.026803 -0.139160 2.243532 159 166 169
0.026821 -0.137584 2.244998 160 167 170
0.026781 -0.135718 2.241715 160 167 171
0.026767 -0.133982 2.240529 161 167 172
0.026692 -0.131945 2.234221 162 167 173
0.026822 -0.130920 2.245111 163 166 172
0.026996 -0.130094 2.259718 162 164 170
0.027095 -0.128886 2.267998 160 163 168
0.027105 -0.127245 2.268775 158 161 164
0.026961 -0.124896 2.256779 155 158 159
0.027020 -0.123486 2.261666 153 156 156
0.027138 -0.120653 2.271582 152 155 154
0.027123 -0.118897 2.270274 152 155 154
0.027159 -0.117370 2.273359 151 154 153
0.027152 -0.115649 2.272719 150 153 152
0.027385 -0.114940 2.292246 149 152 151
0.026965 -0.109823 2.257068 151 154 152
0.026940 -0.108046 2.254953 153 155 153
0.027018 -0.106682 2.261557 157 158 157
0.027014 -0.104985 2.261173 162 162 162
0.027015 -0.103311 2.261311 164 164 164
0.026642 -0.063786 2.230078 162 166 168
0.026787 -0.062468 2.242217 107 112 117
0.026734 -0.060681 2.237741 45 50 56
0.026603 -0.058730 2.226776 6 10 16
0.026731 -0.057351 2.237507 0 4 9
0.026751 -0.055732 2.239211 0 4 8
0.026804 -0.054175 2.243608 30 32 36
0.024934 0.191441 2.087095 163 164 160
0.024933 0.192981 2.086989 135 138 135
0.024929 0.194504 2.086694 101 106 107
0.024992 0.196544 2.091909 65 70 73
0.024985 0.198047 2.091381 28 36 40
0.024945 0.199277 2.087987 6 13 17
0.024896 0.200438 2.083939 1 10 14
0.024923 0.202204 2.086189 2 13 18
0.024925 0.203770 2.086359 4 17 22
0.024931 0.205371 2.086871 5 17 23
0.024925 0.206870 2.086359 5 15 21
0.025081 0.209718 2.099359 3 14 19
0.025091 0.211363 2.100208 2 14 20
0.024925 0.211520 2.086369 3 16 23
0.024877 0.212655 2.082307 2 10 16
0.024855 0.214012 2.080467 0 6 13
0.024861 0.215613 2.081007 0 5 12
0.024852 0.217080 2.080251 0 6 12
0.024842 0.218533 2.079368 0 5 12
0.024877 0.220385 2.082275 0 5 12
0.024863 0.221815 2.081178 0 4 11
0.024889 0.223593 2.083345 0 5 10
0.024886 0.225113 2.083095 0 7 11
0.024892 0.226711 2.083555 0 10 13
0.024894 0.228274 2.083702 0 11 15
0.024854 0.229455 2.080370 0 12 18
0.024799 0.230494 2.075818 1 14 21
0.024779 0.231843 2.074091 4 16 24
0.024748 0.233096 2.071535 6 18 25
0.024730 0.234457 2.069965 8 21 24
0.024687 0.235590 2.066416 7 20 20
0.024609 0.236378 2.059910 2 14 12
0.024517 0.237012 2.052146 1 11 9
0.029184 -0.318602 2.299834 78 86 96
0.029095 -0.315926 2.292812 73 81 91
0.029130 -0.314608 2.295620 70 79 90
0.029021 -0.311726 2.286988 60 70 81
0.029141 -0.311310 2.296451 44 54 66
0.029085 -0.309006 2.292011 33 43 54
0.028978 -0.306176 2.283599 33 43 53
0.028927 -0.303943 2.279570 40 50 60
0.028863 -0.301583 2.274545 43 53 63
0.028937 -0.300665 2.280397 37 48 59
0.029009 -0.299709 2.286022 33 47 61
0.029086 -0.298810 2.292150 33 50 66
0.029645 -0.299343 2.336176 35 50 66
0.029552 -0.296669 2.328805 37 50 67
0.029248 -0.291912 2.304903 37 50 67
0.028923 -0.286973 2.279270 33 49 64
0.028812 -0.284181 2.270488 31 47 62
0.028768 -0.282064 2.267033 30 46 59
0.028648 -0.279210 2.257570 29 47 59
0.028610 -0.277170 2.254614 28 46 58
0.028655 -0.275925 2.258128 27 45 56
0.028646 -0.274166 2.257458 27 44 54
0.028699 -0.272987 2.261585 26 43 53
0.028695 -0.271270 2.261275 27 41 52
0.028727 -0.269892 2.263804 26 40 53
0.028760 -0.268517 2.266387 20 32 48
0.028791 -0.267122 2.268836 23 35 50
0.028781 -0.265345 2.268051 22 34 47
0.028732 -0.263217 2.264241 16 28 39
0.028757 -0.261760 2.266183 15 28 37
0.028605 -0.258704 2.254230 19 32 40
0.028721 -0.258072 2.263368 19 32 40
0.028690 -0.256115 2.260929 14 27 35
0.028829 -0.255670 2.271899 14 28 37
0.028798 -0.253704 2.269413 20 34 43
0.028827 -0.252271 2.271689 17 30 39
0.028749 -0.249912 2.265594 14 25 35
0.028798 -0.248645 2.269387 21 31 39
0.028822 -0.247165 2.271281 27 36 42
0.028903 -0.246171 2.277689 39 45 50
0.028920 -0.244622 2.279026 56 59 66
0.028881 -0.242600 2.275930 93 92 104
0.028925 -0.241277 2.279410 113 109 125
0.028868 -0.239113 2.274922 133 131 144
0.028939 -0.238004 2.280493 135 134 146
0.028967 -0.236540 2.282705 147 146 157
0.028962 -0.234803 2.282305 153 154 166
0.029101 -0.234229 2.293286 138 143 157
0.028892 -0.230859 2.276849 147 157 173
0.028639 -0.223803 2.256856 212 237 249
0.028431 -0.220520 2.240529 204 224 237
0.028542 -0.219709 2.249260 117 130 143
0.028494 -0.217672 2.245481 66 71 87
0.028376 -0.213447 2.236166 121 120 141
0.028521 -0.212867 2.247579 162 166 186
0.028810 -0.213341 2.270396 199 207 226
0.028870 -0.212090 2.275069 223 232 249
0.028841 -0.210191 2.272803 224 233 250
0.028764 -0.207950 2.266773 217 226 244
0.028825 -0.206702 2.271566 216 225 242
0.028891 -0.205479 2.276711 217 224 243
0.028910 -0.203924 2.278229 217 224 244
0.028862 -0.201894 2.274424 217 223 244
0.028808 -0.199836 2.270236 215 220 243
0.028812 -0.198176 2.270539 213 216 238
0.028785 -0.196306 2.268419 207 210 230
0.028765 -0.194483 2.266802 200 202 221
0.028816 -0.186395 2.270829 163 170 180
0.028695 -0.183934 2.261311 164 170 180
0.028415 -0.180473 2.239211 165 168 178
0.028594 -0.179940 2.253369 164 166 173
0.028551 -0.177999 2.249982 161 161 166
0.028797 -0.177842 2.269310 157 157 160
0.028837 -0.176403 2.272482 154 154 157
0.028832 -0.174687 2.272119 151 153 158
0.028844 -0.173071 2.273063 151 154 161
0.028834 -0.171320 2.272229 150 154 161
0.028806 -0.169467 2.270019 150 155 161
0.028808 -0.167797 2.270240 152 156 161
0.028823 -0.166196 2.271401 153 156 161
0.028886 -0.164866 2.276326 154 157 162
0.028822 -0.162814 2.271295 155 157 161
0.028798 -0.160993 2.269405 156 157 160
0.028850 -0.159598 2.273547 156 158 158
0.028830 -0.157800 2.271964 156 159 159
0.028817 -0.156040 2.270917 156 160 162
0.028824 -0.154388 2.271427 158 161 165
0.028822 -0.152690 2.271274 159 162 166
0.028220 -0.146198 2.223835 160 165 169
0.028329 -0.145109 2.232498 159 164 169
0.028836 -0.146013 2.272379 158 163 167
0.028860 -0.144448 2.274307 158 164 167
0.028655 -0.140066 2.258128 158 166 168
0.028345 -0.131917 2.233754 160 166 171
0.028741 -0.132075 2.264917 160 164 169
0.028822 -0.130759 2.271274 159 163 167
0.028853 -0.129214 2.273779 157 161 164
0.028866 -0.127582 2.274782 155 159 160
0.028813 -0.125660 2.270590 152 157 155
0.028888 -0.124299 2.276548 150 155 152
0.028869 -0.122525 2.275017 149 153 151
0.028897 -0.120952 2.277202 148 152 150
0.028932 -0.119405 2.279956 146 151 148
0.028956 -0.117808 2.281843 146 150 148
0.028890 -0.115850 2.276668 145 149 147
0.029034 -0.114727 2.287999 145 149 147
0.028968 -0.112773 2.282841 146 151 148
0.028886 -0.110763 2.276371 148 153 148
0.028781 -0.108674 2.268063 150 154 150
0.028824 -0.107151 2.271502 152 154 152
0.028810 -0.105413 2.270390 152 153 154
0.028779 -0.103612 2.267887 154 154 156
0.028857 -0.102205 2.274074 156 156 158
0.028842 -0.100463 2.272876 159 159 160
0.028896 -0.098960 2.277139 162 162 162
0.028939 -0.097414 2.280532 164 164 164
0.028949 -0.095753 2.281310 166 166 166
0.028290 -0.065423 2.229414 149 152 152
0.028300 -0.063789 2.230153 89 93 97
0.028434 -0.062427 2.240728 30 35 40
0.028441 -0.060778 2.241298 5 9 16
0.028367 -0.058959 2.235466 0 1 10
0.028424 -0.057414 2.239969 0 0 8
0.028444 -0.054124 2.241523 16 17 20
0.026554 0.185725 2.092568 160 162 157
0.026520 0.187043 2.089925 145 146 142
0.026491 0.188390 2.087647 102 103 99
0.026491 0.189941 2.087647 81 84 79
0.026466 0.191310 2.085673 50 53 50
0.026498 0.193091 2.088182 19 25 24
0.026493 0.194606 2.087792 2 8 11
0.026518 0.196343 2.089776 0 7 10
0.026508 0.197814 2.088919 6 14 21
0.026487 0.199212 2.087308 11 21 30
0.026529 0.201081 2.090616 4 18 27
0.026520 0.202567 2.089931 10 27 36
0.026506 0.204006 2.088773 22 39 48
0.026472 0.205294 2.086096 30 48 56
0.026501 0.207074 2.088416 31 48 57
0.026529 0.208845 2.090616 27 44 53
0.026632 0.211217 2.098756 23 40 49
0.026457 0.211374 2.084934 23 38 47
0.026426 0.212675 2.082500 18 33 42
0.026419 0.214163 2.081932 14 28 37
0.026397 0.215534 2.080237 10 24 33
0.026402 0.217121 2.080638 6 20 29
0.026409 0.218719 2.081146 3 17 26
0.026423 0.220384 2.082265 1 14 23
0.026432 0.222009 2.082999 0 13 22
0.026394 0.223227 2.079933 0 12 20
0.026407 0.224890 2.081030 1 15 21
0.026410 0.226454 2.081199 2 17 22
0.026422 0.228109 2.082191 2 17 23
0.026368 0.229182 2.077901 2 17 24
0.026309 0.230213 2.073284 2 18 26
0.026276 0.231465 2.070705 2 19 27
0.026261 0.232870 2.069529 4 20 28
0.026263 0.234417 2.069615 5 21 26
0.026209 0.235469 2.065358 5 19 21
0.026174 0.236695 2.062669 0 13 12
0.026067 0.237247 2.054181 0 11 10
0.030765 -0.317292 2.290375 78 86 95
0.031064 -0.318652 2.312592 73 82 91
0.031072 -0.317017 2.313199 68 78 86
0.030810 -0.310940 2.293720 43 53 62
0.030701 -0.308146 2.285627 35 47 55
0.030650 -0.305935 2.281800 37 50 59
0.030601 -0.303750 2.278127 44 57 66
0.032348 -0.317519 2.408228 34 49 59
0.031848 -0.307322 2.370959 34 51 67
0.031442 -0.301671 2.340774 36 53 69
0.031325 -0.297086 2.332077 37 53 69
0.030826 -0.290645 2.294895 36 52 68
0.030604 -0.286858 2.278362 35 51 66
0.030560 -0.284759 2.275105 32 50 64
0.030489 -0.282406 2.269783 29 48 61
0.030346 -0.279410 2.259188 30 49 60
0.030297 -0.277280 2.255512 30 50 61
0.030363 -0.276209 2.260456 30 50 60
0.030359 -0.274488 2.260112 30 49 60
0.030359 -0.272810 2.260112 30 48 60
0.030329 -0.270868 2.257923 31 48 60
0.030390 -0.269729 2.262432 31 46 60
0.030344 -0.267646 2.259036 30 43 59
0.030481 -0.267165 2.269204 31 44 59
0.030473 -0.265416 2.268660 24 38 51
0.030444 -0.263477 2.266473 14 27 39
0.030468 -0.262002 2.268284 13 26 35
0.030312 -0.258984 2.256661 21 34 43
0.030311 -0.257300 2.256594 25 38 46
0.030451 -0.256798 2.266960 22 35 44
0.030465 -0.255231 2.267998 18 32 41
0.030459 -0.253497 2.267554 23 37 46
0.030454 -0.251773 2.267200 19 32 41
0.030391 -0.249569 2.262486 14 26 36
0.030388 -0.247871 2.262329 20 29 39
0.030333 -0.245744 2.258220 26 34 42
0.030556 -0.245856 2.274782 36 42 48
0.030575 -0.244322 2.276232 52 56 64
0.030558 -0.242496 2.274957 86 87 99
0.030520 -0.240507 2.272134 104 102 118
0.030569 -0.239200 2.275750 124 123 136
0.030498 -0.236960 2.270488 127 126 139
0.030817 -0.237737 2.294258 140 139 152
0.030554 -0.234013 2.274626 147 149 161
0.030627 -0.232882 2.280092 130 136 151
0.030543 -0.230555 2.273844 138 150 166
0.030281 -0.223552 2.254319 212 239 248
0.030143 -0.220865 2.244031 201 223 234
0.030204 -0.216306 2.248630 106 106 123
0.030034 -0.213422 2.235913 146 144 163
0.030371 -0.212463 2.261053 203 213 232
0.030448 -0.211317 2.266773 216 227 246
0.030480 -0.209854 2.269164 216 227 245
0.030501 -0.208309 2.270685 216 225 244
0.030514 -0.206710 2.271650 217 225 244
0.030524 -0.205090 2.272402 214 221 241
0.030504 -0.203270 2.270917 212 218 239
0.030503 -0.201575 2.270833 210 215 238
0.030506 -0.199912 2.271101 207 211 235
0.030466 -0.197961 2.268072 202 205 228
0.030431 -0.189320 2.265470 168 171 182
0.030360 -0.187205 2.260249 164 170 178
0.030465 -0.186162 2.267998 161 168 176
0.030343 -0.183739 2.258923 160 165 174
0.030243 -0.181464 2.251506 159 161 170
0.030220 -0.179655 2.249792 158 158 164
0.030024 -0.176826 2.235163 156 156 159
0.030505 -0.176290 2.271034 154 154 155
0.030504 -0.174594 2.270917 152 152 156
0.030528 -0.173047 2.272744 149 150 160
0.030479 -0.171083 2.269081 148 151 162
0.030460 -0.169292 2.267667 148 152 162
0.030474 -0.165999 2.268705 150 155 158
0.030461 -0.164244 2.267747 151 155 159
0.030459 -0.162548 2.267578 152 155 159
0.030349 -0.160283 2.259400 151 155 156
0.030475 -0.159263 2.268775 151 154 154
0.030480 -0.157603 2.269132 152 155 154
0.030478 -0.155910 2.269027 153 157 157
0.030506 -0.154364 2.271082 154 158 161
0.030456 -0.152430 2.267396 156 160 163
0.030501 -0.150967 2.270722 157 161 165
0.030392 -0.145386 2.262611 158 163 166
0.030489 -0.144161 2.269783 157 163 166
0.030489 -0.142476 2.269809 156 164 166
0.030474 -0.137351 2.268688 158 167 167
0.030512 -0.135836 2.271539 158 167 168
0.030430 -0.133788 2.265435 159 166 169
0.030440 -0.132149 2.266183 160 164 167
0.030499 -0.130720 2.270596 159 163 165
0.030509 -0.129073 2.271295 157 161 162
0.030501 -0.127351 2.270673 155 160 158
0.030497 -0.125652 2.270447 153 158 154
0.030554 -0.124197 2.274675 151 156 151
0.030571 -0.122573 2.275897 150 155 150
0.030579 -0.120916 2.276527 148 153 148
0.030632 -0.119432 2.280475 146 151 146
0.030733 -0.118126 2.287999 145 150 145
0.030627 -0.116026 2.280126 144 149 144
0.030615 -0.114287 2.279216 143 148 143
0.030621 -0.112616 2.279651 144 149 144
0.030590 -0.110811 2.277366 145 150 144
0.030513 -0.108845 2.271632 147 152 146
0.030511 -0.107148 2.271438 147 151 147
0.030487 -0.105377 2.269632 147 148 148
0.030364 -0.103275 2.260515 148 148 150
0.030334 -0.101494 2.258257 148 149 151
0.030504 -0.100377 2.270917 149 150 151
0.030540 -0.098808 2.273645 151 151 152
0.030575 -0.097228 2.276191 152 152 152
0.030719 -0.095990 2.286967 153 153 153
0.030934 -0.094951 2.302958 151 151 151
0.030888 -0.093101 2.299513 147 148 148
0.031031 -0.088384 2.310169 154 155 153
0.029977 -0.072121 2.231699 223 214 209
0.029996 -0.067190 2.233085 118 121 116
0.029983 -0.065504 2.232165 65 70 69
0.029943 -0.063759 2.229134 20 25 30
0.030124 -0.062481 2.242680 0 3 10
0.030103 -0.060772 2.241066 0 2 10
0.029981 -0.058867 2.231974 0 2 11
0.030132 -0.057498 2.243220 4 7 16
0.029980 -0.055551 2.231941 6 10 18
0.029943 -0.053825 2.229146 3 5 10
0.029819 -0.051954 2.219926 54 52 54
0.030313 -0.051138 2.256701 162 156 154
0.030506 -0.049777 2.271054 224 216 213
0.028228 0.180274 2.101490 158 160 159
0.028219 0.181775 2.100805 135 137 136
0.028141 0.182831 2.095018 110 114 113
0.028098 0.184107 2.091836 84 88 87
0.028055 0.185376 2.088636 61 63 61
0.028030 0.186760 2.086767 43 45 43
0.028042 0.188390 2.087647 7 11 8
0.028059 0.190056 2.088912 4 9 6
0.028033 0.191433 2.087008 3 9 8
0.028040 0.193029 2.087506 2 10 9
0.028054 0.194673 2.088511 0 9 11
0.028106 0.196589 2.092396 0 9 16
0.028099 0.198099 2.091921 3 10 20
0.028127 0.199848 2.093971 4 10 22
0.028080 0.201067 2.090470 5 20 34
0.028047 0.202385 2.088050 11 29 42
0.028063 0.204048 2.089201 20 38 51
0.028073 0.205676 2.089979 27 45 58
0.028021 0.206840 2.086061 29 47 60
0.028077 0.208805 2.090213 29 47 60
0.028088 0.210442 2.091057 30 48 60
0.028003 0.211354 2.084729 32 49 62
0.027904 0.212148 2.077347 38 54 67
0.027892 0.213600 2.076463 37 53 66
0.027928 0.215424 2.079179 32 48 61
0.027931 0.216988 2.079368 25 41 54
0.027936 0.218573 2.079750 18 34 47
0.027943 0.220175 2.080289 12 28 41
0.027935 0.221655 2.079683 8 24 37
0.027960 0.223400 2.081551 7 24 35
0.027957 0.224918 2.081283 7 24 32
0.027996 0.226785 2.084241 7 24 30
0.027983 0.228221 2.083217 7 24 29
0.027943 0.229441 2.080248 5 22 29
0.027894 0.230582 2.076610 3 20 29
0.027874 0.231960 2.075137 2 19 28
0.027876 0.233522 2.075316 2 19 26
0.027825 0.234627 2.071469 2 19 25
0.027790 0.235868 2.068859 1 18 20
0.027714 0.236759 2.063233 0 15 15
0.027663 0.237853 2.059430 0 13 13
0.032769 -0.318533 2.311728 70 79 86
0.032750 -0.316631 2.310384 59 69 75
0.032628 -0.312035 2.301794 44 56 62
0.032429 -0.308426 2.287708 40 55 60
0.033010 -0.308766 2.328717 35 54 64
0.033070 -0.298927 2.332926 35 53 67
0.032959 -0.296199 2.325112 34 52 66
0.032911 -0.294042 2.321722 34 52 66
0.032335 -0.287205 2.281117 34 53 67
0.032250 -0.284763 2.275138 31 53 66
0.032086 -0.281632 2.263557 28 51 63
0.032003 -0.279224 2.257684 33 57 69
0.031971 -0.277273 2.255453 35 61 72
0.031946 -0.275377 2.253643 35 60 71
0.032020 -0.274339 2.258882 35 60 72
0.032032 -0.272765 2.259745 38 61 73
0.031955 -0.270436 2.254319 37 60 72
0.032017 -0.269278 2.258649 35 56 70
0.032060 -0.267963 2.261717 29 46 63
0.032100 -0.266612 2.264504 25 40 58
0.032245 -0.266132 2.274782 17 32 47
0.032078 -0.263068 2.262955 16 31 46
0.032120 -0.261730 2.265926 22 35 49
0.032100 -0.259884 2.264504 20 34 45
0.032197 -0.258982 2.271346 18 30 41
0.032008 -0.255789 2.258051 23 35 46
0.032158 -0.255297 2.268589 22 35 46
0.032121 -0.253324 2.266010 23 35 46
0.032041 -0.251012 2.260348 20 32 43
0.031937 -0.248528 2.253052 20 33 42
0.031904 -0.246601 2.250733 25 37 46
0.032105 -0.246469 2.264881 31 41 49
0.032219 -0.245658 2.272949 35 44 52
0.032269 -0.244349 2.276481 42 49 58
0.032262 -0.242600 2.275930 69 75 86
0.032262 -0.240915 2.275991 90 94 107
0.032240 -0.239056 2.274385 117 119 130
0.032273 -0.237614 2.276750 123 124 134
0.032489 -0.237501 2.291978 135 137 147
0.032331 -0.234652 2.280842 139 145 154
0.032378 -0.233297 2.284162 120 131 142
0.032261 -0.230761 2.275882 129 145 157
0.032207 -0.225310 2.272053 221 245 252
0.031674 -0.219927 2.234502 200 222 232
0.031991 -0.217098 2.256856 125 128 144
0.031919 -0.214938 2.251787 157 158 175
0.031922 -0.211611 2.251981 202 211 231
0.031936 -0.210027 2.252937 210 220 239
0.031969 -0.208569 2.255266 212 223 241
0.032029 -0.207287 2.259548 216 224 244
0.032041 -0.205683 2.260364 216 224 243
0.032078 -0.204238 2.262955 210 218 237
0.032019 -0.202188 2.258834 206 213 233
0.032106 -0.201054 2.264961 202 208 229
0.032034 -0.198923 2.259863 198 203 223
0.032037 -0.190550 2.260103 167 171 183
0.031960 -0.188418 2.254675 165 169 179
0.032005 -0.187002 2.257793 166 171 178
0.031925 -0.184863 2.252170 166 171 176
0.031886 -0.182966 2.249418 161 165 172
0.031762 -0.180589 2.240655 156 159 165
0.031682 -0.178477 2.235051 153 155 159
0.031666 -0.176726 2.233894 154 155 156
0.031895 -0.176335 2.250079 156 157 157
0.031966 -0.175049 2.255043 158 159 160
0.032149 -0.174368 2.267978 154 156 161
0.032056 -0.172186 2.261439 149 152 160
0.031958 -0.169983 2.254500 149 153 162
0.031949 -0.168264 2.253896 150 154 162
0.031872 -0.166188 2.248464 150 155 160
0.031899 -0.164658 2.250383 151 156 158
0.031919 -0.163088 2.251787 152 157 158
0.031817 -0.160899 2.244584 153 157 159
0.031759 -0.158940 2.240463 152 156 156
0.031884 -0.157893 2.249260 151 155 153
0.031975 -0.156669 2.255685 152 156 154
0.031994 -0.155088 2.257068 153 157 156
0.031964 -0.153268 2.254953 155 159 159
0.031907 -0.151320 2.250884 157 161 163
0.031851 -0.149385 2.246933 158 162 165
0.031924 -0.148055 2.252081 158 163 166
0.031826 -0.145933 2.245182 158 163 166
0.031712 -0.143748 2.237129 157 162 165
0.031846 -0.142690 2.246625 157 162 164
0.031897 -0.141246 2.250207 156 164 164
0.031879 -0.139496 2.248935 156 165 164
0.031919 -0.136327 2.251787 158 167 166
0.031940 -0.134743 2.253258 158 167 166
0.031876 -0.132801 2.248715 159 166 167
0.031924 -0.131327 2.252081 160 164 167
0.032011 -0.130011 2.258283 159 163 165
0.032011 -0.128333 2.258269 158 162 162
0.032056 -0.126832 2.261408 156 161 158
0.032036 -0.125076 2.260037 154 159 155
0.032137 -0.123783 2.267108 153 158 152
0.032100 -0.121959 2.264504 152 157 151
0.032156 -0.120490 2.268508 151 156 150
0.032249 -0.119146 2.275017 148 153 147
0.032519 -0.118442 2.294119 146 151 145
0.032437 -0.116441 2.288284 144 149 143
0.032580 -0.115247 2.298367 142 147 141
0.032317 -0.112624 2.279816 141 146 140
0.032343 -0.111021 2.281686 141 146 140
0.032207 -0.108868 2.272108 142 147 141
0.032205 -0.107173 2.271955 143 147 142
0.032088 -0.105102 2.263705 144 146 145
0.032014 -0.103182 2.258474 144 145 145
0.032108 -0.101801 2.265073 143 145 145
0.032146 -0.100238 2.267774 142 144 145
0.032253 -0.098881 2.275326 142 143 144
0.032292 -0.097309 2.278085 141 143 142
0.032366 -0.095837 2.283325 141 143 141
0.032450 -0.094383 2.289186 138 140 138
0.032466 -0.092731 2.290375 135 138 135
0.032700 -0.089971 2.306846 131 134 132
0.032640 -0.088097 2.302652 131 134 131
0.032435 -0.085844 2.288197 139 142 138
0.032354 -0.083933 2.282439 158 160 157
0.031536 -0.070243 2.224716 174 169 162
0.031625 -0.068786 2.231048 111 110 103
0.031654 -0.067190 2.233093 48 50 46
0.031593 -0.065403 2.228730 11 15 15
0.031666 -0.063896 2.233919 0 3 8
0.031626 -0.060501 2.231098 0 5 14
0.031623 -0.058839 2.230906 0 3 14
0.031762 -0.057433 2.240683 1 5 15
0.031527 -0.053703 2.224090 0 1 6
0.031795 -0.050828 2.243024 138 131 129
0.029789 0.174030 2.101490 166 166 166
0.029773 0.175498 2.100381 142 143 143
