ply
format ascii 1.0
element vertex 1352
property float x
property float y
property float z
property uchar red
property uchar green
property uchar blue
end_header
0.097080 -0.283312 2.250194 29 48 63
0.096802 -0.280833 2.243741 31 48 64
0.096806 -0.279177 2.243828 33 50 66
0.096560 -0.276805 2.238124 34 51 67
0.096607 -0.275276 2.239211 33 50 66
0.096479 -0.273252 2.236257 30 47 63
0.096560 -0.271820 2.238140 25 42 58
0.096495 -0.269975 2.236627 20 37 53
0.096381 -0.267995 2.233971 16 33 50
0.096340 -0.266225 2.233040 21 37 59
0.096485 -0.264964 2.236401 22 38 62
0.096165 -0.262428 2.228974 21 37 60
0.096077 -0.260534 2.226932 19 35 58
0.095998 -0.258669 2.225116 15 31 54
0.096014 -0.257059 2.225484 11 27 48
0.095980 -0.255313 2.224681 6 23 42
0.096070 -0.253900 2.226776 3 20 38
0.096248 -0.252714 2.230906 4 21 38
0.096298 -0.251185 2.232048 5 21 37
0.096175 -0.249209 2.229198 4 20 36
0.096027 -0.247174 2.225787 3 19 34
0.095708 -0.244704 2.218384 2 18 32
0.095519 -0.242576 2.213998 1 17 30
0.095456 -0.240772 2.212538 0 16 29
0.095364 -0.238899 2.210408 0 15 27
0.095154 -0.236734 2.205534 0 13 24
0.095394 -0.235690 2.211108 0 10 21
0.094955 -0.232969 2.200919 0 10 20
0.095779 -0.233342 2.220024 1 11 21
0.095732 -0.231580 2.218934 1 11 21
0.095875 -0.230276 2.222260 1 11 21
0.095645 -0.228077 2.216926 1 11 20
0.095422 -0.225903 2.211762 1 10 19
0.095306 -0.223985 2.209055 1 9 18
0.094496 -0.220455 2.190284 1 8 18
0.094620 -0.219116 2.193159 1 7 17
0.094970 -0.218292 2.201277 1 6 17
0.095227 -0.217242 2.207229 1 5 16
0.095677 -0.216623 2.217672 1 4 16
0.095997 -0.215694 2.225080 1 3 15
0.095947 -0.213930 2.223925 1 3 14
0.096194 -0.212825 2.229655 0 3 13
0.096070 -0.210896 2.226776 0 3 11
0.095458 -0.207910 2.212597 0 4 10
0.095572 -0.206512 2.215230 0 4 10
0.095583 -0.204891 2.215497 0 5 11
0.095224 -0.202481 2.207163 1 6 12
0.094994 -0.200356 2.201830 1 7 13
0.094408 -0.197496 2.188257 0 7 13
0.093967 -0.194955 2.178032 0 7 13
0.094183 -0.193781 2.183025 1 8 14
0.094217 -0.192229 2.183822 0 7 13
0.094127 -0.190425 2.181727 0 7 13
0.093957 -0.188464 2.177802 0 7 13
0.093846 -0.186626 2.175232 0 6 12
0.093830 -0.184978 2.174851 0 6 12
0.093766 -0.183238 2.173370 0 5 11
0.093955 -0.181991 2.177761 0 5 10
0.094310 -0.181054 2.185985 0 5 9
0.094290 -0.179391 2.185508 0 4 9
0.094249 -0.177690 2.184556 1 4 9
0.094365 -0.176285 2.187249 1 4 9
0.094873 -0.175600 2.199020 1 4 9
0.095173 -0.174517 2.205977 1 4 9
0.095410 -0.173310 2.211486 0 3 8
0.095271 -0.171417 2.208250 0 3 8
0.094878 -0.169076 2.199135 0 2 7
0.095394 -0.168354 2.211108 0 2 7
0.095791 -0.167406 2.220317 1 2 7
0.095766 -0.165713 2.219731 1 2 7
0.095772 -0.164074 2.219860 1 2 7
0.095540 -0.162031 2.214477 1 2 7
0.095015 -0.159505 2.202314 1 2 7
0.095062 -0.157948 2.203414 0 2 6
0.095119 -0.156405 2.204736 0 3 6
0.096317 -0.156717 2.232498 0 2 6
0.096367 -0.155140 2.233667 0 2 7
0.095761 -0.152515 2.219609 0 1 8
0.095073 -0.148145 2.203659 1 0 11
0.095189 -0.146687 2.206353 1 0 11
0.094841 -0.144518 2.198289 0 1 11
0.094858 -0.142912 2.198691 0 3 12
0.094853 -0.141270 2.198566 2 11 21
0.095540 -0.140648 2.214477 37 55 65
0.093523 -0.136069 2.167728 83 107 119
0.092785 -0.133398 2.150634 102 128 145
0.091448 -0.129901 2.119633 97 124 145
0.091969 -0.129058 2.131707 83 109 133
0.091963 -0.127466 2.131578 65 92 117
0.091934 -0.125844 2.130918 59 85 110
0.091826 -0.124115 2.128413 50 77 100
0.092106 -0.122907 2.134889 39 66 87
0.091964 -0.121134 2.131598 29 55 72
0.091937 -0.119517 2.130982 23 46 60
0.092017 -0.118036 2.132833 17 39 52
0.092093 -0.116548 2.134592 13 33 42
0.092147 -0.115030 2.135836 10 29 37
0.092010 -0.113275 2.132663 13 31 38
0.092179 -0.111896 2.136595 12 29 37
0.091991 -0.110084 2.132231 11 28 36
0.091974 -0.108480 2.131829 8 25 33
0.092131 -0.107080 2.135484 6 23 31
0.092132 -0.105495 2.135507 4 21 29
0.091983 -0.103740 2.132051 3 20 28
0.092038 -0.102217 2.133311 5 18 24
0.092217 -0.100829 2.137471 2 9 11
0.092345 -0.099378 2.140426 0 4 3
0.092349 -0.097793 2.140514 0 2 1
0.092098 -0.095941 2.134699 0 3 2
0.092088 -0.094346 2.134470 0 3 4
0.092202 -0.092875 2.137121 0 3 7
0.092308 -0.091393 2.139577 0 9 12
0.092036 -0.089539 2.133272 3 15 22
0.091908 -0.087832 2.130308 16 30 41
0.091750 -0.086102 2.126642 17 34 49
0.091538 -0.084327 2.121729 19 37 53
0.091798 -0.082986 2.127759 20 39 56
0.091844 -0.081446 2.128816 20 39 56
0.091529 -0.079591 2.121522 21 40 57
0.092245 -0.078625 2.138114 25 42 58
0.091983 -0.076819 2.132051 28 45 61
0.091731 -0.075029 2.126203 22 42 57
0.091728 -0.073447 2.126129 21 43 57
0.091411 -0.071619 2.118782 22 44 58
0.091786 -0.070333 2.127486 23 45 59
0.091651 -0.068652 2.124349 23 45 59
0.091592 -0.067031 2.122975 24 46 60
0.091468 -0.065365 2.120114 25 47 61
0.091998 -0.064160 2.132394 25 47 60
0.092125 -0.062662 2.135331 24 46 59
0.091920 -0.060940 2.130573 21 43 56
0.091929 -0.059364 2.130792 29 51 65
0.092393 -0.058073 2.141540 39 60 75
0.092334 -0.056446 2.140179 42 63 80
0.091497 -0.054359 2.120774 49 70 89
0.092432 -0.051732 2.142452 47 69 90
0.091997 -0.049904 2.132357 46 74 90
0.091175 -0.046319 2.113322 41 69 83
0.092126 -0.045216 2.135347 38 63 78
0.092164 -0.040475 2.136236 26 46 57
0.091190 -0.036907 2.113659 11 28 36
0.090891 -0.035222 2.106742 9 26 33
0.089568 -0.031625 2.076075 1 11 20
0.089556 -0.030079 2.075798 0 6 17
0.089356 -0.028473 2.071162 0 2 17
0.089278 -0.026911 2.069351 0 0 18
0.089345 -0.025393 2.070889 2 0 18
0.089490 -0.023894 2.074256 2 0 14
0.089398 -0.022330 2.072116 1 0 13
0.089912 -0.020910 2.084031 0 0 14
0.089404 -0.019253 2.072272 0 0 17
0.089260 -0.017685 2.068927 0 2 20
0.089072 -0.016114 2.064568 0 5 23
0.088963 -0.014563 2.062045 0 9 27
0.089035 -0.013042 2.063722 1 13 32
0.088639 -0.011458 2.054537 7 23 41
0.088478 -0.009914 2.050802 14 34 53
0.088456 -0.008389 2.050284 27 48 68
0.088349 -0.006857 2.047804 39 62 84
0.088125 -0.005323 2.042630 49 74 100
0.087782 -0.003791 2.034678 58 84 111
0.087298 -0.002267 2.023442 65 92 121
0.086953 -0.000761 2.015445 68 97 126
0.087147 0.000738 2.019943 71 100 131
0.087409 0.002245 2.026021 75 102 133
0.086744 0.003721 2.010617 72 95 126
0.086322 0.005189 2.000834 55 76 106
0.085916 0.006644 1.991426 30 47 74
0.085905 0.008122 1.991174 7 20 44
0.085767 0.009586 1.987975 0 6 26
0.085651 0.011047 1.985281 0 2 19
0.085860 0.014031 1.990124 0 4 15
0.086483 0.015621 2.004568 0 6 14
0.086124 0.017039 1.996236 2 6 15
0.086150 0.018528 1.996848 1 5 14
0.085910 0.019955 1.991287 0 5 14
0.086251 0.021519 1.999171 0 6 16
0.086514 0.023074 2.005281 1 5 15
0.086478 0.024554 2.004454 0 2 10
0.087301 0.026290 2.023509 0 2 9
0.086646 0.027585 2.008337 0 2 9
0.086327 0.028969 2.000941 0 2 9
0.085981 0.030333 1.992921 0 2 9
0.086256 0.039341 1.999299 1 2 7
0.086140 0.058567 1.996607 1 2 4
0.085460 0.066932 1.980841 0 0 1
0.085649 0.068555 1.985224 0 0 0
0.082848 0.069166 1.920316 0 1 4
0.082086 0.071356 1.902640 0 1 5
0.082182 0.089833 1.904873 0 1 4
0.082922 0.093497 1.922017 0 1 6
0.082924 0.096355 1.922068 0 1 6
0.083038 0.097917 1.924709 0 1 6
0.082615 0.100263 1.914907 0 1 6
0.082452 0.101485 1.911133 0 1 6
0.082873 0.103429 1.920881 0 1 6
0.083018 0.105040 1.924249 0 1 6
0.085437 0.109571 1.980321 0 1 6
0.085533 0.111166 1.982528 0 1 6
0.079302 0.116721 1.838104 0 2 7
0.079355 0.119531 1.839336 0 2 7
0.080946 0.126109 1.876222 0 5 11
0.080137 0.126229 1.857473 0 5 11
0.080122 0.127584 1.857111 0 5 11
0.080339 0.129313 1.862148 0 5 11
0.079998 0.130141 1.854239 0 5 11
0.079388 0.133250 1.840114 0 3 10
0.079878 0.135447 1.851469 0 3 10
0.079671 0.136468 1.846673 0 3 10
0.079475 0.137499 1.842112 0 3 10
0.079743 0.139337 1.848340 0 3 10
0.080127 0.141387 1.857236 1 2 10
0.080273 0.143027 1.860621 2 2 10
0.079585 0.143171 1.844678 1 2 7
0.079638 0.144637 1.845896 1 2 7
0.079559 0.145863 1.844067 1 2 7
0.079615 0.147337 1.845373 1 2 7
0.079298 0.148116 1.838031 1 2 7
0.079081 0.149071 1.832982 1 2 7
0.079147 0.150559 1.834527 1 2 7
0.078825 0.151304 1.827063 1 2 7
0.078735 0.152486 1.824974 0 0 7
0.078813 0.153994 1.826777 0 0 8
0.081439 0.161929 1.887642 0 1 6
0.081625 0.163704 1.891956 0 1 6
0.081808 0.165481 1.896210 0 1 6
0.081997 0.167273 1.900574 0 1 6
0.079458 0.163462 1.841722 0 1 6
0.079009 0.163899 1.831323 0 0 4
0.078555 0.164309 1.820790 0 0 4
0.078790 0.166158 1.826256 0 0 4
0.078892 0.167730 1.828605 0 0 4
0.078945 0.169202 1.829834 0 0 4
0.079131 0.170963 1.834145 1 0 5
0.078938 0.171906 1.829680 1 0 5
0.078967 0.173328 1.830340 1 0 3
0.078874 0.174482 1.828186 0 1 2
0.078967 0.176047 1.830340 0 2 1
0.079190 0.177909 1.835527 1 3 0
0.079135 0.179147 1.834247 1 3 0
0.079039 0.180290 1.832012 1 3 0
0.079065 0.181711 1.832621 1 3 0
0.079238 0.183472 1.836628 1 3 0
0.079173 0.184685 1.835127 1 3 0
0.079248 0.186224 1.836861 0 2 0
0.079041 0.187099 1.832070 0 0 0
0.079158 0.188738 1.834774 0 0 0
0.078924 0.189540 1.829357 0 0 0
0.078842 0.190700 1.827452 0 0 0
0.078769 0.191880 1.825764 0 0 0
0.078847 0.193426 1.827559 0 0 0
0.079220 0.195705 1.836207 0 0 0
0.079208 0.197039 1.835927 0 0 0
0.079548 0.199254 1.843807 0 0 0
0.079479 0.200450 1.842212 0 0 0
0.079220 0.201161 1.836207 0 0 0
0.079195 0.202461 1.835632 0 0 0
0.079651 0.204999 1.846204 0 0 0
0.079745 0.206613 1.848379 0 0 0
0.080029 0.208728 1.854973 0 0 0
0.078763 0.209494 1.825629 0 1 1
0.079059 0.211642 1.832484 0 1 1
0.101357 -0.337105 2.309564 144 145 147
0.101317 -0.333540 2.308635 127 130 137
0.101110 -0.331148 2.303923 126 129 140
0.101447 -0.330535 2.311606 103 108 121
0.101460 -0.327142 2.311896 80 85 103
0.102045 -0.325576 2.325241 49 57 76
0.101424 -0.321877 2.311083 39 48 66
0.101824 -0.321423 2.320196 45 56 74
0.101139 -0.315838 2.304593 36 50 66
0.101014 -0.313736 2.301730 28 42 57
0.101026 -0.312065 2.302016 25 41 53
0.100180 -0.307755 2.282731 29 45 56
0.099793 -0.304878 2.273922 31 46 58
0.099173 -0.301307 2.259802 28 43 55
0.099161 -0.299590 2.259511 25 40 52
0.099214 -0.298071 2.260721 25 41 54
0.099380 -0.296888 2.264504 28 46 61
0.098862 -0.293668 2.252707 28 45 61
0.098622 -0.291286 2.247243 27 45 61
0.098822 -0.290203 2.251787 26 44 60
0.098847 -0.288604 2.252362 24 41 57
0.098920 -0.287144 2.254033 24 41 57
0.098794 -0.285105 2.251155 28 45 61
0.098720 -0.283221 2.249471 33 51 67
0.098180 -0.280008 2.237154 33 51 65
0.098671 -0.279739 2.248343 36 54 68
0.098637 -0.277974 2.247579 37 55 70
0.098336 -0.275461 2.240713 31 49 64
0.098506 -0.274270 2.244584 21 39 54
0.098288 -0.272000 2.239621 14 32 47
0.098154 -0.269969 2.236582 14 32 46
0.098283 -0.268661 2.239520 17 35 51
0.098211 -0.266801 2.237872 21 37 58
0.098386 -0.265609 2.241847 22 38 63
0.098064 -0.263083 2.234532 22 38 62
0.097651 -0.260320 2.225106 21 37 60
0.097503 -0.258277 2.221749 19 35 57
0.097810 -0.257433 2.228730 15 32 53
0.097697 -0.255483 2.226157 9 25 44
0.097838 -0.254195 2.229361 3 17 36
0.098061 -0.253116 2.234458 2 17 34
0.097955 -0.251185 2.232048 2 18 34
0.097891 -0.249363 2.230574 2 18 34
0.097526 -0.246783 2.222270 3 19 34
0.097534 -0.245153 2.222456 2 18 32
0.097449 -0.243288 2.220501 1 16 29
0.097006 -0.240541 2.210408 0 15 28
0.097053 -0.239014 2.211477 0 14 26
0.097105 -0.237500 2.212667 0 12 23
0.096480 -0.234339 2.198433 0 11 21
0.097385 -0.234888 2.219047 0 10 20
0.097368 -0.233199 2.218661 1 11 20
0.097923 -0.232871 2.231309 1 10 20
0.097797 -0.230917 2.228448 0 10 20
0.097296 -0.228087 2.217028 1 10 19
0.096850 -0.225402 2.206860 1 9 18
0.096625 -0.223243 2.201738 0 7 17
0.096400 -0.221091 2.196599 0 6 16
0.096732 -0.220215 2.204161 0 5 16
0.096550 -0.218168 2.200028 1 4 15
0.096805 -0.217105 2.205832 1 4 15
0.097035 -0.215978 2.211069 1 3 15
0.097767 -0.215953 2.227752 1 2 14
0.097881 -0.214548 2.230345 1 2 14
0.098228 -0.213646 2.238250 0 3 12
0.097889 -0.211252 2.230529 0 3 10
0.097509 -0.208782 2.221874 0 3 10
0.097147 -0.206363 2.213634 0 4 10
0.097387 -0.205224 2.219095 0 4 11
0.096922 -0.202603 2.208494 1 6 12
0.096364 -0.199806 2.195781 1 6 12
0.095999 -0.197425 2.187472 0 7 13
0.095826 -0.195446 2.183519 1 7 13
0.095911 -0.193996 2.185452 1 8 14
0.095757 -0.192065 2.181959 0 7 13
0.095710 -0.190350 2.180878 0 7 13
0.095457 -0.188233 2.175124 0 6 12
0.095185 -0.186085 2.168924 0 6 12
0.094856 -0.183836 2.161422 0 6 12
0.095007 -0.182520 2.164858 0 6 12
0.095127 -0.181140 2.167589 0 5 11
0.096418 -0.181968 2.197021 0 4 8
0.096277 -0.180073 2.193808 0 4 8
0.096277 -0.178443 2.193808 0 3 8
0.096504 -0.177230 2.198978 0 3 8
0.096605 -0.175780 2.201269 0 3 8
0.096912 -0.174699 2.208268 0 3 8
0.096728 -0.172731 2.204090 1 4 9
0.096506 -0.170700 2.199020 0 3 8
0.096350 -0.168794 2.195470 0 2 7
0.096742 -0.167843 2.204401 0 2 7
0.096745 -0.166211 2.204470 1 2 7
0.096753 -0.164588 2.204658 1 2 7
0.096753 -0.162950 2.204651 1 2 7
0.096496 -0.160883 2.198784 1 2 7
0.096094 -0.158587 2.189637 1 2 7
0.096371 -0.157413 2.195954 0 2 6
0.095925 -0.155060 2.185778 0 3 6
0.097971 -0.155052 2.232411 0 2 7
0.096710 -0.151419 2.203659 0 1 7
0.095932 -0.148577 2.185941 1 1 9
0.096680 -0.148100 2.202986 1 1 11
0.095875 -0.145244 2.184648 0 1 11
0.095913 -0.143678 2.185508 0 1 12
0.096123 -0.142365 2.190284 0 3 15
0.096123 -0.140738 2.190284 4 16 28
0.096123 -0.139111 2.190284 45 64 75
0.094950 -0.135807 2.163563 90 115 127
0.094222 -0.133172 2.146980 104 130 147
0.092823 -0.129623 2.115105 95 122 142
0.093136 -0.128483 2.122222 82 107 131
0.093428 -0.127305 2.128881 66 91 115
0.093457 -0.125762 2.129534 55 80 104
0.093587 -0.124354 2.132504 46 73 95
0.093435 -0.122571 2.129047 35 61 81
0.093384 -0.120923 2.127882 26 50 67
0.093692 -0.119736 2.134889 19 42 56
0.093673 -0.118126 2.134458 13 35 47
0.093522 -0.116353 2.131021 10 30 38
0.093786 -0.115094 2.137035 7 26 33
0.093567 -0.113242 2.132051 13 30 38
0.093590 -0.111685 2.132566 12 29 37
0.093987 -0.107387 2.141616 6 23 31
0.093900 -0.105699 2.139636 4 21 29
0.093376 -0.103529 2.127699 3 19 27
0.093667 -0.102266 2.134320 4 17 23
0.093956 -0.100991 2.140905 0 6 8
0.093879 -0.099320 2.139160 0 2 1
0.094259 -0.098126 2.147822 0 2 3
0.094325 -0.096598 2.149315 0 3 5
0.093907 -0.094582 2.139809 0 3 6
0.093768 -0.092854 2.136629 0 5 8
0.093965 -0.091458 2.141112 1 11 17
0.094419 -0.090303 2.151472 5 18 26
0.093581 -0.087918 2.132375 16 31 42
0.093233 -0.086012 2.124432 17 34 49
0.093242 -0.084443 2.124649 19 37 53
0.093204 -0.082830 2.123769 19 38 55
0.093674 -0.081663 2.134483 19 38 55
0.093338 -0.079790 2.126831 20 39 56
0.094176 -0.078913 2.145929 24 41 57
0.093994 -0.077169 2.141773 27 44 60
0.093589 -0.075253 2.132544 22 42 57
0.093072 -0.073262 2.120774 21 43 57
0.093555 -0.072059 2.131774 22 44 58
0.093457 -0.070401 2.129534 23 45 59
0.093538 -0.068879 2.131384 23 45 59
0.092976 -0.066892 2.118577 24 46 60
0.093419 -0.065630 2.128685 25 47 61
0.093741 -0.064269 2.136026 25 47 60
0.094166 -0.062967 2.145697 24 46 59
0.093866 -0.061178 2.138875 21 43 56
0.094021 -0.059687 2.142407 28 50 65
0.093644 -0.057863 2.133816 38 59 76
0.094101 -0.056552 2.144212 42 63 82
0.094306 -0.055080 2.148889 50 71 90
0.094219 -0.053434 2.146913 53 74 95
0.093900 -0.051664 2.139636 47 69 90
0.093688 -0.049962 2.134812 47 74 91
0.093629 -0.048346 2.133469 45 72 89
0.094014 -0.043771 2.142243 38 60 74
0.092517 -0.036811 2.108136 16 33 41
0.091930 -0.033465 2.094760 6 18 27
0.091545 -0.031776 2.085977 1 11 20
0.091018 -0.030052 2.073969 0 5 16
0.090906 -0.028477 2.071411 0 2 15
0.090908 -0.026939 2.071469 0 1 16
0.091040 -0.025437 2.074466 0 0 14
0.091105 -0.023913 2.075947 1 0 13
0.091226 -0.022401 2.078707 1 0 13
0.091065 -0.020820 2.075043 0 2 17
0.090793 -0.019221 2.068833 0 5 23
0.090798 -0.017685 2.068954 0 11 30
0.090538 -0.016102 2.063025 4 18 39
0.090366 -0.014542 2.059119 9 27 50
0.090429 -0.013022 2.060553 14 35 59
0.090068 -0.011446 2.052325 25 47 73
0.089929 -0.009906 2.049157 34 58 83
0.089892 -0.008380 2.048310 46 72 98
0.089654 -0.006841 2.042881 57 84 111
0.089254 -0.005300 2.033767 64 92 121
0.088637 -0.003763 2.019716 69 98 129
0.088565 -0.002261 2.018081 72 102 133
0.088953 -0.000765 2.026922 73 103 134
0.088773 0.000739 2.022810 71 98 131
0.088570 0.002236 2.018178 68 91 124
0.088212 0.003720 2.010028 54 75 105
0.087577 0.005176 1.995553 33 50 77
0.087411 0.006645 1.991774 11 25 48
0.087368 0.008121 1.990805 0 7 27
0.086988 0.009558 1.982151 0 2 19
0.087490 0.011093 1.993580 0 4 18
0.087820 0.017081 2.001090 0 4 13
0.087735 0.020034 1.999171 0 4 13
0.087353 0.021425 1.990454 0 5 14
0.087921 0.023053 2.003397 0 3 12
0.088639 0.024741 2.019770 0 2 9
0.088152 0.026097 2.008668 0 2 9
0.087901 0.027511 2.002947 0 2 9
0.087241 0.028781 1.987908 0 2 9
0.086575 0.030026 1.972737 0 2 9
0.083721 0.033287 1.907691 0 2 8
0.086391 0.037273 1.968527 1 2 7
0.087943 0.040920 2.003904 1 2 7
0.232392 0.123864 5.295370 1 2 6
0.087257 0.058322 1.988266 1 2 4
0.086053 0.066256 1.960836 0 0 1
0.083245 0.071138 1.896840 0 1 5
0.084600 0.098070 1.927725 0 1 6
0.084253 0.103372 1.919823 0 1 6
0.084557 0.105176 1.926737 0 1 6
0.086287 0.108788 1.966167 0 1 6
0.086442 0.110447 1.969708 0 1 6
0.081066 0.113182 1.847204 1 2 7
0.080724 0.116804 1.839408 0 2 7
0.080714 0.118155 1.839177 0 2 7
0.080688 0.119483 1.838595 0 2 7
0.081441 0.124733 1.855754 0 5 11
0.080973 0.125386 1.845079 0 5 11
0.080799 0.129219 1.841108 0 5 11
0.080969 0.134973 1.844987 0 3 10
0.080859 0.136159 1.842489 0 3 10
0.080818 0.137457 1.841548 0 3 10
0.080855 0.138889 1.842400 0 3 10
0.081085 0.140657 1.847641 1 3 10
0.081517 0.142785 1.857473 1 3 10
0.080778 0.142858 1.840639 0 2 7
0.080895 0.144434 1.843300 0 2 7
0.080686 0.145426 1.838537 0 2 7
0.080776 0.146956 1.840593 1 2 7
0.080535 0.147880 1.835091 1 2 7
0.080484 0.149148 1.833928 1 2 7
0.080541 0.150617 1.835227 1 2 7
0.080513 0.151927 1.834589 1 2 7
0.080225 0.152742 1.828038 0 0 7
0.082470 0.162600 1.879199 0 1 6
0.082567 0.164189 1.881406 0 1 6
0.082504 0.165460 1.879976 0 1 6
0.080621 0.164411 1.837048 0 0 4
0.080705 0.165949 1.838968 0 0 4
0.080202 0.166272 1.827506 0 0 4
0.080363 0.167967 1.831190 0 0 4
0.080299 0.169192 1.829728 0 0 4
0.080523 0.171026 1.834823 0 0 4
0.080267 0.171843 1.829004 1 0 4
0.080504 0.173712 1.834400 0 0 3
0.080489 0.175042 1.834061 0 1 1
0.080577 0.177961 1.836064 0 2 0
0.080586 0.179345 1.836272 0 2 0
0.080637 0.180822 1.837423 0 2 0
0.080718 0.182370 1.839272 0 2 0
0.080851 0.184039 1.842301 0 2 0
0.080758 0.185193 1.840174 0 2 0
0.080785 0.186624 1.840804 0 1 0
0.080628 0.187626 1.837221 0 0 0
0.080571 0.188857 1.835927 0 0 0
0.080515 0.190087 1.834635 0 0 0
0.080253 0.190827 1.828670 0 0 0
0.080351 0.192421 1.830916 0 0 0
0.080544 0.194246 1.835304 0 0 0
0.080824 0.196290 1.841689 0 0 0
0.080694 0.197340 1.838733 0 0 0
0.080780 0.198917 1.840681 0 0 0
0.080818 0.200378 1.841548 0 0 0
0.080809 0.201725 1.841354 0 0 0
0.081177 0.204016 1.849729 0 0 0
0.081191 0.205425 1.850045 0 0 0
0.081211 0.206851 1.850504 0 0 0
0.081293 0.208436 1.852376 0 0 0
0.081149 0.210814 1.849097 0 0 0
0.080283 0.209922 1.829357 1 1 1
0.080449 0.211716 1.833129 0 1 1
0.103159 -0.339104 2.311501 169 170 168
0.103199 -0.337517 2.312390 141 142 144
0.103798 -0.337748 2.325803 123 125 130
0.103192 -0.334060 2.312237 124 127 134
0.102418 -0.329850 2.294895 123 127 138
0.103139 -0.330454 2.311038 102 107 120
0.104025 -0.331562 2.330898 81 87 101
0.103745 -0.328944 2.324631 76 82 97
0.103603 -0.325044 2.321443 46 53 71
0.103892 -0.322493 2.327921 41 52 69
0.102425 -0.312826 2.295057 24 38 51
0.102440 -0.311166 2.295388 22 39 50
0.101466 -0.306520 2.273568 28 44 54
0.101453 -0.304791 2.273272 31 45 56
0.100341 -0.299779 2.248343 27 41 52
0.101079 -0.300302 2.264886 26 40 51
0.101184 -0.298930 2.267236 27 42 56
0.100787 -0.296080 2.258347 30 46 61
0.100593 -0.293836 2.253997 30 47 63
0.100465 -0.291789 2.251122 29 46 62
0.100461 -0.290107 2.251043 26 43 59
0.100416 -0.288304 2.250024 23 40 56
0.100373 -0.286513 2.249080 25 42 58
0.100465 -0.285103 2.251138 31 48 64
0.100368 -0.283158 2.248969 36 53 69
0.100117 -0.280782 2.243335 35 53 67
0.100289 -0.279595 2.247184 36 54 68
0.100233 -0.277771 2.245931 34 52 66
0.099919 -0.275238 2.238903 26 44 58
0.099826 -0.273319 2.236804 14 32 46
0.099916 -0.271905 2.238838 8 26 40
0.099631 -0.269469 2.232435 11 29 43
0.099659 -0.267886 2.233066 17 34 50
0.099652 -0.266209 2.232908 18 35 55
0.099731 -0.264759 2.234673 20 36 60
0.099682 -0.262972 2.233590 21 37 60
0.099295 -0.260298 2.224914 20 37 58
0.099179 -0.258342 2.222304 21 38 58
0.099304 -0.257015 2.225106 19 36 55
0.099496 -0.255858 2.229429 10 26 45
0.099613 -0.254501 2.232048 2 14 32
0.099672 -0.252992 2.233360 0 13 29
0.099501 -0.250901 2.229527 0 15 31
0.099303 -0.248749 2.225085 0 16 32
0.099069 -0.246514 2.219841 2 18 33
0.099108 -0.244961 2.220714 3 17 31
0.099319 -0.243831 2.225451 2 16 29
0.099021 -0.241452 2.218783 0 14 27
0.098979 -0.239701 2.217833 0 12 25
0.098441 -0.236760 2.205776 0 11 23
0.099060 -0.236601 2.219657 0 11 22
0.098905 -0.234585 2.216185 1 11 20
0.099412 -0.234132 2.227533 0 10 19
0.099480 -0.232635 2.229049 0 10 19
0.099278 -0.230511 2.224529 0 9 18
0.099126 -0.228510 2.221137 0 8 18
0.097928 -0.224117 2.194279 0 7 17
0.098222 -0.223155 2.200863 0 5 15
0.098107 -0.221261 2.198289 0 2 13
0.098686 -0.220924 2.211263 0 1 13
0.098860 -0.219668 2.215157 0 1 13
0.099025 -0.218388 2.218867 0 1 13
0.098664 -0.215949 2.210777 1 1 13
0.099225 -0.215527 2.223354 1 1 13
0.099524 -0.214520 2.230054 1 1 13
0.099794 -0.213439 2.236090 1 2 12
0.099356 -0.210849 2.226281 0 3 11
0.099021 -0.208491 2.218783 0 3 10
0.098667 -0.206102 2.210832 0 3 10
0.098728 -0.204587 2.212204 0 3 10
0.098504 -0.202484 2.207191 0 5 11
0.098097 -0.200014 2.198072 1 6 12
0.097721 -0.197621 2.189637 1 6 12
0.097912 -0.196378 2.193924 0 6 12
0.097956 -0.194836 2.194911 0 6 12
0.097616 -0.192535 2.187296 0 6 12
0.097708 -0.191091 2.189363 0 6 12
0.097507 -0.189075 2.184858 0 6 12
0.096426 -0.185373 2.160626 0 6 12
0.096392 -0.183703 2.159856 0 6 12
0.096989 -0.183228 2.173250 0 6 12
0.097530 -0.182626 2.185368 0 5 11
0.097527 -0.180998 2.185310 0 4 8
0.097652 -0.179605 2.188110 0 3 8
0.098037 -0.178681 2.196731 0 3 8
0.097815 -0.176648 2.191750 0 3 8
0.098107 -0.175542 2.198289 0 3 8
0.098097 -0.173892 2.198072 0 3 8
0.097729 -0.171613 2.189823 0 3 8
0.097516 -0.169617 2.185061 0 2 7
0.097075 -0.167232 2.175161 0 2 7
0.097610 -0.166531 2.187167 0 2 7
0.097635 -0.164948 2.187723 1 2 7
0.097621 -0.163300 2.187416 1 2 7
0.097671 -0.161758 2.188534 1 2 7
0.097412 -0.159708 2.182722 1 2 7
0.097080 -0.157547 2.175274 1 2 7
0.096940 -0.155706 2.172136 0 2 6
0.097610 -0.155159 2.187167 0 3 6
0.098302 -0.151350 2.202660 0 1 6
0.097218 -0.148064 2.178384 1 1 9
0.097344 -0.146635 2.181206 2 2 12
0.097101 -0.144653 2.175757 3 5 14
0.097261 -0.143272 2.179331 0 1 12
0.097572 -0.142106 2.186303 1 7 18
0.097411 -0.140251 2.182696 17 31 42
0.097237 -0.138381 2.178792 51 73 84
0.096240 -0.135361 2.156454 96 122 135
0.095463 -0.132680 2.139050 99 127 142
0.094534 -0.129815 2.118227 87 112 132
0.094832 -0.128646 2.124915 85 108 131
0.094795 -0.127018 2.124078 60 83 106
0.095151 -0.125911 2.132051 52 76 99
0.095244 -0.124449 2.134135 39 64 86
0.095036 -0.122596 2.129477 28 52 70
0.094898 -0.120839 2.126397 23 46 63
0.095237 -0.119685 2.133978 21 43 57
0.095239 -0.118102 2.134024 16 38 49
0.095112 -0.116362 2.131179 13 33 41
0.095320 -0.115030 2.135836 11 30 37
0.095710 -0.113908 2.144595 11 28 36
0.096145 -0.109625 2.154337 7 23 31
0.095294 -0.107069 2.135264 5 20 29
0.095271 -0.105458 2.134753 2 17 26
0.095295 -0.103898 2.135295 1 16 25
0.095034 -0.102032 2.129438 2 15 20
0.095489 -0.100931 2.139636 0 6 8
0.095578 -0.099434 2.141616 0 3 3
0.095673 -0.097941 2.143762 0 2 4
0.095763 -0.096439 2.145776 0 4 7
0.095574 -0.094658 2.141540 0 5 8
0.095308 -0.092809 2.135588 0 6 10
0.095885 -0.091774 2.148502 3 14 21
0.095791 -0.090090 2.146390 10 23 32
0.095020 -0.087783 2.129116 16 33 44
0.094886 -0.086081 2.126129 17 35 49
0.094827 -0.084449 2.124808 18 37 52
0.094848 -0.082889 2.125270 19 38 54
0.095177 -0.081593 2.132648 19 38 54
0.094993 -0.079853 2.128514 20 39 56
0.095325 -0.078546 2.135955 24 41 57
0.095226 -0.076879 2.133732 25 43 59
0.095346 -0.075389 2.136420 21 43 57
0.095108 -0.073619 2.131106 21 43 57
0.094939 -0.071908 2.127307 22 44 58
0.095151 -0.070484 2.132051 23 45 59
0.095094 -0.068860 2.130792 23 45 59
0.094934 -0.067164 2.127203 24 46 60
0.094603 -0.065355 2.119777 25 47 61
0.095463 -0.064360 2.139050 25 47 61
0.095312 -0.062672 2.135664 25 47 60
0.095791 -0.061393 2.146390 22 44 57
0.095277 -0.059478 2.134889 29 51 65
0.094855 -0.057636 2.125426 38 60 75
0.095114 -0.056210 2.131241 43 64 81
0.095719 -0.054975 2.144797 50 71 90
0.095677 -0.053358 2.143843 52 73 94
0.094855 -0.051321 2.125426 46 69 89
0.094842 -0.049735 2.125125 47 74 91
0.095151 -0.048314 2.132051 44 73 89
0.094970 -0.041900 2.128010 36 58 70
0.093804 -0.036701 2.101874 20 38 46
0.093853 -0.033597 2.102977 5 19 26
0.092879 -0.031702 2.081146 1 11 20
0.092437 -0.030013 2.071237 0 5 16
0.092411 -0.028466 2.070663 0 3 15
0.092743 -0.027025 2.078100 0 2 14
0.092602 -0.025443 2.074938 0 0 11
0.092539 -0.023885 2.073529 1 0 11
0.092671 -0.022377 2.076498 2 1 15
0.092395 -0.020773 2.070307 4 8 23
0.092232 -0.019201 2.066652 7 16 34
0.092188 -0.017657 2.065670 10 27 47
0.092078 -0.016104 2.063209 19 40 64
0.091763 -0.014522 2.056151 31 55 82
0.091564 -0.012966 2.051688 38 64 92
0.091481 -0.011432 2.049832 40 67 98
0.091386 -0.009899 2.047696 47 75 105
0.091041 -0.008346 2.039977 55 83 115
0.090811 -0.006814 2.034807 61 90 122
0.090219 -0.005268 2.021559 63 93 126
0.090468 -0.003777 2.027135 65 96 128
0.090547 -0.002273 2.028907 67 99 130
0.090426 -0.000765 2.026191 69 98 130
0.090313 0.000739 2.023658 64 88 122
0.090141 0.002238 2.019800 51 71 104
0.089465 0.003710 2.004645 29 47 76
0.089107 0.005178 1.996622 9 24 49
0.088704 0.006631 1.987609 1 10 31
0.089146 0.008148 1.997511 0 5 21
0.088896 0.009605 1.991896 0 4 17
0.088697 0.011059 1.987449 1 6 16
0.090080 0.012731 2.018431 2 6 16
0.089641 0.014161 2.008604 1 4 13
0.090006 0.017214 2.016768 0 2 11
0.089543 0.018616 2.006396 0 2 11
0.089593 0.021609 2.007513 0 3 12
0.090253 0.023270 2.022314 0 2 10
0.089903 0.024676 2.014471 0 2 9
0.089836 0.026153 2.012972 0 2 9
0.089090 0.027419 1.996254 0 2 9
0.088176 0.028605 1.975775 0 2 9
0.234111 0.118807 5.245745 1 2 7
0.086019 0.098056 1.927438 0 1 6
0.100446 0.119516 2.250703 0 1 6
0.085908 0.103648 1.924942 0 1 6
0.085967 0.105150 1.926266 0 1 6
0.094017 0.119691 2.106660 0 1 6
0.082110 0.112732 1.839858 1 2 7
0.095326 0.138810 2.135991 0 2 7
0.082170 0.122387 1.841185 0 4 11
0.082098 0.123646 1.839577 0 5 11
0.082937 0.135952 1.858371 1 4 11
0.082862 0.137210 1.856709 1 4 11
0.082761 0.138420 1.854445 1 4 11
0.082864 0.139971 1.856753 1 4 11
0.082783 0.141211 1.854923 1 4 11
0.082964 0.142901 1.858980 1 4 11
0.082776 0.143955 1.854768 0 2 7
0.082386 0.144648 1.846039 0 2 7
0.082358 0.145970 1.845414 0 2 7
0.082438 0.147484 1.847204 1 2 7
0.081935 0.147947 1.835927 1 2 7
0.081564 0.151350 1.827623 1 2 7
0.084176 0.160398 1.886133 0 1 6
0.084107 0.161668 1.884605 0 1 6
0.084194 0.163236 1.886544 0 1 6
0.084274 0.164793 1.888329 0 1 6
0.084581 0.166803 1.895226 0 1 6
0.084885 0.171639 1.902027 0 0 4
0.084975 0.173236 1.904046 0 0 4
0.085070 0.174845 1.906167 0 0 4
0.081454 0.168769 1.825149 0 0 4
0.081478 0.170176 1.825698 0 0 4
0.081528 0.171636 1.826808 1 0 3
0.081575 0.173093 1.827859 0 0 2
0.082362 0.176134 1.845504 0 1 1
0.081686 0.178766 1.830340 0 2 0
0.081848 0.180483 1.833980 0 2 0
0.082249 0.186843 1.842959 0 1 0
0.081792 0.187167 1.832730 0 0 0
0.081573 0.188023 1.827821 0 0 0
0.081408 0.188998 1.824126 0 0 0
0.081356 0.190229 1.822943 0 0 0
0.081367 0.191611 1.823206 0 0 0
0.082673 0.197437 1.852456 0 0 0
0.081686 0.196439 1.830340 0 0 0
0.082877 0.204823 1.857043 0 0 0
0.082782 0.205964 1.854895 0 0 0
0.082843 0.207496 1.856280 0 0 0
0.082855 0.208904 1.856535 0 0 0
0.082743 0.210000 1.854038 0 0 0
0.082675 0.211202 1.852502 0 0 0
0.081410 0.209327 1.824172 1 1 1
0.081476 0.210851 1.825638 0 1 1
0.104710 -0.338566 2.307833 170 170 169
0.104673 -0.336734 2.307021 136 136 139
0.104957 -0.335929 2.313279 114 117 121
0.104575 -0.332994 2.304858 118 122 129
0.104245 -0.330238 2.297594 119 125 134
0.104608 -0.329675 2.305594 100 107 118
0.105576 -0.330997 2.326928 78 86 98
0.105250 -0.328251 2.319731 66 73 87
0.104861 -0.325321 2.311161 54 61 77
0.105087 -0.324304 2.316157 43 50 67
0.104839 -0.321821 2.310682 41 49 66
0.104504 -0.315662 2.303309 29 41 55
0.103970 -0.312347 2.291538 24 37 49
0.104320 -0.311688 2.299233 23 38 48
0.103355 -0.303731 2.277982 27 40 50
0.103411 -0.302202 2.279216 27 39 51
0.102858 -0.298902 2.267023 28 42 55
0.102638 -0.296583 2.262181 30 46 61
0.102647 -0.294928 2.262375 30 46 62
0.103013 -0.294294 2.270447 29 46 62
0.102334 -0.290679 2.255481 27 43 59
0.102569 -0.289667 2.260656 25 41 57
0.102369 -0.287426 2.256248 27 43 59
0.102374 -0.285763 2.256348 32 48 64
0.102310 -0.283911 2.254953 36 53 68
0.102285 -0.282165 2.254384 37 55 69
0.102251 -0.280397 2.253635 34 52 66
0.101897 -0.277759 2.245837 27 45 58
0.101958 -0.276256 2.247180 19 37 50
0.101805 -0.274176 2.243814 11 29 42
0.101522 -0.271751 2.237572 8 26 39
0.101568 -0.270211 2.238586 10 28 41
0.101244 -0.267692 2.231443 13 31 45
0.101190 -0.265893 2.230259 14 31 49
0.101445 -0.264903 2.235882 16 33 54
0.101236 -0.262698 2.231265 17 33 55
0.101032 -0.260516 2.226776 17 33 53
0.101219 -0.259342 2.230906 18 35 54
0.101273 -0.257821 2.232088 17 34 52
0.101330 -0.256307 2.233342 10 26 43
0.101520 -0.255125 2.237523 2 15 31
0.101503 -0.253422 2.237158 0 13 29
0.101097 -0.250753 2.228209 0 14 30
0.101103 -0.249113 2.228344 1 15 31
0.100727 -0.246537 2.220051 1 16 31
0.100703 -0.244830 2.219525 2 16 30
0.100833 -0.243496 2.222396 1 15 28
0.100825 -0.241824 2.222205 0 13 26
0.100398 -0.239158 2.212803 0 11 23
0.100589 -0.237966 2.217010 0 11 22
0.100594 -0.236331 2.217125 1 11 20
0.100941 -0.235493 2.224764 0 10 19
0.100911 -0.233772 2.224111 0 10 19
0.100999 -0.232322 2.226048 0 9 18
0.100960 -0.230579 2.225181 0 8 17
0.100776 -0.228509 2.221131 0 7 17
0.099883 -0.224849 2.201450 0 6 17
0.099785 -0.222996 2.199294 0 4 15
0.100005 -0.221851 2.204148 0 1 13
0.100633 -0.221595 2.217977 0 1 12
0.100719 -0.220136 2.219872 0 0 12
0.100796 -0.218653 2.221566 0 1 13
0.100232 -0.215789 2.209139 0 0 12
0.100736 -0.215225 2.220248 0 0 12
0.101269 -0.214706 2.231995 1 1 12
0.101525 -0.213588 2.237649 0 1 11
0.101040 -0.210912 2.226941 0 3 10
0.100537 -0.208216 2.215856 0 3 10
0.100176 -0.205829 2.207901 0 3 10
0.100105 -0.204046 2.206353 0 3 10
0.099961 -0.202115 2.203170 0 5 11
0.099915 -0.200385 2.202148 1 6 12
0.099422 -0.197769 2.191281 1 6 12
0.099548 -0.196391 2.194068 0 6 12
0.099740 -0.195136 2.198289 0 6 12
0.099514 -0.193065 2.193317 0 6 12
0.099616 -0.191633 2.195575 0 6 12
0.099629 -0.190026 2.195853 0 6 12
0.099318 -0.187807 2.188991 0 6 12
0.098527 -0.184698 2.171553 0 6 12
0.098944 -0.183860 2.180753 0 6 12
0.099016 -0.182373 2.182336 0 5 11
0.099555 -0.181736 2.194213 0 3 8
0.099572 -0.180137 2.194587 0 3 8
0.099567 -0.178499 2.194490 0 3 8
0.099793 -0.177270 2.199471 0 3 8
0.099641 -0.175369 2.196120 0 3 8
0.099561 -0.173597 2.194347 0 3 8
0.099446 -0.171769 2.191812 0 3 8
0.098212 -0.166422 2.164622 0 2 7
0.098904 -0.165975 2.179864 0 2 7
0.098686 -0.163995 2.175075 1 2 7
0.098633 -0.162292 2.173904 1 2 7
0.099185 -0.161576 2.186069 1 2 7
0.099221 -0.160011 2.186870 1 2 7
0.098288 -0.156897 2.166296 1 2 7
0.098421 -0.155497 2.169218 0 2 6
0.099261 -0.155200 2.187741 0 3 6
0.100185 -0.155005 2.208114 0 4 7
0.100905 -0.154466 2.223969 0 1 6
0.099773 -0.151100 2.199020 0 1 7
0.098627 -0.147750 2.173763 0 1 9
0.098702 -0.146247 2.175429 0 3 12
0.098805 -0.144781 2.177688 2 4 16
0.098944 -0.143365 2.180753 0 1 13
0.098883 -0.141659 2.179414 2 10 22
0.098792 -0.139910 2.177398 25 41 54
0.098777 -0.138272 2.177070 59 83 94
0.097706 -0.135173 2.153459 101 127 140
0.096490 -0.131912 2.126666 98 126 140
0.096382 -0.130186 2.124285 82 108 126
0.096358 -0.128577 2.123769 83 105 127
0.096601 -0.127319 2.129116 57 78 101
0.096635 -0.125782 2.129873 51 74 96
0.096681 -0.124258 2.130867 34 59 80
0.096783 -0.122806 2.133131 23 46 64
0.096734 -0.121160 2.132051 20 43 58
0.096683 -0.119513 2.130918 21 43 55
0.096769 -0.118035 2.132807 18 39 49
0.096542 -0.116178 2.127808 15 35 43
0.096916 -0.115042 2.136059 14 33 40
0.097338 -0.113949 2.145360 10 27 34
0.098037 -0.111558 2.160775 9 23 32
0.097096 -0.108897 2.140016 6 20 29
0.097425 -0.107671 2.147274 3 17 26
0.096760 -0.105352 2.132618 0 14 23
0.096398 -0.103380 2.124649 0 13 22
0.096656 -0.102075 2.130334 0 12 18
0.096906 -0.100752 2.135836 0 8 10
0.097251 -0.099519 2.143448 0 5 6
0.097015 -0.097689 2.138239 0 3 6
0.097138 -0.096222 2.140940 0 5 8
0.096922 -0.094421 2.136181 0 6 10
0.097203 -0.093104 2.142383 0 7 13
0.097338 -0.091640 2.145360 4 16 24
0.096859 -0.089603 2.134791 16 29 40
0.096374 -0.087577 2.124120 17 34 47
0.096118 -0.085771 2.118467 17 35 49
0.096385 -0.084431 2.124349 17 36 51
0.096223 -0.082713 2.120774 19 38 53
0.096393 -0.081282 2.124519 20 39 54
0.096427 -0.079732 2.125270 22 41 56
0.096695 -0.078370 2.131179 23 41 57
0.096621 -0.076729 2.129565 23 41 57
0.096851 -0.075326 2.134614 23 43 58
0.096965 -0.073828 2.137145 23 45 59
0.096585 -0.071957 2.128764 23 45 59
0.096636 -0.070413 2.129894 24 46 60
0.096890 -0.069012 2.135484 25 47 61
0.096606 -0.067228 2.129220 25 47 61
0.096223 -0.065386 2.120774 26 48 62
0.096683 -0.064116 2.130918 26 48 62
0.097251 -0.062901 2.143448 26 48 61
0.096842 -0.061051 2.134426 24 46 59
0.096599 -0.059316 2.129071 29 51 66
0.096542 -0.057700 2.127808 40 62 78
0.096734 -0.056232 2.132051 45 66 85
0.096920 -0.054753 2.136140 44 65 84
0.097451 -0.053457 2.147838 47 69 90
0.096641 -0.045103 2.129991 43 66 82
0.095080 -0.036591 2.095583 21 38 46
0.095762 -0.035286 2.110625 13 27 36
0.095166 -0.033509 2.097476 7 19 28
0.094278 -0.031653 2.077910 4 13 23
0.094054 -0.030038 2.072980 1 9 18
0.094541 -0.028645 2.083702 0 3 14
0.094419 -0.027063 2.081026 0 1 12
0.094967 -0.025665 2.093096 0 0 10
0.094229 -0.023923 2.076834 0 0 10
0.093923 -0.022308 2.070101 2 3 15
0.094343 -0.020863 2.079347 12 18 33
0.093887 -0.019225 2.069286 24 38 55
0.093743 -0.017661 2.066132 31 52 72
0.093367 -0.016062 2.057828 37 62 86
0.093078 -0.014489 2.051476 41 70 98
0.092992 -0.012953 2.049570 42 72 104
0.092854 -0.011413 2.046523 48 80 114
0.092597 -0.009866 2.040858 59 89 125
0.092293 -0.008323 2.034162 62 92 129
0.092305 -0.006813 2.034420 58 87 124
0.092147 -0.005292 2.030941 57 86 121
0.091943 -0.003775 2.026452 59 89 122
0.092043 -0.002273 2.028644 57 88 119
0.091904 -0.000765 2.025585 55 81 113
0.091663 0.000738 2.020282 43 63 96
0.091589 0.002237 2.018645 26 42 74
0.091297 0.003724 2.012214 8 21 47
0.090852 0.005193 2.002401 0 8 31
0.090621 0.006664 1.997304 0 5 22
0.090592 0.008145 1.996682 0 5 18
0.090166 0.009582 1.987281 2 6 17
0.090997 0.011160 2.005599 4 7 16
0.091107 0.014157 2.008028 2 4 12
0.091046 0.017128 2.006675 1 2 11
0.090858 0.018580 2.002538 0 2 10
0.091046 0.020109 2.006675 0 3 11
0.090345 0.021434 1.991228 0 4 11
0.091192 0.023128 2.009908 0 3 9
0.090747 0.024500 2.000095 0 2 9
0.090532 0.025924 1.995350 0 2 9
0.090042 0.027258 1.984559 0 2 9
0.089130 0.028441 1.964445 0 2 9
0.089150 0.029907 1.964882 0 2 9
0.239645 0.115702 5.281855 1 2 7
0.234447 0.117030 5.167272 1 2 7
0.086768 0.094450 1.912401 0 1 6
0.087341 0.097933 1.925030 0 1 6
0.087126 0.104823 1.920286 0 1 6
0.094746 0.118644 2.088219 0 1 6
0.083235 0.112406 1.834527 1 2 7
0.084096 0.117698 1.853496 0 2 7
0.083647 0.118440 1.843611 0 2 7
0.096788 0.138631 2.133232 0 2 7
0.083434 0.122236 1.838921 0 4 11
0.083469 0.123652 1.839671 0 4 11
0.089120 0.137861 1.964241 0 5 11
0.084091 0.135588 1.853387 0 4 11
0.084139 0.137043 1.854448 1 4 11
0.084137 0.138416 1.854398 1 4 11
0.084315 0.140089 1.858319 1 4 11
0.084282 0.141415 1.857596 1 4 11
0.083941 0.142218 1.850094 1 4 11
0.083670 0.143128 1.844115 0 2 7
0.083846 0.144802 1.847996 0 2 7
0.083608 0.145758 1.842736 0 2 7
0.084163 0.148104 1.854973 1 2 7
0.083438 0.148195 1.839005 1 2 7
0.089134 0.159771 1.964550 1 2 7
0.085678 0.167601 1.888360 1 2 6
0.085954 0.170957 1.894462 0 1 5
0.086284 0.173024 1.901718 0 0 4
0.086334 0.174538 1.902825 0 0 4
0.082828 0.168806 1.825554 0 0 4
0.082840 0.170187 1.825819 0 0 4
0.082793 0.171446 1.824786 0 0 3
0.083281 0.175183 1.835541 0 1 0
0.083330 0.179380 1.836628 0 2 0
0.083248 0.180565 1.834807 0 2 0
0.083307 0.182056 1.836102 0 2 0
0.083399 0.184988 1.838131 0 2 0
0.083486 0.186549 1.840066 0 1 0
0.083172 0.187208 1.833129 0 0 0
0.082908 0.187970 1.827306 0 0 0
0.082564 0.188542 1.819726 0 0 0
0.082548 0.189858 1.819384 0 0 0
0.082883 0.191985 1.826766 0 0 0
0.083126 0.193910 1.832132 0 0 0
0.083508 0.196167 1.840542 0 0 0
0.083096 0.196559 1.831454 0 0 0
0.082982 0.197649 1.828948 0 0 0
0.085885 0.205970 1.892940 0 0 0
0.085786 0.207137 1.890758 0 0 0
0.084163 0.205972 1.854973 0 0 0
0.084155 0.207331 1.854800 0 0 0
0.084317 0.209110 1.858371 0 0 0
0.083708 0.208969 1.844938 0 0 0
0.083481 0.209769 1.839939 0 0 0
0.082713 0.209194 1.823016 1 1 1
0.082785 0.210731 1.824595 1 1 1
0.106188 -0.336106 2.302723 130 131 134
0.106139 -0.334239 2.301645 103 106 110
0.105555 -0.330703 2.288999 112 116 122
0.105351 -0.328367 2.284575 115 122 129
0.106327 -0.329696 2.305741 98 107 116
0.106340 -0.326310 2.306018 54 62 75
0.106650 -0.325542 2.312732 43 50 64
0.106011 -0.320176 2.298872 41 50 63
0.105497 -0.313526 2.287724 27 39 50
0.105370 -0.311454 2.284988 24 37 47
0.105332 -0.309645 2.284162 24 38 47
0.105077 -0.307203 2.278635 27 40 49
0.105112 -0.305610 2.279380 28 41 50
0.104999 -0.303591 2.276930 28 40 50
0.105088 -0.302156 2.278865 29 39 52
0.104579 -0.299008 2.267825 29 41 56
0.104426 -0.296888 2.264504 31 45 61
0.104657 -0.295860 2.269526 29 45 61
0.104679 -0.294236 2.269999 28 44 60
0.104349 -0.291628 2.262845 27 43 59
0.104447 -0.290217 2.264953 26 42 58
0.104101 -0.287579 2.257452 28 44 60
0.104041 -0.285738 2.256152 32 48 63
0.104004 -0.283962 2.255353 35 51 66
0.104004 -0.282286 2.255349 36 54 68
0.103925 -0.280398 2.253643 29 47 60
0.103612 -0.277884 2.246849 20 38 50
0.103181 -0.275067 2.237507 12 30 42
0.103186 -0.273419 2.237624 9 27 39
0.103385 -0.272280 2.241933 8 26 38
0.102923 -0.269406 2.231915 9 27 39
0.102864 -0.267595 2.230634 9 27 40
0.102686 -0.265478 2.226776 9 26 42
0.102706 -0.263875 2.227212 11 28 46
0.102638 -0.262046 2.225724 12 29 47
0.102402 -0.259794 2.220609 12 29 46
0.102572 -0.258575 2.224305 14 31 48
0.103152 -0.258376 2.236887 15 32 48
0.102760 -0.255738 2.228377 9 25 40
0.102703 -0.253941 2.227136 2 15 30
0.102960 -0.252919 2.232717 0 13 29
0.102736 -0.250713 2.227852 1 14 30
0.102667 -0.248892 2.226368 1 14 29
0.102307 -0.246372 2.218561 1 15 28
0.102242 -0.244569 2.217156 1 15 28
0.102348 -0.243173 2.219451 0 14 27
0.101897 -0.240459 2.209656 0 12 25
0.102402 -0.240001 2.220609 0 11 22
0.102142 -0.237747 2.214977 0 10 21
0.102182 -0.236194 2.215837 0 10 19
0.102331 -0.234891 2.219073 0 9 18
0.102350 -0.233286 2.219492 0 9 18
0.102323 -0.231576 2.218903 0 8 18
0.102362 -0.230017 2.219758 0 7 17
0.101782 -0.227072 2.207163 0 6 17
0.101224 -0.224199 2.195080 1 5 16
0.101918 -0.224093 2.210118 0 3 14
0.101726 -0.222032 2.205949 0 0 12
0.102294 -0.221625 2.218273 0 0 12
0.102286 -0.219959 2.218092 0 0 12
0.102452 -0.218666 2.221695 0 0 12
0.102431 -0.216972 2.221246 0 0 12
0.102623 -0.215725 2.225402 0 0 12
0.102670 -0.214171 2.226432 0 0 12
0.103072 -0.213350 2.235155 0 1 12
0.102788 -0.211105 2.228980 0 3 11
0.102489 -0.208840 2.222493 0 3 10
0.101844 -0.205886 2.208514 0 3 10
0.101965 -0.204489 2.211147 0 3 10
0.101544 -0.202009 2.202019 0 5 11
0.101440 -0.200167 2.199751 1 6 12
0.100877 -0.197431 2.187541 1 6 12
0.100802 -0.195661 2.185921 0 6 12
0.101028 -0.194472 2.190815 0 6 12
0.101166 -0.193109 2.193808 0 6 12
0.101100 -0.191355 2.192385 0 6 12
0.100965 -0.189472 2.189444 0 6 12
0.100608 -0.187181 2.181703 0 6 12
0.100693 -0.185718 2.183555 0 6 12
0.100200 -0.183196 2.172875 0 6 12
0.100466 -0.182064 2.178636 0 5 11
0.101046 -0.181486 2.191204 0 3 8
0.101069 -0.179901 2.191720 0 3 8
0.101085 -0.178301 2.192058 0 3 8
0.101187 -0.176852 2.194279 0 3 8
0.101050 -0.174984 2.191303 0 3 8
0.100564 -0.172522 2.180753 0 3 8
0.100637 -0.171026 2.182336 0 3 8
0.100207 -0.168682 2.173018 0 2 7
0.099544 -0.165962 2.158632 0 2 7
0.099758 -0.164712 2.163273 0 2 7
0.099670 -0.162961 2.161369 1 2 7
0.099732 -0.161457 2.162718 1 2 7
0.100086 -0.158806 2.170396 1 2 7
0.099799 -0.156743 2.164177 1 2 7
0.099642 -0.154892 2.160775 0 2 6
0.100506 -0.154616 2.179512 0 2 5
0.101768 -0.154917 2.206860 0 4 7
0.101659 -0.153114 2.204497 0 2 7
0.100959 -0.150434 2.189327 0 2 7
0.099689 -0.146935 2.161779 0 1 9
0.099912 -0.144045 2.166613 1 3 15
0.099840 -0.142333 2.165053 0 2 14
0.099609 -0.140401 2.160060 4 14 26
0.099716 -0.138944 2.162364 37 54 67
0.099548 -0.137106 2.158716 71 96 108
0.098548 -0.134143 2.137051 106 134 146
0.098227 -0.132123 2.130081 99 126 141
0.097712 -0.129856 2.118906 79 104 122
0.098192 -0.128913 2.129318 78 100 121
0.098281 -0.127447 2.131260 55 76 98
0.098253 -0.125827 2.130635 49 71 92
0.098260 -0.124254 2.130792 32 55 75
0.098382 -0.122824 2.133444 19 41 59
0.098289 -0.121124 2.131421 15 38 51
0.098184 -0.119413 2.129139 18 38 50
0.097951 -0.117553 2.124103 16 36 45
0.098020 -0.116057 2.125592 15 34 41
0.098870 -0.115470 2.144021 14 33 39
0.098586 -0.113551 2.137861 10 27 34
0.099046 -0.112486 2.147846 9 26 33
0.098972 -0.110807 2.146230 9 23 31
0.098991 -0.109234 2.146651 6 21 29
0.098463 -0.107065 2.135191 3 17 26
0.098161 -0.105156 2.128655 0 14 23
0.097827 -0.103223 2.121415 0 13 22
0.097934 -0.101758 2.123730 0 12 19
0.098474 -0.100733 2.135437 0 8 10
0.098492 -0.099165 2.135836 0 5 6
0.098555 -0.097641 2.137188 0 3 6
0.098478 -0.095979 2.135533 0 5 8
0.098644 -0.094552 2.139133 0 7 12
0.098687 -0.093003 2.140058 0 9 16
0.098628 -0.091358 2.138771 4 17 26
0.098374 -0.089538 2.133257 13 29 40
0.097718 -0.087368 2.119049 17 34 47
0.097876 -0.085933 2.122468 17 35 49
0.097921 -0.084395 2.123448 17 35 51
0.097961 -0.082852 2.124322 19 37 53
0.098387 -0.081627 2.133549 20 38 54
0.097859 -0.079613 2.122094 22 40 56
0.098204 -0.078312 2.129589 23 41 57
0.098265 -0.076777 2.130894 23 42 57
0.098295 -0.075218 2.131558 23 44 59
0.098293 -0.073633 2.131511 23 45 59
0.098340 -0.072084 2.132523 23 45 59
0.098281 -0.070458 2.131241 24 46 60
0.098256 -0.068857 2.130707 25 47 61
0.098251 -0.067271 2.130598 26 48 62
0.098135 -0.065611 2.128075 26 48 62
0.098429 -0.064222 2.134458 26 48 62
0.098187 -0.062483 2.129220 27 49 62
0.098127 -0.060864 2.127911 27 49 62
0.098067 -0.059247 2.126606 32 54 68
0.098300 -0.057805 2.131660 42 64 79
0.098492 -0.056332 2.135836 47 68 85
0.098385 -0.054685 2.133505 46 67 86
0.098274 -0.053041 2.131090 49 70 91
0.098423 -0.051536 2.134320 52 75 95
0.098057 -0.049765 2.126397 44 72 89
0.098099 -0.048206 2.127307 44 72 88
0.097901 -0.046532 2.123019 43 71 85
0.098094 -0.045044 2.127203 41 67 79
0.096379 -0.036494 2.090013 20 38 47
0.096253 -0.034896 2.087273 12 28 36
0.096008 -0.031715 2.081969 3 15 24
0.096093 -0.030195 2.083798 2 10 19
0.095854 -0.028576 2.078629 0 4 13
0.095914 -0.027048 2.079912 0 1 11
0.095723 -0.025453 2.075785 0 1 11
0.095531 -0.023863 2.071606 2 2 13
0.095574 -0.022334 2.072540 6 9 21
0.095562 -0.020792 2.072293 21 30 44
0.095465 -0.019234 2.070179 34 48 65
0.095121 -0.017632 2.062727 34 56 76
0.094800 -0.016046 2.055767 36 64 87
0.094410 -0.014459 2.047312 40 71 100
0.094255 -0.012917 2.043955 42 74 107
0.094223 -0.011395 2.043256 50 84 120
0.094288 -0.009884 2.044670 61 92 131
0.094024 -0.008342 2.038945 62 91 130
0.093756 -0.006808 2.033134 52 81 119
0.093696 -0.005295 2.031834 49 78 113
0.093343 -0.003771 2.024178 51 81 113
0.093382 -0.002269 2.025007 47 76 107
0.093903 -0.000769 2.036310 38 62 92
0.093111 0.000737 2.019132 19 36 67
0.094104 0.002261 2.040673 6 19 47
0.093475 0.003752 2.027037 0 7 31
0.092536 0.005204 2.006675 0 6 24
0.091867 0.006646 1.992167 0 6 20
0.091680 0.008110 1.988115 0 6 15
0.092716 0.009695 2.010563 3 7 15
0.092299 0.011138 2.001535 4 7 14
0.093616 0.012805 2.030100 1 2 9
0.092467 0.018605 2.005170 0 3 9
0.092243 0.021531 2.000322 0 4 9
0.091709 0.024361 1.988728 0 2 9
0.091214 0.025699 1.977996 0 2 9
0.090902 0.027075 1.971230 0 2 9
0.090021 0.028263 1.952127 0 2 9
0.091998 0.058520 1.994993 1 2 6
0.095115 0.117187 2.062589 0 1 6
0.085029 0.117088 1.843880 1 2 7
0.084916 0.118300 1.841436 1 2 7
0.098299 0.138527 2.131641 1 2 7
0.084475 0.121767 1.831860 1 4 11
0.084533 0.123213 1.833129 1 4 11
0.085275 0.136655 1.849209 1 4 11
0.085434 0.138286 1.852652 1 4 11
0.085485 0.139747 1.853774 1 4 11
0.085332 0.140871 1.850452 1 4 11
0.084860 0.141459 1.840222 1 4 11
0.084592 0.142374 1.834400 0 2 7
0.084745 0.143997 1.837722 0 2 7
0.084835 0.145516 1.839671 0 2 7
0.084132 0.155152 1.824436 0 2 7
0.084266 0.156755 1.827325 1 2 7
0.087438 0.171107 1.896122 0 1 5
0.087658 0.172949 1.900891 0 1 5
0.087726 0.174495 1.902354 0 1 5
0.084066 0.171277 1.822986 0 1 3
0.084691 0.183465 1.836550 0 2 0
0.084733 0.186285 1.837457 0 1 0
0.084333 0.186764 1.828786 0 0 0
0.084161 0.187739 1.825057 0 0 0
0.083919 0.188550 1.819804 0 0 0
0.084001 0.190088 1.821587 0 0 0
0.084070 0.191598 1.823077 0 0 0
0.084315 0.193515 1.828399 0 0 0
0.084501 0.195303 1.832431 0 0 0
0.084405 0.196439 1.830340 0 0 0
0.087179 0.204301 1.890503 0 0 0
0.087228 0.205821 1.891568 0 0 0
0.087102 0.206926 1.888837 0 0 0
0.086973 0.208019 1.886027 0 0 0
0.086075 0.208644 1.866552 0 0 0
0.085643 0.208977 1.857186 0 0 0
0.084033 0.209110 1.822281 1 1 1
0.084098 0.210625 1.823680 1 1 1
0.107730 -0.335582 2.299131 128 129 131
0.108899 -0.325413 2.324075 39 45 58
0.107561 -0.314594 2.295517 26 36 47
0.107014 -0.311299 2.283852 26 38 47
0.106913 -0.309309 2.281686 26 39 48
0.106643 -0.306838 2.275930 26 39 47
0.107080 -0.306397 2.285247 27 40 49
0.106542 -0.303169 2.273767 28 41 50
0.106464 -0.301260 2.272108 31 41 52
0.106500 -0.299672 2.272863 31 42 55
0.106317 -0.297474 2.268974 32 44 61
0.106078 -0.295121 2.263857 29 43 61
0.106273 -0.293982 2.268038 28 42 59
0.105993 -0.291525 2.262048 27 41 58
0.106056 -0.290019 2.263404 27 43 59
0.105745 -0.287491 2.256757 27 43 59
0.105747 -0.285820 2.256804 29 45 60
0.105633 -0.283838 2.254371 30 46 61
0.105448 -0.281668 2.250416 33 49 63
0.105540 -0.280241 2.252375 24 41 53
0.105128 -0.277482 2.243597 13 31 43
0.104923 -0.275276 2.239211 7 25 36
0.104762 -0.273194 2.235784 7 25 36
0.104706 -0.271387 2.234576 9 27 38
0.104684 -0.269672 2.234119 8 26 37
0.104283 -0.266985 2.225553 6 24 36
0.104239 -0.265220 2.224618 5 23 37
0.104024 -0.263026 2.220039 8 25 40
0.104001 -0.261319 2.219550 8 26 41
0.103705 -0.258930 2.213223 8 26 41
0.103878 -0.257717 2.216926 11 28 43
0.104491 -0.257581 2.230006 12 29 44
0.104373 -0.255634 2.227476 7 23 38
0.104138 -0.253408 2.222463 1 14 29
0.104395 -0.252378 2.227943 0 13 28
0.104346 -0.250606 2.226906 0 14 28
0.104257 -0.248740 2.225010 0 13 27
0.103781 -0.245958 2.214837 0 13 26
0.103698 -0.244119 2.213080 0 12 25
0.103429 -0.241847 2.207341 0 12 25
0.103693 -0.240820 2.212973 0 11 24
0.103812 -0.239449 2.215497 0 11 22
0.103912 -0.238033 2.217638 0 10 20
0.104001 -0.236588 2.219536 0 8 18
0.103700 -0.234260 2.213119 0 8 17
0.103836 -0.232922 2.216026 0 8 17
0.103827 -0.231256 2.215837 0 7 17
0.103339 -0.228530 2.205413 0 6 16
0.103086 -0.226337 2.200012 1 5 16
0.102665 -0.223785 2.191031 1 4 16
0.103371 -0.223686 2.206101 0 2 14
0.103637 -0.222617 2.211762 0 0 12
0.103764 -0.221245 2.214477 0 0 12
0.103680 -0.219424 2.212700 0 0 12
0.104009 -0.218470 2.219702 0 0 12
0.103730 -0.216240 2.213747 0 0 12
0.104131 -0.215425 2.222311 0 0 12
0.103933 -0.213369 2.218092 0 0 11
0.104235 -0.212337 2.224543 0 1 11
0.104122 -0.210456 2.222123 0 3 10
0.104190 -0.208941 2.223574 0 3 10
0.104076 -0.207063 2.221137 0 3 10
0.103857 -0.204981 2.216462 0 3 10
0.103852 -0.203325 2.216360 0 5 11
