ply
format ascii 1.0
element vertex 1354
property float x
property float y
property float z
property uchar red
property uchar green
property uchar blue
end_header
0.076704 0.075879 1.874734 1 6 21
0.076234 0.076798 1.863243 2 5 21
0.076593 0.079940 1.871999 0 0 16
0.076535 0.081270 1.870595 0 0 15
0.076827 0.082975 1.877736 0 0 14
0.076399 0.083899 1.867277 0 1 13
0.075791 0.084608 1.852420 0 1 11
0.075988 0.086207 1.857236 0 2 9
0.076523 0.088203 1.870296 0 2 8
0.077126 0.090298 1.885035 0 2 8
0.077444 0.092077 1.892817 0 2 8
0.077499 0.093548 1.894145 0 2 8
0.077324 0.094741 1.889884 0 1 8
0.077305 0.096122 1.889421 1 1 9
0.077239 0.097441 1.887790 1 1 9
0.077263 0.098874 1.888390 1 1 11
0.076735 0.099592 1.875481 1 1 11
0.076245 0.100339 1.863494 1 1 11
0.076244 0.101722 1.863470 1 1 11
0.076518 0.103477 1.870180 1 1 11
0.076453 0.104778 1.868595 1 1 11
0.077246 0.107266 1.887967 1 1 11
0.077085 0.108442 1.884027 1 0 13
0.077246 0.110071 1.887975 1 0 13
0.077278 0.111520 1.888764 0 0 12
0.077036 0.112569 1.882847 0 0 12
0.075626 0.118746 1.848379 1 1 11
0.075031 0.119173 1.833828 1 1 11
0.074710 0.120020 1.825980 1 1 11
0.074633 0.121251 1.824095 1 1 11
0.074676 0.122678 1.825168 1 1 11
0.074672 0.124026 1.825057 1 1 11
0.074729 0.125477 1.826449 1 1 11
0.075840 0.131473 1.853609 1 1 11
0.076423 0.133871 1.867857 0 0 10
0.077173 0.136585 1.886176 0 0 10
0.077296 0.138206 1.889186 0 0 10
0.072711 0.145848 1.777122 0 0 8
0.072615 0.146975 1.774785 0 0 8
0.074484 0.164280 1.820471 0 0 7
0.074656 0.166013 1.824660 0 0 7
0.074627 0.167304 1.823962 0 0 8
0.074596 0.168589 1.823206 0 0 8
0.074548 0.171187 1.822022 0 0 8
0.074644 -0.254884 1.791847 177 169 177
0.091634 -0.309630 2.199687 151 148 158
0.091560 -0.307749 2.197924 136 135 145
0.090746 -0.303395 2.178384 124 125 136
0.092785 -0.306901 2.227313 117 120 132
0.092865 -0.305513 2.229252 114 119 131
0.092885 -0.303921 2.229724 108 114 128
0.092343 -0.300500 2.216703 85 95 110
0.091777 -0.290476 2.203121 70 96 122
0.092065 -0.288105 2.210039 61 86 112
0.092211 -0.286917 2.213537 40 65 91
0.091844 -0.279226 2.204736 55 77 110
0.090826 -0.274511 2.180295 58 81 115
0.091723 -0.275587 2.201830 52 76 109
0.091860 -0.274360 2.205109 49 74 105
0.091665 -0.272145 2.200441 45 72 101
0.091743 -0.270740 2.202314 42 69 98
0.091484 -0.268345 2.196100 41 68 96
0.091437 -0.266577 2.194975 42 68 97
0.091337 -0.264656 2.192565 45 70 100
0.091115 -0.262389 2.187242 47 72 102
0.091135 -0.260822 2.187723 38 64 94
0.090752 -0.258108 2.178530 27 54 84
0.090767 -0.256530 2.178870 22 48 78
0.090729 -0.254805 2.177961 24 48 78
0.090546 -0.252677 2.173573 26 49 77
0.090152 -0.249969 2.164107 22 44 70
0.090140 -0.248330 2.163834 19 40 65
0.090378 -0.247374 2.169544 22 41 66
0.090439 -0.245929 2.171012 14 32 56
0.091118 -0.246149 2.187296 6 23 46
0.091180 -0.244691 2.188789 6 22 44
0.091043 -0.242701 2.185508 7 24 44
0.091009 -0.240987 2.184690 9 26 44
0.091192 -0.239847 2.189088 10 27 44
0.091386 -0.238728 2.193746 10 27 42
0.091304 -0.236886 2.191780 7 25 39
0.091265 -0.235157 2.190840 6 22 36
0.091392 -0.233853 2.193879 5 20 33
0.091280 -0.231939 2.191187 6 19 34
0.091118 -0.229902 2.187296 4 17 33
0.090940 -0.227832 2.183025 3 16 32
0.090817 -0.225905 2.180076 2 14 30
0.091400 -0.225725 2.194068 1 13 28
0.091353 -0.223981 2.192945 0 12 26
0.090983 -0.221451 2.184059 0 11 24
0.091325 -0.220656 2.192280 0 8 19
0.090928 -0.218076 2.182753 0 7 17
0.090508 -0.215455 2.172672 0 6 16
0.090310 -0.213373 2.167915 0 5 15
0.089913 -0.210831 2.158380 0 4 15
0.089802 -0.208969 2.155708 0 3 14
0.089917 -0.207634 2.158476 0 3 15
0.089780 -0.205716 2.155179 0 3 14
0.090134 -0.204921 2.163690 0 3 11
0.089632 -0.202181 2.151628 0 4 10
0.089811 -0.200984 2.155934 0 4 10
0.089674 -0.199080 2.152654 0 3 10
0.089970 -0.198131 2.159748 0 3 10
0.089880 -0.196330 2.157587 0 3 10
0.090395 -0.195845 2.169963 0 3 10
0.089822 -0.193000 2.156188 0 2 9
0.090924 -0.188884 2.182653 0 0 8
0.090256 -0.185887 2.166613 0 0 8
0.090134 -0.184029 2.163690 0 0 8
0.089848 -0.181843 2.156823 0 0 8
0.090013 -0.180571 2.160775 0 0 8
0.090114 -0.179167 2.163204 0 0 8
0.090185 -0.177700 2.164901 0 0 8
0.090097 -0.174313 2.162788 0 0 8
0.090120 -0.172751 2.163340 0 0 10
0.090528 -0.171919 2.173136 0 0 9
0.091265 -0.171692 2.190840 0 0 8
0.091500 -0.170504 2.196490 0 0 8
0.091442 -0.168764 2.195080 0 0 8
0.091350 -0.166967 2.192888 0 0 8
0.090560 -0.163906 2.173904 0 0 10
0.089707 -0.160763 2.153425 0 0 10
0.089717 -0.159182 2.153682 0 0 12
0.089835 -0.157790 2.156514 0 0 13
0.088923 -0.154602 2.134614 0 0 15
0.088560 -0.152393 2.125914 1 1 19
0.089932 -0.149942 2.158836 127 146 176
0.092137 -0.148690 2.211762 69 98 132
0.090582 -0.141336 2.174446 38 59 80
0.090152 -0.139056 2.164107 21 40 57
0.089674 -0.136721 2.152654 4 22 36
0.089840 -0.135372 2.156624 0 18 30
0.090636 -0.134955 2.175730 4 21 31
0.090256 -0.132780 2.166613 5 19 30
0.089758 -0.130448 2.154671 3 16 25
0.089702 -0.128766 2.153315 1 14 23
0.090596 -0.128435 2.174788 1 17 27
0.090701 -0.126967 2.177308 1 19 31
0.090106 -0.124527 2.163016 0 20 29
0.089771 -0.122463 2.154968 2 23 34
0.090688 -0.122097 2.176992 5 27 41
0.090378 -0.120068 2.169544 0 20 37
0.090903 -0.117524 2.182143 14 40 59
0.091284 -0.116388 2.191281 49 76 95
0.090364 -0.113605 2.169218 74 102 123
0.089995 -0.111536 2.160349 69 97 121
0.089711 -0.109584 2.153522 69 95 122
0.089512 -0.107745 2.148750 42 61 91
0.088837 -0.105348 2.132544 0 9 37
0.089309 -0.104316 2.143881 0 1 23
0.089635 -0.099903 2.151716 0 0 11
0.088837 -0.095844 2.132544 0 0 9
0.090042 -0.090723 2.161474 0 1 5
0.089610 -0.088690 2.151114 0 1 5
0.089927 -0.085797 2.158711 0 1 6
0.086209 -0.079175 2.069465 0 1 6
0.087618 -0.077345 2.103292 0 1 6
0.087146 -0.075374 2.091954 0 1 6
0.085048 -0.069010 2.041585 0 1 6
0.085019 -0.067471 2.040892 0 1 6
0.084617 -0.065643 2.031242 0 1 6
0.084852 -0.050696 2.036893 0 0 12
0.084250 -0.048834 2.022429 0 0 12
0.084643 -0.047553 2.031866 0 2 13
0.084562 -0.045999 2.029924 0 2 11
0.084313 -0.044360 2.023941 0 2 11
0.086007 -0.042185 2.064612 0 0 9
0.086730 -0.040993 2.081969 1 0 7
0.086768 -0.039464 2.082876 1 0 6
0.086876 -0.037964 2.085476 0 2 5
0.086734 -0.036355 2.082063 0 6 6
0.086549 -0.034735 2.077631 0 10 11
0.085754 -0.032887 2.058555 11 28 36
0.085425 -0.031237 2.050650 34 51 70
0.085277 -0.029663 2.047082 42 60 86
0.085360 -0.028170 2.049094 33 55 85
0.085430 -0.026669 2.050761 26 53 81
0.085425 -0.025145 2.050634 26 56 84
0.085157 -0.023548 2.044217 27 57 83
0.085082 -0.022010 2.042401 27 57 83
0.084954 -0.020462 2.039335 26 56 82
0.085078 -0.018975 2.042315 25 55 81
0.085117 -0.017466 2.043243 25 55 81
0.084908 -0.015909 2.038224 24 54 80
0.083380 -0.012649 2.001558 23 54 80
0.083509 -0.011180 2.004645 22 54 79
0.083593 -0.009701 2.006675 22 53 78
0.083859 -0.008236 2.013046 21 51 77
0.083752 -0.006732 2.010495 21 50 76
0.083788 -0.005241 2.011349 21 47 74
0.083643 -0.003741 2.007865 21 46 73
0.084709 0.000743 2.033464 19 43 71
0.084332 0.002243 2.024405 16 40 68
0.084975 0.003775 2.039854 13 37 65
0.082436 0.008072 1.978890 7 31 59
0.081747 0.010920 1.962352 10 31 60
0.081719 0.012373 1.961678 10 29 59
0.080739 0.013664 1.938148 11 31 61
0.080456 0.015051 1.931362 12 33 62
0.081043 0.016606 1.945462 12 33 62
0.081831 0.018226 1.964376 11 35 63
0.080604 0.020827 1.934919 16 43 70
0.080813 0.022322 1.939928 19 47 73
0.081877 0.024076 1.965484 18 49 72
0.082662 0.025781 1.984330 18 49 70
0.081852 0.026988 1.964882 17 45 66
0.081900 0.028464 1.966038 12 39 60
0.081559 0.029800 1.957846 8 33 55
0.081453 0.031213 1.955300 6 30 54
0.081014 0.032489 1.944763 7 31 56
0.080384 0.033670 1.929637 8 32 59
0.080242 0.035041 1.926226 8 32 59
0.079783 0.036264 1.915218 7 32 59
0.080015 0.037795 1.920772 6 32 59
0.079693 0.039064 1.913045 5 31 58
0.079641 0.040459 1.911793 3 29 54
0.079378 0.041741 1.905478 3 28 51
0.079310 0.043119 1.903856 2 27 50
0.079002 0.044360 1.896471 2 27 48
0.079089 0.045819 1.898555 3 29 48
0.079270 0.047338 1.902898 2 28 45
0.078941 0.048548 1.894990 1 27 45
0.079067 0.050036 1.898030 1 23 44
0.079255 0.051568 1.902544 0 21 42
0.079301 0.053012 1.903637 0 18 41
0.078354 0.055173 1.880902 0 17 37
0.078319 0.056545 1.880073 1 16 37
0.078698 0.058222 1.889159 1 16 35
0.078754 0.059667 1.890503 2 16 35
0.078844 0.061141 1.892670 1 15 34
0.078641 0.062386 1.887790 0 15 34
0.078641 0.063788 1.887790 0 14 34
0.078356 0.064954 1.880954 0 13 35
0.078232 0.066246 1.877966 0 13 32
0.077654 0.067142 1.864107 1 11 26
0.078490 0.069264 1.884166 1 9 22
0.077780 0.072798 1.867124 0 3 17
0.077847 0.074248 1.868727 0 3 17
0.077940 0.075726 1.870956 1 3 18
0.077714 0.076893 1.865539 1 3 18
0.078029 0.078596 1.873092 0 0 16
0.077780 0.079732 1.867124 0 0 16
0.077870 0.081213 1.869286 1 0 15
0.077776 0.082501 1.867025 0 0 14
0.077378 0.083459 1.857473 0 1 13
0.076821 0.084228 1.844115 0 1 11
0.077042 0.085844 1.849413 0 2 9
0.077746 0.088015 1.866311 0 2 8
0.078081 0.089786 1.874343 0 2 7
0.078579 0.091760 1.886310 0 2 7
0.078829 0.093457 1.892296 0 2 7
0.078430 0.094382 1.882725 0 1 7
0.078732 0.096150 1.889983 1 1 9
0.078239 0.096943 1.878144 1 1 9
0.078033 0.098079 1.873209 1 1 11
0.077764 0.099127 1.866740 1 1 11
0.077743 0.100487 1.866249 1 1 11
0.077681 0.101791 1.864740 1 1 11
0.077738 0.103253 1.866118 1 1 13
0.077702 0.104591 1.865261 1 1 13
0.078004 0.106388 1.872509 1 1 13
0.078195 0.108042 1.877078 1 0 13
0.078029 0.109204 1.873092 1 0 13
0.078064 0.110646 1.873955 0 0 12
0.078075 0.112053 1.874215 0 0 10
0.077999 0.113334 1.872383 0 0 9
0.077836 0.115873 1.868471 0 0 8
0.077814 0.118615 1.867936 0 0 8
0.076597 0.118126 1.838733 0 0 8
0.076200 0.118872 1.829188 0 0 8
0.075786 0.119578 1.819267 0 0 8
0.075729 0.120838 1.817892 0 0 8
0.075667 0.122088 1.816395 0 0 8
0.075757 0.123584 1.818557 0 0 8
0.076891 0.130919 1.845787 0 0 10
0.077708 0.133695 1.865403 0 0 11
0.078111 0.135781 1.875070 0 0 11
0.078354 0.137600 1.880902 0 0 12
0.144328 0.284342 3.464630 0 0 8
0.075442 0.163425 1.811003 0 1 6
0.075368 -0.252846 1.777523 174 165 175
0.094491 -0.305416 2.228544 103 107 123
0.095341 -0.301482 2.248588 59 75 101
0.094598 -0.297475 2.231065 71 90 119
0.093067 -0.287771 2.194963 77 103 132
0.093625 -0.287855 2.208114 63 90 119
0.093794 -0.286733 2.212113 39 66 95
0.093222 -0.276818 2.198617 52 77 111
0.093356 -0.275580 2.201773 49 74 109
0.093385 -0.274029 2.202450 46 72 105
0.093319 -0.272201 2.200898 43 68 102
0.093204 -0.270232 2.198179 40 66 98
0.093222 -0.268653 2.198617 41 66 97
0.092988 -0.266350 2.193102 45 69 100
0.093165 -0.265224 2.197273 50 74 104
0.092835 -0.262658 2.189486 54 77 108
0.092663 -0.260548 2.185427 49 75 105
0.092373 -0.258113 2.178578 43 68 98
0.092283 -0.256248 2.176477 40 64 95
0.092282 -0.254626 2.176435 41 65 94
0.091664 -0.251316 2.161867 36 58 86
0.091735 -0.249905 2.163551 24 45 70
0.092026 -0.249083 2.170396 17 36 61
0.092059 -0.247562 2.171191 21 39 62
0.092129 -0.246135 2.172829 16 33 56
0.092166 -0.244621 2.173715 9 25 48
0.092191 -0.243070 2.174286 8 24 45
0.092101 -0.241221 2.172183 8 24 43
0.091953 -0.239223 2.168690 9 26 43
0.092262 -0.238410 2.175973 11 28 43
0.092515 -0.237443 2.181940 10 27 42
0.092413 -0.235562 2.179530 9 25 40
0.092451 -0.234039 2.180426 7 22 35
0.092268 -0.231959 2.176110 5 19 32
0.092269 -0.230347 2.176147 5 18 32
0.092281 -0.228759 2.176413 3 17 32
0.092108 -0.226717 2.172339 2 15 30
0.092304 -0.225583 2.176965 1 13 29
0.092716 -0.224965 2.186677 0 12 27
0.092364 -0.222493 2.178384 0 11 25
0.092517 -0.221241 2.181992 1 10 22
0.092558 -0.219717 2.182945 0 7 18
0.092577 -0.218140 2.183392 0 6 17
0.092203 -0.215643 2.174573 0 5 15
0.092005 -0.213569 2.169910 0 3 14
0.091628 -0.211088 2.161008 0 2 14
0.091521 -0.209240 2.158499 0 2 14
0.091547 -0.207695 2.159112 0 1 14
0.091112 -0.205112 2.148854 0 2 13
0.091378 -0.204110 2.155123 0 2 11
0.091477 -0.202730 2.157469 0 3 9
0.091058 -0.200204 2.147569 0 3 9
0.090480 -0.197349 2.133942 0 3 9
0.090756 -0.196362 2.140463 0 2 9
0.090855 -0.194984 2.142793 0 2 9
0.091442 -0.194641 2.156624 0 2 9
0.092217 -0.189829 2.174908 0 0 8
0.091865 -0.185887 2.166613 0 0 8
0.091146 -0.182836 2.149660 0 0 8
0.091094 -0.171559 2.148415 0 0 10
0.091535 -0.170788 2.158836 0 0 9
0.092406 -0.170794 2.179371 0 0 8
0.092777 -0.169853 2.188110 0 0 8
0.092731 -0.168145 2.187025 0 0 8
0.092197 -0.165562 2.174446 0 0 8
0.091630 -0.162939 2.161071 0 0 10
0.091145 -0.160480 2.149636 0 0 10
0.090734 -0.158166 2.139928 0 0 12
0.089566 -0.152993 2.112394 0 0 14
0.089214 -0.150828 2.104080 1 2 20
0.092364 -0.143210 2.178384 36 60 86
0.091051 -0.134793 2.147407 0 17 29
0.092211 -0.134895 2.174767 3 18 28
0.091421 -0.132137 2.156127 2 15 27
0.091145 -0.130143 2.149636 2 13 23
0.092509 -0.130470 2.181799 1 14 23
0.092070 -0.128237 2.171435 1 18 28
0.092269 -0.126898 2.176132 1 21 32
0.091749 -0.124575 2.163862 0 21 29
0.091810 -0.123050 2.165313 2 24 35
0.091823 -0.121459 2.165617 6 28 42
0.092055 -0.120153 2.171082 0 20 38
0.092439 -0.119035 2.180148 0 22 42
0.092635 -0.117665 2.184775 15 40 60
0.092412 -0.115762 2.179501 49 76 95
0.092470 -0.114216 2.180878 75 103 124
0.091127 -0.109364 2.149193 65 91 118
0.090929 -0.107534 2.144540 37 56 86
0.090384 -0.105306 2.131685 0 8 35
0.090641 -0.104017 2.137734 0 2 24
0.091045 -0.099696 2.147274 0 0 9
0.089516 -0.096453 2.111202 0 0 9
0.091592 -0.095482 2.160173 0 1 5
0.091929 -0.094223 2.168124 0 1 4
0.092017 -0.092701 2.170190 0 1 4
0.091139 -0.090220 2.149496 0 1 4
0.091482 -0.087354 2.157564 0 1 5
0.091016 -0.085314 2.146578 0 1 6
0.090625 -0.080185 2.137354 0 1 6
0.088320 -0.075051 2.082999 0 1 6
0.090504 -0.061053 2.134505 0 1 5
0.088588 -0.053553 2.089321 0 0 10
0.086527 -0.046244 2.040719 0 1 8
0.086500 -0.044714 2.040067 0 1 8
0.087540 -0.042185 2.064612 0 0 9
0.088504 -0.039548 2.087337 0 0 7
0.088331 -0.037924 2.083250 0 1 6
0.088356 -0.036387 2.083850 0 7 9
0.087861 -0.034643 2.072167 2 15 21
0.087380 -0.032923 2.060822 22 38 51
0.086695 -0.031146 2.044670 43 61 83
0.087084 -0.029761 2.053855 43 63 92
0.087473 -0.028361 2.063031 29 52 83
0.087143 -0.026728 2.055251 23 50 80
0.086977 -0.025153 2.051333 27 56 85
0.086800 -0.023581 2.047144 27 57 85
0.086532 -0.021993 2.040836 27 57 83
0.087103 -0.020612 2.054301 26 56 82
0.086636 -0.018984 2.043277 25 55 81
0.086514 -0.017441 2.040406 25 55 81
0.086403 -0.015905 2.037780 24 54 80
0.084977 -0.011177 2.004168 22 54 79
0.085119 -0.009705 2.007513 22 53 78
0.085255 -0.008227 2.010722 22 51 77
0.085062 -0.006718 2.006173 22 50 76
0.084893 -0.005217 2.002166 21 47 74
0.085062 -0.003738 2.006173 21 46 73
0.085174 -0.000758 2.008802 19 43 71
0.085753 0.000739 2.022450 19 43 71
0.085487 0.002234 2.016196 16 40 68
0.083337 0.009477 1.965484 9 30 59
0.083117 0.012364 1.960288 9 28 58
0.082450 0.013709 1.944553 11 30 60
0.081898 0.015052 1.931547 11 32 61
0.082892 0.018139 1.954977 10 34 62
0.083238 0.019673 1.963133 12 38 65
0.081955 0.020805 1.932874 15 43 69
0.082518 0.022394 1.946161 17 46 70
0.083092 0.024006 1.959711 16 48 69
0.083571 0.025608 1.970999 19 50 71
0.083529 0.027058 1.970017 17 47 67
0.083092 0.028372 1.959711 10 38 59
0.083040 0.029809 1.958484 2 29 50
0.082490 0.031057 1.945497 1 25 48
0.082386 0.032461 1.943055 5 29 53
0.082408 0.033913 1.943566 9 33 58
0.081645 0.035029 1.925565 8 32 58
0.081589 0.036435 1.924262 9 33 59
0.081478 0.037812 1.921634 8 34 59
0.080926 0.038974 1.908605 7 33 58
0.080958 0.040408 1.909379 6 31 54
0.080549 0.041614 1.899716 5 30 52
0.080392 0.042942 1.896030 3 28 50
0.080431 0.044371 1.896931 3 27 47
0.080549 0.045847 1.899716 4 27 45
0.080428 0.047188 1.896878 3 26 44
0.080279 0.048506 1.893350 1 24 42
0.080580 0.050100 1.900466 1 21 40
0.080410 0.051403 1.896449 0 18 38
0.080587 0.052928 1.900628 0 15 36
0.080249 0.054112 1.892651 0 14 34
0.080026 0.055363 1.887382 0 13 32
0.079793 0.056600 1.881883 0 11 31
0.079878 0.058060 1.883905 0 11 29
0.080010 0.059557 1.887000 1 11 28
0.080043 0.060984 1.887790 0 10 28
0.079986 0.062341 1.886437 0 10 27
0.079957 0.063720 1.885769 0 10 28
0.079821 0.065010 1.882563 0 9 28
0.079699 0.066306 1.879678 0 8 26
0.078986 0.067097 1.862854 0 7 22
0.079606 0.069018 1.877478 0 5 19
0.079261 0.070108 1.869349 0 4 18
0.079221 0.071459 1.868392 0 2 17
0.079023 0.072666 1.863741 0 1 16
0.079002 0.074031 1.863246 0 1 16
0.079327 0.075725 1.870907 0 2 17
0.079001 0.076797 1.863212 0 1 17
0.079100 0.078279 1.865539 1 0 16
0.078806 0.079369 1.858621 1 0 16
0.078936 0.080882 1.861677 1 0 15
0.078696 0.082015 1.856014 0 0 14
0.078478 0.083163 1.850892 0 1 13
0.078393 0.084446 1.848871 0 1 11
0.078454 0.085885 1.850304 0 2 9
0.078763 0.087604 1.857612 0 2 9
0.079135 0.089404 1.866385 0 2 9
0.079686 0.091422 1.879363 0 2 9
0.080061 0.093255 1.888214 0 2 9
0.080183 0.094802 1.891101 0 1 9
0.080000 0.095987 1.886769 1 1 9
0.078979 0.096145 1.862692 1 1 9
0.078847 0.097366 1.859579 1 1 11
0.078748 0.098623 1.857245 1 1 11
0.078595 0.099809 1.853649 1 1 11
0.078476 0.101032 1.850833 1 1 11
0.078483 0.102416 1.850994 1 1 13
0.078556 0.103887 1.852711 1 1 13
0.079173 0.106091 1.867277 1 1 13
0.079255 0.107589 1.869211 1 0 13
0.078989 0.108612 1.862939 1 0 13
0.078563 0.113531 1.852895 0 0 8
0.078570 0.114918 1.853058 0 0 8
0.078583 0.116313 1.853363 0 0 8
0.078580 0.117685 1.853282 0 0 8
0.077954 0.118113 1.838517 0 0 8
0.077558 0.118872 1.829188 0 0 8
0.077175 0.119637 1.820155 0 0 8
0.077060 0.120808 1.817434 0 0 8
0.076968 0.122013 1.815273 0 0 8
0.077154 0.123659 1.819660 0 0 8
0.078178 0.128039 1.843807 0 0 8
0.077951 0.129033 1.838461 0 0 9
0.078116 0.130675 1.842354 0 0 10
0.078357 0.132449 1.848015 0 0 11
0.078913 0.134772 1.861138 0 0 12
0.078112 0.137510 1.842254 0 0 12
0.144591 0.274803 3.410133 0 0 8
0.144919 0.277965 3.417869 0 0 8
0.077193 0.208913 1.820562 0 0 8
0.097996 -0.306229 2.271412 58 71 97
0.096543 -0.300027 2.237741 63 79 108
0.096018 -0.296744 2.225580 72 92 123
0.099097 -0.302846 2.296935 78 104 138
0.095082 -0.285664 2.203866 45 73 106
0.094797 -0.275016 2.197267 51 77 113
0.094985 -0.273926 2.201623 48 74 110
0.094825 -0.271832 2.197911 45 69 105
0.094617 -0.269608 2.193102 42 66 101
0.094122 -0.266575 2.181616 43 67 100
0.094398 -0.265734 2.188029 48 71 103
0.094304 -0.263845 2.185848 54 77 108
0.094018 -0.261427 2.179221 58 81 112
0.093878 -0.259420 2.175969 62 87 117
0.093829 -0.257669 2.174829 61 86 115
0.093812 -0.256009 2.174446 62 86 115
0.093346 -0.253130 2.163644 64 86 114
0.093247 -0.251256 2.161349 52 73 100
0.093411 -0.250090 2.165150 30 50 75
0.093555 -0.248864 2.168488 16 35 58
0.093708 -0.247658 2.172030 18 36 58
0.093720 -0.246077 2.172314 17 33 56
0.093375 -0.243561 2.164299 13 28 51
0.093507 -0.242297 2.167368 10 25 46
0.093489 -0.240641 2.166957 9 24 43
0.093171 -0.238219 2.159588 10 25 42
0.093314 -0.236977 2.162894 11 27 42
0.093783 -0.236553 2.173763 11 27 41
0.093474 -0.234166 2.166613 10 26 39
0.093387 -0.232338 2.164579 7 22 35
0.093233 -0.230351 2.161017 4 18 31
0.093195 -0.228651 2.160128 4 18 31
0.093227 -0.227125 2.160870 2 16 29
0.093053 -0.225099 2.156838 1 14 29
0.093420 -0.224379 2.165348 0 12 28
0.093460 -0.222867 2.166283 0 11 26
0.093202 -0.220645 2.160290 0 10 24
0.093118 -0.218844 2.158352 0 8 22
0.093457 -0.216423 2.166209 0 5 16
0.093223 -0.214275 2.160775 0 4 14
0.093109 -0.212410 2.158132 0 2 14
0.093018 -0.210601 2.156022 0 2 14
0.093064 -0.209103 2.157091 0 1 14
0.092663 -0.206606 2.147793 2 1 14
0.092295 -0.204197 2.139264 1 2 13
0.092893 -0.203921 2.153123 0 2 10
0.092774 -0.202063 2.150377 0 2 9
0.092475 -0.199820 2.143448 0 2 9
0.091895 -0.196984 2.129991 0 2 9
0.091944 -0.195506 2.131132 0 2 9
0.092108 -0.194269 2.134931 0 2 9
0.095893 -0.198950 2.222661 0 1 8
0.096441 -0.198427 2.235370 0 0 8
0.095540 -0.194928 2.214477 0 0 8
0.099076 -0.198733 2.296459 0 0 8
0.099069 -0.197012 2.296278 0 0 8
0.093855 -0.181796 2.175429 0 0 8
0.093165 -0.169231 2.159432 0 0 8
0.093812 -0.167177 2.174446 0 0 8
0.093310 -0.164676 2.162808 0 0 8
0.092763 -0.162113 2.150122 0 0 10
0.092358 -0.159815 2.140724 0 0 10
0.090014 -0.149560 2.086394 2 2 20
0.093048 -0.143388 2.156725 53 80 109
0.093244 -0.142085 2.161274 34 58 83
0.092806 -0.139819 2.151114 30 51 72
0.093330 -0.134182 2.163273 0 14 25
0.092894 -0.131956 2.153168 0 11 23
0.093262 -0.130873 2.161695 1 11 21
0.093779 -0.129983 2.173660 4 15 26
0.093192 -0.127566 2.160076 2 19 31
0.093437 -0.126292 2.165746 3 22 33
0.092917 -0.123989 2.153682 1 22 32
0.092610 -0.121986 2.146578 3 25 38
0.093327 -0.121323 2.163192 6 29 44
0.093202 -0.119557 2.160303 0 21 39
0.093310 -0.118089 2.162808 1 23 44
0.093846 -0.117151 2.175232 17 42 62
0.093795 -0.113857 2.174032 76 103 125
0.093609 -0.112021 2.169739 69 96 122
0.092834 -0.109494 2.151756 62 88 116
0.092582 -0.107603 2.145919 36 54 84
0.091844 -0.105164 2.128816 0 9 36
0.092665 -0.104509 2.147852 0 3 25
0.092658 -0.102906 2.147691 0 0 17
0.092591 -0.101237 2.146125 0 0 11
0.093212 -0.095497 2.160522 0 1 4
0.093040 -0.093719 2.156534 0 1 3
0.092706 -0.091787 2.148809 0 1 3
0.092933 -0.088811 2.154054 0 1 5
0.092397 -0.086709 2.141641 0 1 5
0.092016 -0.083183 2.132807 0 0 6
0.091497 -0.079563 2.120774 0 0 6
0.089082 -0.074396 2.064802 0 0 6
0.091183 -0.063592 2.113494 0 1 5
0.091015 -0.061908 2.109616 0 1 5
0.091171 -0.060444 2.113221 0 1 5
0.088922 -0.051298 2.061083 0 0 11
0.087598 -0.046010 2.030401 0 0 7
0.087680 -0.044544 2.032298 0 1 8
0.088907 -0.043636 2.060741 0 0 8
0.089263 -0.042274 2.068993 0 0 10
0.089918 -0.041037 2.084184 1 0 9
0.089756 -0.039417 2.080426 0 0 9
0.089824 -0.037901 2.082011 0 2 8
0.089479 -0.036215 2.074007 0 8 12
0.088968 -0.034476 2.062147 9 25 33
0.088303 -0.031178 2.046740 44 64 88
0.089139 -0.029939 2.066132 39 60 91
0.088865 -0.028316 2.059764 25 49 82
0.088497 -0.026676 2.051243 22 49 81
0.088531 -0.025162 2.052033 27 56 86
0.088340 -0.023587 2.047609 27 57 85
0.088521 -0.022111 2.051800 27 57 83
0.088230 -0.020519 2.045056 26 56 82
0.087875 -0.018924 2.036817 25 55 81
0.087733 -0.017383 2.033532 25 55 81
0.086578 -0.012682 2.006768 23 54 80
0.086322 -0.011159 2.000834 22 54 79
0.086179 -0.009656 1.997511 22 53 78
0.086245 -0.008179 1.999037 21 51 77
0.086300 -0.006698 2.000322 21 50 76
0.085975 -0.003713 1.992784 21 46 73
0.086227 -0.002239 1.998618 20 44 72
0.086652 -0.000758 2.008470 19 43 71
0.086577 0.000733 2.006747 18 42 70
0.086128 0.002212 1.996327 16 40 68
0.084330 0.012329 1.954665 9 28 58
0.083686 0.013675 1.939721 10 30 59
0.083453 0.015074 1.934338 11 32 61
0.084062 0.016631 1.948438 11 32 61
0.084286 0.018127 1.953643 10 34 62
0.084111 0.019537 1.949570 12 37 64
0.083493 0.020831 1.935246 16 42 69
0.083796 0.022349 1.942277 17 45 71
0.084221 0.023913 1.952127 15 45 69
0.084784 0.025532 1.965183 18 48 69
0.084712 0.026969 1.963508 17 45 66
0.084620 0.028397 1.961387 8 35 56
0.084091 0.029667 1.949122 0 24 46
0.083693 0.030967 1.939884 1 23 45
0.083849 0.032468 1.943506 6 28 51
0.083356 0.033713 1.932087 12 34 57
0.083284 0.035117 1.930410 12 34 58
0.082536 0.036223 1.913073 12 34 61
0.082578 0.037663 1.914050 12 36 61
0.082546 0.039070 1.913314 11 35 59
0.082075 0.040260 1.902387 9 33 56
0.081783 0.041525 1.895623 8 30 53
0.081710 0.042894 1.893927 5 27 50
0.081727 0.044310 1.894331 4 26 46
0.081808 0.045763 1.896210 2 23 41
0.082013 0.047289 1.900944 3 22 39
0.081518 0.048407 1.889485 1 20 37
0.081637 0.049884 1.892245 0 17 35
0.081462 0.051179 1.888173 0 14 33
0.081395 0.052538 1.886635 0 12 32
0.081485 0.053999 1.888702 0 10 29
0.081323 0.055292 1.884961 0 8 27
0.081190 0.056600 1.881883 0 7 25
0.081206 0.058009 1.882252 0 6 24
0.081206 0.059407 1.882252 0 6 22
0.081338 0.060903 1.885299 0 5 22
0.081269 0.062251 1.883713 0 5 22
0.081238 0.063626 1.882988 0 5 22
0.081082 0.064899 1.879363 0 4 21
0.080957 0.066193 1.876464 0 4 20
0.080400 0.067122 1.863557 0 3 18
0.080811 0.068857 1.873092 0 3 17
0.080372 0.069866 1.862918 0 2 15
0.080407 0.071281 1.863716 0 1 15
0.080435 0.072691 1.864383 0 1 14
0.080286 0.073938 1.860922 0 0 15
0.080515 0.075535 1.866229 0 0 16
0.080317 0.076733 1.861649 0 0 16
0.080253 0.078052 1.860146 1 0 16
0.080007 0.079191 1.854453 1 0 15
0.079550 0.080109 1.843873 1 0 14
0.079589 0.081518 1.844776 0 0 13
0.079402 0.082693 1.840421 0 1 12
0.079363 0.084018 1.839516 0 1 11
0.079704 0.085752 1.847431 0 2 9
0.079915 0.087355 1.852324 0 2 9
0.080679 0.089579 1.870023 0 2 9
0.080851 0.091162 1.874014 0 2 9
0.081439 0.093227 1.887642 0 2 9
0.081493 0.094692 1.888902 0 1 9
0.081412 0.096000 1.887026 1 1 9
0.080097 0.095827 1.856535 1 1 9
0.079633 0.096644 1.845787 1 1 11
0.079540 0.097901 1.843637 1 1 11
0.079350 0.099032 1.839220 1 1 11
0.079310 0.100347 1.838290 1 1 11
0.079256 0.101644 1.837048 1 1 13
0.079291 0.103054 1.837861 1 1 13
0.080811 0.107812 1.873092 1 0 13
0.080650 0.108985 1.869349 1 0 13
0.079503 0.112911 1.842775 0 0 8
0.079473 0.114237 1.842080 0 0 8
0.079421 0.115530 1.840880 0 0 8
0.079372 0.116824 1.839734 0 0 8
0.079185 0.117912 1.835398 0 0 8
0.078907 0.118856 1.828948 0 0 8
0.078402 0.119445 1.817241 0 0 8
0.078223 0.120520 1.813097 0 0 8
0.078147 0.121748 1.811334 0 0 8
0.079003 0.124442 1.831176 0 0 8
0.079188 0.126096 1.835460 0 0 8
0.079202 0.127482 1.835787 0 0 8
0.079047 0.128594 1.832198 0 0 9
0.079191 0.130192 1.835541 0 0 10
0.079193 0.131558 1.835577 0 0 11
0.079428 0.136051 1.841036 0 0 12
0.079218 0.137056 1.836171 0 0 12
0.144481 0.269867 3.348881 0 0 8
0.144244 0.271907 3.343381 0 0 8
0.076431 0.150655 1.771561 0 1 5
0.078627 0.209130 1.822458 0 0 8
0.078455 0.210024 1.818481 0 0 8
0.098781 -0.318505 2.250862 138 135 149
0.098742 -0.316710 2.249982 116 115 129
0.098071 -0.307915 2.234673 88 93 113
0.099540 -0.309161 2.268164 67 74 97
0.099116 -0.306166 2.258502 53 64 89
0.098752 -0.303370 2.250207 48 62 89
0.097685 -0.298439 2.225893 47 64 95
0.097395 -0.295904 2.219284 49 70 103
0.098584 -0.296180 2.246380 84 111 147
0.097642 -0.290043 2.224903 73 103 138
0.096583 -0.285262 2.200764 47 77 112
0.096909 -0.279666 2.208205 49 75 112
0.096424 -0.276632 2.197142 53 79 116
0.096651 -0.275648 2.202314 53 77 116
0.096414 -0.273340 2.196916 49 73 112
0.096213 -0.271142 2.192337 45 68 106
0.095838 -0.268464 2.183800 42 65 101
0.096033 -0.267384 2.188234 43 64 99
0.095819 -0.265168 2.183369 46 68 100
0.095682 -0.263170 2.180254 51 73 103
0.095675 -0.261529 2.180076 56 78 108
0.095750 -0.260114 2.181787 64 87 117
0.095600 -0.258090 2.178384 66 91 119
0.095226 -0.255467 2.169847 67 90 118
0.094808 -0.252743 2.160337 64 85 113
0.094831 -0.251197 2.160843 50 70 96
0.094916 -0.249818 2.162797 31 50 75
0.095061 -0.248589 2.166087 20 38 61
0.095298 -0.247596 2.171489 21 38 59
0.095084 -0.245431 2.166613 18 34 56
0.094932 -0.243433 2.163164 15 29 51
0.094847 -0.241610 2.161223 13 27 47
0.094814 -0.239920 2.160469 12 26 44
0.094928 -0.238601 2.163055 12 26 42
0.095131 -0.237501 2.167678 12 27 41
0.095401 -0.236562 2.173841 12 27 40
0.095011 -0.233987 2.164961 11 26 39
0.095007 -0.232369 2.164867 7 22 34
0.094828 -0.230325 2.160775 3 17 30
0.094825 -0.228713 2.160708 2 16 29
0.094690 -0.226786 2.157644 2 16 29
0.094820 -0.225492 2.160609 1 14 28
0.094903 -0.224082 2.162488 0 12 28
0.094851 -0.222354 2.161304 0 11 27
0.094532 -0.220006 2.154030 1 10 24
0.094967 -0.217805 2.163955 0 6 17
0.095341 -0.217050 2.172482 0 5 16
0.094913 -0.214468 2.162718 0 4 14
0.094705 -0.212395 2.157975 0 2 13
0.094592 -0.210540 2.155397 0 1 13
0.094530 -0.208802 2.153987 0 1 14
0.094446 -0.207019 2.152077 1 1 14
0.094159 -0.204796 2.145534 1 1 12
0.094534 -0.204011 2.154078 0 2 10
0.094438 -0.202207 2.151907 0 2 9
0.094291 -0.200296 2.148553 0 2 9
0.093674 -0.197399 2.134483 0 2 9
0.093724 -0.195918 2.135620 0 2 9
0.093769 -0.194426 2.136657 0 2 9
0.095481 -0.196359 2.175656 0 2 9
0.097544 -0.198950 2.222661 0 1 8
0.097667 -0.197549 2.225474 0 0 8
0.099636 -0.199845 2.270333 0 0 8
0.099505 -0.197898 2.267350 0 0 8
0.099475 -0.196155 2.266674 0 0 8
0.099705 -0.194921 2.271907 0 0 8
0.095895 -0.184226 2.185094 0 0 8
0.095313 -0.179882 2.171829 0 0 8
0.095030 -0.177739 2.165381 0 0 8
0.094621 -0.173772 2.156072 0 0 8
0.094479 -0.163916 2.152826 0 0 8
0.093492 -0.159039 2.130334 0 0 10
0.094130 -0.142600 2.144881 50 77 105
0.094067 -0.140913 2.143448 32 56 80
0.093849 -0.134233 2.138478 1 17 30
0.094828 -0.132422 2.160775 0 7 19
0.094843 -0.130838 2.161117 0 10 20
0.095301 -0.129857 2.171553 6 16 28
0.095497 -0.126891 2.176019 4 22 34
0.093667 -0.122875 2.134320 2 22 33
0.093496 -0.121068 2.130432 4 26 39
0.094546 -0.120828 2.154359 7 30 46
0.094684 -0.119402 2.157514 0 22 40
0.094362 -0.117399 2.150177 2 24 45
0.094870 -0.116425 2.161746 20 43 63
0.095274 -0.115309 2.170958 49 75 96
0.095187 -0.113591 2.168957 77 103 126
0.094821 -0.111550 2.160626 70 97 124
0.093849 -0.108818 2.138478 62 87 117
0.093856 -0.107238 2.138634 35 54 83
0.092888 -0.104560 2.116576 0 10 37
0.094090 -0.104320 2.143958 0 4 26
0.093394 -0.101968 2.128103 0 1 17
0.092637 -0.098005 2.110850 0 1 7
0.091960 -0.095733 2.095440 0 1 5
0.094366 -0.096641 2.150260 0 1 4
0.094565 -0.095244 2.154800 0 1 4
0.093687 -0.092774 2.134791 0 1 2
0.093538 -0.091043 2.131384 0 1 2
0.094297 -0.090186 2.148680 0 1 3
0.093667 -0.087998 2.134320 0 1 5
0.093251 -0.086029 2.124861 0 1 5
0.093655 -0.084817 2.134053 0 1 6
0.092854 -0.082520 2.115800 0 0 6
0.092659 -0.079210 2.111369 0 0 8
0.090117 -0.073986 2.053435 0 0 7
0.089749 -0.072165 2.045056 0 1 6
0.091707 -0.062874 2.089662 0 1 5
0.091628 -0.061270 2.087879 0 1 5
0.091736 -0.059789 2.090329 0 1 5
0.089645 -0.050840 2.042680 0 0 11
0.089146 -0.049049 2.031322 0 0 9
0.089778 -0.046357 2.045708 0 0 5
0.089143 -0.044520 2.031242 0 0 6
0.089841 -0.043348 2.047144 0 0 8
0.090674 -0.042216 2.066132 0 0 10
0.091598 -0.041096 2.087195 0 0 10
0.091424 -0.039470 2.083229 0 0 10
0.090843 -0.037682 2.069972 0 2 12
0.091058 -0.036230 2.074880 1 9 17
0.090674 -0.033008 2.066132 37 58 78
0.090937 -0.031565 2.072122 40 62 89
0.090541 -0.029895 2.063095 31 54 87
0.089902 -0.028162 2.048539 24 48 84
0.090099 -0.026699 2.053027 23 52 85
0.090143 -0.025186 2.054036 26 56 87
0.090456 -0.023743 2.061154 27 57 85
0.090028 -0.022107 2.051402 27 57 83
0.089563 -0.020477 2.040815 26 56 82
0.088843 -0.018808 2.024405 25 55 81
0.089678 -0.015950 2.043435 24 54 80
0.088232 -0.012706 2.010495 23 54 80
0.087786 -0.011156 2.000322 22 54 79
0.087352 -0.009622 1.990428 22 53 78
0.087317 -0.008140 1.989633 22 51 77
0.087262 -0.006658 1.988382 22 49 76
0.086967 -0.005164 1.981656 21 47 74
0.087744 -0.002240 1.999356 20 44 72
0.087777 -0.000755 2.000126 19 43 71
0.087362 0.000727 1.990664 17 41 69
0.087257 0.002203 1.988266 15 39 67
0.086730 0.003658 1.976251 14 38 66
0.086787 0.005129 1.977555 12 36 64
0.086245 0.006557 1.965214 10 34 62
0.086419 0.008032 1.969171 8 31 60
0.086062 0.009456 1.961038 8 29 58
0.085356 0.012268 1.944953 8 27 57
0.085754 0.016679 1.954030 10 32 61
0.085699 0.018119 1.952761 9 33 61
0.085543 0.019534 1.949217 11 36 64
0.085007 0.020850 1.936999 15 41 68
0.086166 0.024051 1.963402 14 44 67
0.085722 0.025378 1.953295 14 45 66
0.085903 0.026885 1.957422 12 40 61
0.086032 0.028382 1.960362 5 31 52
0.085453 0.029637 1.947161 0 23 45
0.085242 0.031007 1.942363 1 22 45
0.084970 0.032346 1.936147 7 28 51
0.084963 0.033781 1.936008 12 33 56
0.084487 0.035022 1.925145 13 35 57
0.084186 0.036322 1.918288 14 36 58
0.084114 0.037714 1.916651 14 36 59
0.083971 0.039071 1.913384 14 36 58
0.083316 0.040177 1.898467 11 32 55
0.083117 0.041488 1.893933 7 28 49
0.083146 0.042909 1.894587 4 25 45
0.083045 0.044263 1.892296 1 21 40
0.083222 0.045766 1.896325 0 18 35
0.083382 0.047265 1.899981 0 16 34
0.083108 0.048516 1.893734 0 14 33
0.082860 0.049774 1.888087 0 13 32
0.082513 0.050962 1.880162 0 11 30
0.082389 0.052280 1.877352 0 8 27
0.082588 0.053804 1.881883 0 7 25
0.082617 0.055221 1.882538 0 5 23
0.082556 0.056577 1.881148 0 4 20
0.082603 0.058008 1.882223 0 3 18
0.082430 0.059282 1.878285 0 2 17
0.082445 0.060687 1.878618 0 2 16
0.082386 0.062039 1.877286 0 2 16
0.082331 0.063390 1.876013 0 1 15
0.082075 0.064582 1.870180 0 1 15
0.082064 0.065963 1.869947 0 1 16
0.081607 0.066977 1.859528 0 1 16
0.081858 0.068568 1.865250 0 1 14
0.081728 0.069843 1.862283 0 1 14
0.081684 0.071187 1.861282 0 1 14
0.081663 0.072551 1.860802 0 1 14
0.081657 0.073928 1.860675 0 0 14
0.081741 0.075388 1.862591 0 0 15
0.081660 0.076695 1.860727 0 0 15
0.081563 0.077984 1.858513 1 0 16
0.080965 0.078783 1.844907 1 0 15
0.080694 0.079885 1.838733 1 0 14
0.080787 0.081344 1.840844 0 0 13
0.080484 0.082401 1.833928 0 1 12
0.080379 0.083654 1.831534 0 1 11
0.080937 0.085604 1.844249 0 2 9
0.081559 0.087644 1.858441 0 2 9
0.081957 0.089458 1.867500 0 2 9
0.082714 0.091684 1.884752 0 2 9
0.082674 0.093039 1.883848 0 2 9
0.082543 0.094288 1.880845 0 1 9
0.081441 0.095787 1.855754 1 1 11
0.080208 0.095694 1.827640 1 1 11
0.080178 0.097016 1.826972 1 1 11
0.080076 0.098247 1.824633 1 1 13
0.080095 0.099626 1.825078 1 1 13
0.079943 0.100790 1.821604 1 1 13
0.079990 0.102203 1.822680 1 1 13
0.080113 0.103716 1.825479 1 1 13
0.082367 0.108029 1.876850 1 0 13
0.082043 0.108991 1.869453 1 0 13
0.080942 0.113009 1.844372 0 0 8
0.080520 0.113782 1.834748 0 0 8
0.080397 0.114970 1.831958 0 0 8
0.080199 0.116043 1.827438 0 0 8
0.080131 0.117302 1.825894 0 0 8
0.079864 0.118262 1.819804 0 0 8
0.079720 0.119398 1.816519 0 0 8
0.079501 0.120416 1.811545 0 0 8
0.079773 0.122178 1.817727 0 0 8
0.080075 0.123996 1.824613 0 0 8
0.080117 0.125417 1.825578 0 0 8
0.080125 0.126786 1.825756 0 0 8
0.080143 0.128171 1.826172 0 0 10
0.080093 0.129447 1.825038 0 0 10
0.080629 0.131677 1.837246 0 0 11
0.080678 0.135854 1.838367 0 0 12
0.079694 0.144987 1.815935 0 0 8
0.083602 0.180396 1.904981 0 0 8
0.080544 0.203788 1.835304 0 0 8
0.080245 0.204389 1.828485 0 0 8
0.079360 0.206165 1.808327 0 0 8
0.079961 0.209080 1.822022 0 0 8
0.079870 0.210195 1.819955 0 0 8
0.099603 -0.315812 2.231825 132 131 145
0.099933 -0.305214 2.239211 53 61 85
0.099814 -0.303188 2.236535 37 49 74
0.099286 -0.299934 2.224716 30 44 73
0.099075 -0.297646 2.219982 28 45 78
0.099108 -0.294448 2.220730 52 77 113
0.098784 -0.291840 2.213459 82 108 145
0.098888 -0.290502 2.215800 86 114 152
0.098734 -0.288407 2.212352 74 104 141
0.097816 -0.284097 2.191780 48 78 114
0.098358 -0.280761 2.203928 46 75 109
0.098123 -0.278457 2.198663 50 76 112
0.097955 -0.276350 2.194895 55 81 118
0.098212 -0.275440 2.200655 52 76 115
0.097435 -0.271638 2.183236 49 71 111
0.097546 -0.270324 2.185718 44 66 106
0.097791 -0.269375 2.191204 41 62 100
0.097603 -0.267234 2.187004 41 61 95
0.097727 -0.265947 2.189785 42 63 95
0.097559 -0.263866 2.186019 46 67 95
0.097327 -0.261617 2.180810 49 70 98
0.097262 -0.259826 2.179371 51 75 102
0.097152 -0.257915 2.176906 53 77 104
0.096680 -0.255053 2.166331 52 74 102
0.096660 -0.253392 2.165881 45 65 92
0.096262 -0.250745 2.156955 32 51 76
0.096538 -0.249857 2.163138 21 39 63
0.096693 -0.248649 2.166613 16 33 55
0.096636 -0.246893 2.165327 17 33 54
0.096840 -0.245805 2.169916 15 30 51
0.096620 -0.243638 2.164980 14 27 48
0.096402 -0.241482 2.160086 15 27 46
0.096402 -0.239879 2.160098 14 27 44
0.096427 -0.238336 2.160656 14 28 43
0.096783 -0.237604 2.168622 14 28 41
0.096736 -0.235879 2.167569 14 28 40
0.096648 -0.234057 2.165610 13 27 39
0.096467 -0.232013 2.161551 8 22 34
0.096406 -0.230261 2.160173 2 16 29
0.096330 -0.228476 2.158476 2 16 29
0.096373 -0.226974 2.159432 1 15 28
0.096306 -0.225215 2.157951 1 13 28
0.096489 -0.224035 2.162031 1 13 28
0.096526 -0.222516 2.162873 1 12 27
0.096303 -0.220398 2.157868 2 11 25
0.096475 -0.219186 2.161723 1 9 22
0.096311 -0.217212 2.158061 0 5 18
0.096673 -0.216417 2.166154 0 4 16
0.096626 -0.214706 2.165119 0 3 14
0.096374 -0.212541 2.159461 0 2 13
0.095716 -0.209497 2.144722 0 1 13
0.095875 -0.208249 2.148284 0 0 13
0.096387 -0.207757 2.159748 1 0 13
0.095952 -0.205223 2.150016 0 1 12
0.096079 -0.203894 2.152843 0 2 10
0.095977 -0.202082 2.150573 0 2 9
0.095736 -0.199981 2.145168 0 2 9
0.095441 -0.197775 2.138549 0 2 9
0.095980 -0.197295 2.150634 0 2 9
0.095659 -0.195044 2.143448 0 2 9
0.098570 -0.197698 2.208668 0 1 8
0.099194 -0.197299 2.222661 0 0 8
0.100373 -0.197974 2.249080 0 0 8
0.100201 -0.195966 2.245216 0 0 8
0.100261 -0.194414 2.246556 0 0 8
0.100208 -0.192643 2.245363 0 0 8
0.100054 -0.190683 2.241927 0 0 8
0.097300 -0.182195 2.180206 0 0 8
0.096373 -0.177251 2.159432 0 0 8
0.098017 -0.172119 2.196282 0 0 8
0.098086 -0.170608 2.197830 0 0 8
0.097974 -0.168781 2.195303 0 0 8
0.096519 -0.151818 2.162718 70 86 107
0.097125 -0.151155 2.176297 98 119 146
0.097218 -0.135120 2.178384 0 11 22
0.096474 -0.132479 2.161695 0 5 16
0.096183 -0.130479 2.155179 0 9 19
0.097218 -0.130265 2.178384 5 16 28
0.096922 -0.128255 2.171747 1 13 26
0.095277 -0.122907 2.134889 5 25 38
0.095337 -0.121398 2.136236 4 27 40
0.096001 -0.120646 2.151114 4 27 43
0.095806 -0.118805 2.146727 0 21 39
0.095659 -0.117032 2.143448 4 26 47
0.096450 -0.116394 2.161163 24 46 68
0.096793 -0.113585 2.168845 71 97 121
0.096001 -0.111059 2.151114 72 98 126
0.095773 -0.109201 2.145998 61 86 116
0.095372 -0.107157 2.137022 34 53 84
0.094457 -0.104556 2.116509 4 18 45
0.094873 -0.103438 2.125834 0 7 28
0.094260 -0.101200 2.112085 0 3 19
0.092824 -0.098114 2.079912 0 1 12
0.093273 -0.097036 2.089979 0 1 6
0.092793 -0.094993 2.079227 0 1 5
0.095298 -0.094384 2.135347 0 1 3
0.094278 -0.091805 2.112497 0 1 3
0.094297 -0.090254 2.112921 0 1 2
0.094898 -0.089250 2.126397 0 1 3
0.094050 -0.086888 2.107398 0 1 5
0.094466 -0.085699 2.116703 0 1 5
0.094795 -0.084420 2.124078 0 1 6
0.093853 -0.082019 2.102977 0 0 6
0.093682 -0.080310 2.099138 0 0 8
0.093247 -0.078386 2.089402 0 0 8
0.091277 -0.073691 2.045246 0 0 7
0.091191 -0.072104 2.043319 0 1 6
0.092425 -0.063851 2.070983 0 1 6
0.092564 -0.062406 2.074099 0 1 5
0.092553 -0.060858 2.073850 0 1 5
0.092326 -0.059172 2.068763 0 1 5
0.096346 -0.058542 2.158836 0 0 6
0.096393 -0.056966 2.159898 0 0 8
0.090856 -0.052182 2.035826 0 0 10
0.090742 -0.050606 2.033255 0 0 11
0.090467 -0.048947 2.027115 0 0 9
0.091250 -0.047852 2.044639 1 0 5
0.090920 -0.046166 2.037263 0 0 5
0.090210 -0.044304 2.021344 0 0 5
0.092229 -0.042225 2.066595 0 0 10
0.092978 -0.041020 2.083359 0 0 12
0.092471 -0.039258 2.072005 0 1 12
0.091799 -0.037445 2.056946 0 3 14
0.092287 -0.033036 2.067876 39 63 84
0.092425 -0.031547 2.070983 34 60 88
0.091600 -0.029741 2.052498 24 48 84
0.091428 -0.028164 2.048643 23 48 85
0.091424 -0.026640 2.048539 24 53 86
0.091528 -0.025148 2.050890 25 56 86
0.091749 -0.023681 2.055841 27 57 85
0.091424 -0.022076 2.048539 27 57 83
0.091206 -0.020505 2.043666 26 56 82
0.091096 -0.017448 2.041200 25 55 81
0.091185 -0.015948 2.043185 24 54 80
0.090993 -0.014400 2.038882 24 54 80
0.089962 -0.012739 2.015794 23 54 80
0.088303 -0.009565 1.978618 22 53 78
0.088275 -0.008093 1.977996 21 51 77
0.090406 -0.003774 2.025739 21 46 73
0.089235 -0.002240 1.999503 20 44 72
0.088613 -0.000750 1.985559 19 43 71
0.087811 0.005103 1.967582 12 36 64
0.087442 0.006537 1.959323 10 34 62
0.087411 0.007989 1.958623 9 32 60
0.087166 0.009418 1.953135 8 29 58
0.087093 0.010859 1.951494 7 28 57
0.086803 0.013713 1.945002 9 29 58
0.087817 0.018257 1.967718 9 33 61
0.087121 0.019563 1.952127 11 36 64
0.086281 0.020810 1.933302 15 41 68
0.087319 0.022514 1.956573 16 44 70
0.087523 0.024023 1.961145 13 42 66
0.087468 0.025464 1.959914 11 40 62
0.087031 0.026785 1.950113 8 35 56
0.087337 0.028333 1.956975 3 28 49
0.087405 0.029809 1.958484 1 23 43
0.086401 0.030905 1.935989 3 24 45
0.086155 0.032251 1.930481 9 29 50
0.085837 0.033560 1.923349 14 32 53
0.085453 0.034833 1.914762 14 33 54
0.085449 0.036253 1.914672 13 33 54
0.085532 0.037712 1.916531 14 34 55
0.085077 0.038927 1.906325 14 32 54
0.084841 0.040231 1.901050 10 28 49
0.084521 0.041486 1.893864 4 22 42
0.084414 0.042838 1.891465 1 17 37
0.084400 0.044236 1.891163 0 14 33
0.084233 0.045551 1.887420 0 12 30
0.084296 0.046987 1.888821 0 11 29
0.084366 0.048431 1.890401 0 9 28
0.084144 0.049704 1.885423 0 8 27
0.083986 0.051008 1.881883 0 7 26
0.083724 0.052243 1.876013 0 5 24
0.083940 0.053774 1.880845 0 4 22
0.083789 0.055072 1.877478 0 3 19
0.083795 0.056471 1.877596 0 1 16
0.083764 0.057844 1.876914 0 0 14
0.083476 0.059034 1.870450 0 0 13
0.083543 0.060472 1.871951 0 0 12
0.083399 0.061756 1.868727 0 0 12
0.083308 0.063075 1.866697 0 0 12
0.083059 0.064269 1.861122 0 0 12
0.083158 0.065729 1.863322 0 0 12
0.082971 0.066962 1.859130 0 0 13
0.083090 0.068441 1.861798 0 0 13
0.083064 0.069802 1.861213 0 0 13
0.082938 0.071078 1.858412 0 0 12
0.082868 0.072396 1.856828 0 0 12
0.082868 0.073776 1.856840 0 0 13
0.082988 0.075264 1.859528 0 0 13
0.082852 0.076520 1.856482 0 0 14
0.082570 0.077633 1.850151 1 0 16
0.082367 0.078813 1.845610 1 0 15
0.082400 0.080216 1.846354 1 0 14
0.082312 0.081500 1.844372 0 0 13
0.082142 0.082699 1.840568 0 1 12
0.082232 0.084158 1.842574 0 1 11
0.082645 0.085956 1.851825 0 2 9
0.082756 0.087449 1.854323 0 2 9
0.083873 0.090026 1.879363 0 2 9
0.083835 0.091380 1.878492 0 2 9
0.083306 0.093576 1.866647 0 1 9
0.083173 0.094811 1.863660 1 1 11
0.080844 0.094847 1.811472 1 1 11
0.080834 0.096181 1.811248 1 1 11
0.080768 0.097446 1.809767 1 1 13
0.080698 0.098705 1.808203 1 1 13
0.080678 0.100023 1.807755 1 1 13
0.080647 0.101328 1.807073 1 1 13
0.083095 0.108552 1.861909 1 0 13
0.082007 0.112590 1.837530 0 0 8
0.081930 0.113848 1.835805 0 0 8
0.081686 0.114868 1.830340 0 0 8
0.081821 0.116421 1.833383 0 0 8
0.081603 0.117468 1.828485 0 0 8
0.081287 0.118367 1.821417 0 0 8
0.081142 0.120857 1.818167 0 0 8
0.080904 0.121847 1.812815 0 0 8
0.081253 0.123726 1.820643 0 0 8
0.081256 0.125083 1.820716 0 0 8
0.081343 0.126571 1.822659 0 0 8
0.081314 0.127880 1.822022 0 0 10
0.082073 0.130439 1.839024 0 0 10
0.081873 0.131483 1.834527 0 0 11
0.370238 0.643877 8.295974 0 0 10
0.084382 0.174836 1.890758 0 0 8
0.084471 0.176425 1.892741 0 0 8
0.084486 0.179269 1.893086 0 0 8
0.102039 -0.319910 2.248980 149 149 163
0.100845 -0.314515 2.222661 123 126 142
0.101313 -0.314316 2.232976 97 103 120
0.100060 -0.307150 2.205342 76 83 102
0.102181 -0.310316 2.252095 65 72 93
0.101794 -0.307475 2.243569 49 58 79
0.101773 -0.305744 2.243099 39 50 73
0.100920 -0.301530 2.224305 27 40 65
0.100920 -0.299878 2.224305 21 37 64
0.100845 -0.298006 2.222661 20 39 71
0.100935 -0.296617 2.224627 23 46 79
0.100638 -0.294096 2.218080 43 67 104
0.100538 -0.292160 2.215889 70 96 134
0.100154 -0.289405 2.207433 80 106 146
0.100771 -0.289537 2.221020 71 100 138
0.100776 -0.286252 2.221131 36 65 100
0.099740 -0.281675 2.198289 40 69 102
0.100183 -0.281287 2.208059 47 75 108
0.100163 -0.279591 2.207619 49 75 108
0.099781 -0.276893 2.199208 51 77 113
0.100094 -0.276122 2.206101 57 81 119
0.099558 -0.273012 2.194279 56 78 117
0.099444 -0.271073 2.191780 52 73 112
0.099495 -0.269582 2.192888 50 69 106
0.099376 -0.267635 2.190284 49 68 101
0.099673 -0.266803 2.196829 49 68 99
0.099618 -0.265024 2.195614 50 71 97
0.099002 -0.261765 2.182043 51 72 97
0.098910 -0.259902 2.180010 42 65 91
0.098806 -0.258011 2.177714 41 64 90
0.098799 -0.256375 2.177559 40 61 88
0.098208 -0.253233 2.164524 33 53 79
0.098064 -0.251258 2.161369 22 40 65
0.098202 -0.250003 2.164400 12 29 52
0.098162 -0.248294 2.163514 8 24 45
0.098286 -0.246998 2.166247 8 23 44
0.098366 -0.245589 2.168008 11 24 45
0.098230 -0.243642 2.165017 13 25 45
0.098285 -0.242168 2.166222 13 25 44
0.098227 -0.240419 2.164961 14 26 42
0.098366 -0.239147 2.168008 14 27 41
0.098558 -0.238001 2.172247 14 27 40
0.098715 -0.236764 2.175704 14 28 39
0.098519 -0.234682 2.171393 15 28 39
0.098357 -0.232686 2.167825 8 21 34
0.098173 -0.230644 2.163769 3 15 29
0.098240 -0.229192 2.165236 2 15 28
0.098059 -0.227165 2.161252 2 14 28
0.098073 -0.225592 2.161562 2 13 28
0.098025 -0.223876 2.160498 1 12 27
0.098856 -0.224157 2.178822 1 11 26
0.098139 -0.220924 2.163016 2 10 24
0.098000 -0.219006 2.159943 1 9 21
0.097909 -0.217201 2.157951 0 5 17
0.097985 -0.215764 2.159611 0 4 16
0.097980 -0.214150 2.159510 0 3 14
0.098137 -0.212887 2.162977 0 2 13
0.097447 -0.209793 2.147754 0 1 13
0.097774 -0.208897 2.154968 0 0 13
0.097892 -0.207547 2.157571 0 0 13
0.097198 -0.204484 2.142273 0 1 12
0.097789 -0.204128 2.155309 0 2 10
0.097464 -0.201853 2.148135 0 2 9
0.097527 -0.200387 2.149532 0 2 9
0.097512 -0.198759 2.149193 0 2 9
0.097631 -0.197404 2.151814 0 2 9
0.098384 -0.197316 2.168416 0 1 9
0.099649 -0.198220 2.196282 0 1 9
0.100179 -0.197635 2.207973 0 1 9
0.101342 -0.196611 2.233598 0 0 8
0.100764 -0.193840 2.220862 0 0 8
0.100974 -0.192592 2.225497 0 0 8
0.100962 -0.190916 2.225231 0 0 8
0.100648 -0.188674 2.218306 0 0 8
0.098808 -0.181991 2.177761 0 0 8
0.099376 -0.173276 2.190284 0 0 9
0.099613 -0.172058 2.195498 0 0 8
0.099740 -0.170643 2.198289 0 0 8
0.099723 -0.168983 2.197924 0 0 8
0.098302 -0.150482 2.166613 92 113 139
0.097762 -0.144854 2.154699 56 87 115
0.097890 -0.132223 2.157523 0 4 16
0.098204 -0.131039 2.164437 0 8 18
0.098752 -0.130154 2.176517 5 15 27
0.098206 -0.127827 2.164486 0 12 25
0.097895 -0.124217 2.157644 4 24 38
0.097288 -0.121854 2.144267 4 26 40
0.097849 -0.120955 2.156624 3 26 42
0.097874 -0.117781 2.157176 6 27 50
0.099649 -0.118285 2.196282 26 48 71
0.097901 -0.109800 2.157768 58 83 113
0.097740 -0.108019 2.154217 33 53 84
0.096501 -0.105070 2.126910 10 25 53
0.095520 -0.102438 2.105281 0 12 33
0.094327 -0.099614 2.078988 0 7 22
0.094229 -0.097968 2.076834 0 1 12
0.094939 -0.097153 2.092489 0 1 7
0.095422 -0.096085 2.103129 0 1 5
0.095125 -0.094228 2.096579 0 2 4
0.097937 -0.093807 2.158569 1 2 4
0.095105 -0.089537 2.096136 0 1 3
0.094875 -0.086214 2.091069 0 1 5
0.094720 -0.081422 2.087647 0 0 6
0.094483 -0.079672 2.082443 0 0 8
0.094442 -0.078090 2.081522 0 0 8
0.093551 -0.075822 2.061882 0 0 8
0.094509 -0.068863 2.082999 0 1 6
0.094114 -0.067035 2.074306 0 1 6
0.094057 -0.063914 2.073045 0 1 6
0.093442 -0.061967 2.059499 0 1 5
0.093339 -0.060370 2.057228 0 1 5
0.093081 -0.058680 2.051533 0 1 5
0.092077 -0.052017 2.029409 0 0 10
0.091949 -0.050439 2.026576 1 0 12
0.091776 -0.048842 2.022766 1 0 9
0.092119 -0.047517 2.030340 2 0 5
0.092167 -0.046032 2.031379 2 0 5
0.091773 -0.044333 2.022703 0 0 5
0.093674 -0.040651 2.064612 0 0 12
0.092873 -0.038783 2.046939 0 1 13
0.092608 -0.037156 2.041107 0 7 19
0.093590 -0.032954 2.062750 34 61 83
0.092974 -0.031215 2.049181 25 52 81
0.092819 -0.029643 2.045752 24 50 85
0.092769 -0.028109 2.044650 27 53 89
0.093016 -0.026661 2.050108 22 51 85
0.092706 -0.025054 2.043277 21 51 81
0.092723 -0.023541 2.043640 28 58 86
0.092733 -0.022025 2.043853 28 58 84
0.092603 -0.020478 2.040998 27 57 83
0.092511 -0.018944 2.038978 26 56 82
0.092417 -0.017411 2.036904 26 56 82
0.092440 -0.015903 2.037415 25 55 81
0.092138 -0.014342 2.030752 24 54 80
0.091153 -0.012697 2.009045 24 54 80
0.092590 -0.006834 2.040703 22 49 76
0.091877 -0.003773 2.025007 21 46 73
0.090732 -0.002240 1.999769 20 44 72
0.089275 0.003642 1.967637 15 39 67
0.089119 0.005094 1.964211 13 37 65
0.088601 0.006515 1.952794 10 34 62
0.088645 0.007969 1.953755 9 32 60
0.088223 0.009376 1.944463 9 30 59
0.088494 0.010853 1.950434 7 27 57
0.089647 0.016865 1.975856 7 29 58
0.089497 0.018302 1.972549 6 30 58
0.088994 0.019656 1.961449 9 34 62
0.088122 0.020906 1.942236 13 40 67
0.088504 0.022446 1.950660 16 43 69
0.089031 0.024037 1.962260 13 41 65
0.089074 0.025507 1.963223 11 38 61
0.088332 0.026740 1.946861 8 33 55
0.088437 0.028220 1.949168 3 26 48
0.088256 0.029607 1.945182 2 22 42
0.088385 0.031097 1.948036 6 24 43
0.087226 0.032117 1.922487 12 29 49
0.086724 0.033352 1.911419 16 32 50
0.086624 0.034732 1.909214 15 31 50
0.086681 0.036174 1.910480 14 31 51
0.086665 0.037586 1.910123 14 30 50
0.086489 0.038925 1.906239 12 28 48
0.086206 0.040209 1.900002 8 23 43
0.086041 0.041541 1.896373 2 17 36
0.085808 0.042833 1.891227 0 12 30
0.085635 0.044149 1.887420 0 9 27
0.085284 0.045364 1.879678 0 8 26
0.085628 0.046949 1.887275 0 7 26
0.085511 0.048285 1.884698 0 6 25
0.085518 0.049688 1.884832 0 5 24
0.085284 0.050949 1.879678 0 4 23
0.085217 0.052304 1.878210 0 3 22
