ply
format ascii 1.0
element vertex 1354
property float x
property float y
property float z
property uchar red
property uchar green
property uchar blue
end_header
0.218167 -0.058102 2.142630 0 0 0
0.218919 -0.056706 2.150016 0 0 0
0.218651 -0.053446 2.147384 0 0 0
0.220212 -0.052221 2.162718 0 0 0
0.219031 -0.050343 2.151114 0 0 0
0.217724 -0.048455 2.138286 0 0 0
0.217805 -0.046884 2.139076 0 0 0
0.358154 -0.064032 3.517458 0 0 0
0.216978 -0.016633 2.130954 1 0 2
0.217064 -0.015056 2.131804 2 0 3
0.216925 -0.013464 2.130432 2 1 3
0.216749 -0.011872 2.128709 2 1 3
0.217102 -0.010307 2.132173 1 1 3
0.216177 -0.008686 2.123086 0 0 2
0.216109 -0.007107 2.122425 0 0 2
0.201576 -0.003688 1.979690 0 0 2
0.200949 -0.002211 1.973535 0 2 7
0.201435 -0.000747 1.978305 0 8 14
0.203288 0.003695 1.996509 1 15 25
0.204000 0.005196 2.003500 1 18 28
0.204445 0.006699 2.007865 0 19 31
0.212938 0.008530 2.091277 0 18 32
0.216676 0.010261 2.127994 0 18 32
0.216637 0.011839 2.127611 0 16 32
0.203686 0.014103 2.000418 0 15 33
0.204044 0.015616 2.003935 0 15 32
0.203364 0.017048 1.997256 0 15 31
0.204610 0.018645 2.009485 0 15 31
0.204214 0.020099 2.005599 0 16 32
0.204136 0.024558 2.004836 1 20 35
0.202257 0.027283 1.986378 1 20 35
0.203222 0.028896 1.995854 1 20 35
0.201219 0.034482 1.976181 0 22 36
0.202165 0.037594 1.985473 0 23 39
0.202680 0.039168 1.990533 0 23 39
0.201576 0.040425 1.979690 0 25 40
0.201115 0.041800 1.975167 0 26 41
0.200597 0.044619 1.970081 0 26 40
0.201358 0.049195 1.977555 0 21 35
0.201624 0.050731 1.980163 0 20 34
0.201954 0.052287 1.983404 0 20 34
0.203174 0.054085 1.995381 0 21 35
0.201840 0.055202 1.982287 0 22 36
0.200601 0.056327 1.970117 1 23 37
0.200309 0.057706 1.967253 1 23 37
0.199092 0.058808 1.955300 1 23 37
0.199092 0.060260 1.955300 1 23 37
0.198648 0.061574 1.950933 1 23 37
0.198272 0.062904 1.947243 1 23 37
0.198376 0.064384 1.948263 1 23 37
0.197825 0.065649 1.942848 1 23 37
0.199459 0.067646 1.958900 1 22 36
0.199742 0.069199 1.961678 2 21 36
0.199572 0.070596 1.960006 1 18 33
0.198747 0.071754 1.951910 0 15 30
0.199117 0.073340 1.955545 0 14 26
0.197894 0.074333 1.943535 0 13 25
0.197551 0.075645 1.940162 0 13 25
0.200051 0.078062 1.964713 0 13 26
0.199900 0.079461 1.963233 1 15 28
0.199561 0.085149 1.959898 0 6 18
0.192921 0.086538 1.894689 0 1 7
0.193166 0.088057 1.897094 0 0 8
0.194275 0.089980 1.907990 0 0 10
0.193382 0.090977 1.899216 0 0 9
0.193733 0.092556 1.902666 0 0 7
0.194317 0.094252 1.908396 0 1 4
0.193792 0.095411 1.903244 0 1 2
0.193390 0.096624 1.899297 0 1 1
0.193943 0.101145 1.904729 0 2 0
0.193160 0.102145 1.897039 0 2 0
0.192552 0.103228 1.891065 0 2 0
0.192686 0.104706 1.892380 0 2 1
0.193690 0.108077 1.902246 0 2 0
0.193260 0.109247 1.898019 0 2 0
0.193774 0.110951 1.903071 0 2 0
0.200113 0.123339 1.965320 0 2 0
0.199688 0.142014 1.961145 1 1 0
0.199655 0.149273 1.960825 0 2 1
0.199742 0.150795 1.961678 0 1 2
0.199633 0.152169 1.960612 0 1 3
0.198396 0.152673 1.948459 0 1 3
0.197950 0.153775 1.944084 0 1 3
0.197958 0.155225 1.944158 0 1 3
0.198035 0.156729 1.944912 0 1 4
0.197582 0.157813 1.940467 0 1 5
0.197421 0.159124 1.938884 0 1 4
0.197335 0.160494 1.938042 0 1 2
0.196537 0.161279 1.930200 0 2 1
0.195217 0.161619 1.917234 0 2 1
0.194938 0.162811 1.914498 0 2 1
0.195382 0.164607 1.918856 0 1 1
0.194936 0.165653 1.914482 1 1 1
0.198057 0.174084 1.945127 1 1 1
0.198126 0.179927 1.945811 1 1 1
0.198499 0.181713 1.949474 1 1 1
0.197927 0.182633 1.943853 0 0 0
0.195422 0.188875 1.919250 0 0 0
0.192756 0.193329 1.893072 0 0 0
0.192684 0.194662 1.892359 0 0 0
0.192768 0.196154 1.893192 0 0 0
0.192109 0.199687 1.886714 0 0 0
0.192102 0.213694 1.886652 0 0 0
0.190920 0.213771 1.875039 0 0 0
0.249792 -0.364525 2.435457 179 171 166
0.246508 -0.357947 2.403438 174 167 160
0.245094 -0.354119 2.389650 170 163 156
0.245353 -0.352717 2.392177 166 159 152
0.247271 -0.353683 2.410876 163 156 149
0.243637 -0.344956 2.375443 161 153 148
0.243835 -0.343471 2.377373 157 149 147
0.243526 -0.341272 2.374361 152 147 145
0.243335 -0.339242 2.372498 141 138 138
0.244434 -0.339004 2.383215 113 114 117
0.248212 -0.340650 2.420057 58 67 74
0.246919 -0.333509 2.407443 40 58 65
0.236771 -0.302657 2.308507 16 27 39
0.236473 -0.300562 2.305594 11 23 34
0.236361 -0.298708 2.304502 10 20 30
0.236067 -0.296628 2.301645 8 18 27
0.236371 -0.293586 2.304607 2 13 19
0.237626 -0.284820 2.316844 1 7 13
0.228016 -0.248532 2.223144 1 1 9
0.228309 -0.247198 2.226003 1 1 9
0.227441 -0.244611 2.217539 1 1 9
0.226654 -0.242122 2.209859 1 0 8
0.226316 -0.240123 2.206572 0 0 5
0.227127 -0.239339 2.214477 0 1 4
0.229152 -0.239813 2.234221 0 1 4
0.231897 -0.241006 2.260982 0 1 4
0.232433 -0.239880 2.266211 0 1 4
0.231845 -0.237594 2.260473 0 1 5
0.232643 -0.236727 2.268253 0 1 5
0.231884 -0.234276 2.260856 0 1 5
0.234614 -0.235334 2.287472 0 1 5
0.233691 -0.231024 2.278475 0 1 6
0.232446 -0.228110 2.266333 0 1 6
0.231634 -0.225635 2.258416 0 1 6
0.233048 -0.221950 2.272204 0 0 6
0.231742 -0.219028 2.259472 0 0 6
0.234243 -0.219695 2.283852 0 0 6
0.228943 -0.204776 2.232179 0 1 6
0.230023 -0.204076 2.242707 0 1 6
0.230451 -0.202787 2.246880 0 1 6
0.230421 -0.201092 2.246592 0 1 6
0.229733 -0.198828 2.239887 0 3 8
0.230007 -0.197399 2.242551 0 3 8
0.232083 -0.197501 2.262800 0 2 7
0.230545 -0.194522 2.247800 0 3 7
0.231035 -0.193262 2.252577 1 6 10
0.230725 -0.191332 2.249557 5 9 11
0.228198 -0.187584 2.224922 17 20 16
0.229024 -0.186605 2.232976 43 44 37
0.229767 -0.185545 2.240212 68 67 62
0.229972 -0.184046 2.242217 84 83 78
0.226904 -0.179948 2.212305 97 95 93
0.226527 -0.178008 2.208630 108 105 104
0.226890 -0.176650 2.212166 114 111 111
0.226521 -0.174722 2.208569 116 114 113
0.226163 -0.172808 2.205076 111 110 109
0.225812 -0.170904 2.201651 107 108 105
0.226036 -0.169437 2.203838 106 107 103
0.226375 -0.168052 2.207142 106 107 102
0.226346 -0.166391 2.206860 108 109 105
0.226603 -0.164939 2.209364 103 104 100
0.226400 -0.163152 2.207384 77 77 73
0.226157 -0.161339 2.205015 37 38 33
0.226646 -0.160046 2.209783 10 11 8
0.226527 -0.158322 2.208622 8 7 6
0.226422 -0.156609 2.207599 9 7 5
0.225527 -0.154357 2.198877 12 8 5
0.225536 -0.152729 2.198959 35 29 26
0.225661 -0.151180 2.200181 62 53 50
0.226128 -0.149855 2.204736 79 71 66
0.226322 -0.148344 2.206624 102 96 91
0.226646 -0.146915 2.209783 124 119 115
0.226454 -0.145151 2.207911 128 124 120
0.221602 -0.138831 2.160609 112 110 112
0.224086 -0.138765 2.184828 112 109 115
0.225957 -0.138287 2.203070 112 107 117
0.225784 -0.136546 2.201384 94 86 99
0.225751 -0.134891 2.201063 57 50 65
0.226617 -0.133768 2.209506 26 27 42
0.227630 -0.132717 2.219380 17 25 41
0.226627 -0.130491 2.209596 17 28 44
0.225415 -0.128161 2.197787 19 31 47
0.227263 -0.127565 2.215800 19 32 47
0.224334 -0.122672 2.187242 14 29 42
0.225030 -0.121423 2.194029 11 27 40
0.222081 -0.116615 2.165276 8 25 35
0.221923 -0.114925 2.163741 7 22 32
0.220342 -0.109319 2.148320 1 15 23
0.221752 -0.108413 2.162069 0 13 21
0.222995 -0.107406 2.174192 0 11 19
0.222132 -0.105381 2.165777 0 6 13
0.224034 -0.104661 2.184318 0 1 8
0.223478 -0.102783 2.178898 1 1 9
0.221273 -0.095359 2.157395 15 27 31
0.221337 -0.093784 2.158020 28 42 47
0.220916 -0.088806 2.153916 0 2 10
0.220754 -0.087142 2.152339 1 1 10
0.222866 -0.086362 2.172935 2 1 9
0.221288 -0.084148 2.157545 1 0 6
0.223133 -0.083233 2.175531 0 2 5
0.222998 -0.081568 2.174215 0 2 3
0.221330 -0.077752 2.157951 0 0 2
0.223021 -0.076731 2.174446 0 0 2
0.225244 -0.075865 2.196120 0 0 2
0.225813 -0.074421 2.201660 0 0 1
0.225989 -0.072842 2.203376 0 0 0
0.222485 -0.063657 2.169218 0 0 0
0.225146 -0.062788 2.195161 0 0 0
0.220587 -0.058321 2.150709 0 0 0
0.220191 -0.056622 2.146849 0 0 0
0.221420 -0.050524 2.158836 0 0 0
0.221024 -0.048833 2.154968 0 0 0
0.220453 -0.047110 2.149406 0 0 0
0.361272 -0.066738 3.522381 0 0 0
0.218784 -0.015065 2.133131 1 0 3
0.216663 -0.011781 2.112448 1 1 3
0.218219 -0.010285 2.127624 0 0 2
0.215804 -0.008609 2.104080 0 0 2
0.215445 -0.007034 2.100573 0 0 2
0.202996 -0.005158 1.979200 0 0 2
0.215741 -0.000794 2.103467 0 9 15
0.205191 0.003703 2.000596 1 16 25
0.205215 0.005189 2.000834 0 18 28
0.205665 0.006690 2.005223 0 19 31
0.217580 0.010229 2.121397 0 17 32
0.216664 0.011755 2.112459 0 15 31
0.205710 0.014140 2.005661 0 14 33
0.205557 0.018596 2.004168 0 15 31
0.205585 0.020087 2.004438 0 15 31
0.216275 0.022698 2.108665 0 16 32
0.214371 0.027155 2.090105 0 19 34
0.211947 0.032988 2.066476 0 19 34
0.201610 0.034299 1.965685 0 22 36
0.203859 0.037634 1.987609 0 22 38
0.201613 0.038680 1.965720 0 23 39
0.201617 0.040141 1.965758 0 24 40
0.200862 0.041445 1.958398 0 24 40
0.201098 0.042950 1.960694 0 25 40
0.200615 0.048658 1.955982 0 21 35
0.201185 0.050254 1.961547 0 21 35
0.203435 0.052289 1.983477 0 21 35
0.203712 0.053835 1.986182 0 22 36
0.202727 0.055043 1.976572 2 24 38
0.201479 0.056163 1.964409 2 24 38
0.201178 0.057536 1.961471 1 23 37
0.201115 0.058975 1.960860 1 23 37
0.200431 0.060226 1.954192 1 23 37
0.199572 0.061413 1.945811 1 23 37
0.200003 0.062994 1.950017 1 23 37
0.199291 0.064213 1.943074 1 23 37
0.200545 0.066069 1.955300 1 22 37
0.201025 0.067683 1.959982 1 22 37
0.201246 0.069215 1.962135 4 22 37
0.201043 0.070601 1.960156 2 19 35
0.201070 0.072067 1.960417 0 17 31
0.200198 0.073204 1.951916 0 14 28
0.199621 0.074439 1.946292 0 12 25
0.199236 0.075738 1.942541 0 11 25
0.197337 0.079304 1.924025 0 13 28
0.199189 0.084376 1.942086 0 8 23
0.198241 0.085409 1.932839 0 6 17
0.199802 0.087529 1.948062 0 3 14
0.194986 0.088243 1.901102 0 0 10
0.195116 0.089715 1.902367 0 0 9
0.194595 0.090885 1.897286 0 0 8
0.194363 0.092184 1.895031 0 0 6
0.195320 0.094052 1.904356 0 1 4
0.194430 0.095032 1.895683 0 1 2
0.194291 0.096371 1.894331 0 2 0
0.194020 0.097642 1.891680 0 2 0
0.194365 0.100630 1.895047 0 2 0
0.193859 0.101772 1.890112 0 2 1
0.193444 0.102956 1.886068 0 2 1
0.193823 0.104561 1.889767 0 2 1
0.194002 0.107467 1.891510 0 2 0
0.194061 0.108906 1.892086 0 2 0
0.194230 0.110407 1.893734 0 2 0
0.201756 0.151212 1.967107 0 1 2
0.200806 0.151955 1.957846 0 1 3
0.200284 0.153011 1.952761 0 1 3
0.199154 0.153589 1.941737 0 1 3
0.199249 0.155106 1.942669 0 1 4
0.199358 0.156634 1.943729 0 1 5
0.199378 0.158094 1.943925 0 1 5
0.198803 0.159077 1.938314 0 1 4
0.198862 0.160565 1.938896 0 1 3
0.195547 0.160720 1.906569 0 2 1
0.194653 0.161395 1.897856 0 2 1
0.196290 0.164175 1.913821 0 1 1
0.196332 0.165631 1.914227 1 1 1
0.199394 0.182654 1.944079 1 1 1
0.191046 0.176391 1.862692 0 0 0
0.190924 0.177661 1.861497 0 0 0
0.192293 0.190075 1.874844 0 0 0
0.192219 0.191394 1.874122 0 0 0
0.191941 0.192508 1.871418 0 0 0
0.191941 0.193898 1.871418 0 0 0
0.192151 0.195501 1.873457 0 0 0
0.192333 0.197079 1.875234 0 0 0
0.191830 0.197953 1.870333 0 0 0
0.191934 0.200840 1.871344 0 0 0
0.192333 0.202650 1.875234 0 0 0
0.192424 0.204140 1.876126 0 0 0
0.191595 0.211586 1.868040 0 0 0
0.191665 0.214440 1.868727 0 0 0
0.191139 0.215235 1.863595 0 0 0
0.252058 -0.365188 2.439883 178 171 166
0.243093 -0.350451 2.353102 174 167 161
0.243426 -0.349181 2.356329 170 163 157
0.243569 -0.347635 2.357714 167 160 154
0.240588 -0.341650 2.328851 165 158 152
0.240364 -0.339603 2.326681 167 160 154
0.241798 -0.339892 2.340571 167 160 155
0.242316 -0.338877 2.345577 161 154 151
0.243206 -0.338373 2.354195 153 149 146
0.242886 -0.336182 2.351102 140 137 137
0.244015 -0.335990 2.362025 113 113 116
0.248306 -0.338328 2.403562 64 72 79
0.238234 -0.304050 2.306070 22 35 48
0.238381 -0.302523 2.307487 17 29 41
0.237637 -0.299871 2.300292 12 24 36
0.237438 -0.297913 2.298367 11 23 33
0.237616 -0.296427 2.300086 10 21 30
0.237699 -0.294822 2.300890 8 18 27
0.243856 -0.298952 2.360490 4 14 19
0.244018 -0.285115 2.362055 0 3 11
0.232928 -0.262109 2.254709 0 4 11
0.235226 -0.259621 2.276949 0 2 9
0.234935 -0.257611 2.274137 0 1 9
0.230867 -0.249830 2.234754 0 1 9
0.229732 -0.246950 2.223772 0 1 9
0.230391 -0.246002 2.230153 1 1 9
0.229860 -0.243782 2.225010 0 0 8
0.230118 -0.240747 2.227503 0 1 5
0.233745 -0.241180 2.262611 0 1 5
0.233176 -0.238916 2.257102 0 1 5
0.232938 -0.236998 2.254802 0 1 5
0.233844 -0.236239 2.263574 0 1 5
0.233449 -0.234160 2.259745 0 1 6
0.235472 -0.234497 2.279328 0 1 6
0.234542 -0.231885 2.270333 0 1 6
0.234918 -0.230567 2.273967 0 1 6
0.233940 -0.227926 2.264504 0 1 6
0.232023 -0.224389 2.245942 0 1 6
0.232717 -0.223387 2.252659 0 1 6
0.234691 -0.223595 2.271775 0 1 6
0.233327 -0.217263 2.258571 0 1 6
0.235307 -0.217414 2.277736 0 1 6
0.237699 -0.217916 2.300890 0 1 6
0.237112 -0.215672 2.295205 0 1 6
0.235683 -0.212678 2.281371 0 1 6
0.229644 -0.203926 2.222918 0 1 6
0.229537 -0.202181 2.221886 0 1 6
0.229769 -0.200734 2.224129 0 1 6
0.230043 -0.199318 2.226776 0 1 6
0.232953 -0.198491 2.254953 0 1 6
0.232300 -0.196264 2.248630 0 0 5
0.232389 -0.194668 2.249490 0 2 7
0.231798 -0.192506 2.243768 3 8 12
0.230812 -0.190028 2.234221 10 14 16
0.230570 -0.188171 2.231879 23 25 23
0.230164 -0.186185 2.227954 42 43 38
0.230469 -0.184775 2.230906 60 60 56
0.230469 -0.183118 2.230906 75 74 71
0.230683 -0.181629 2.232976 89 88 86
0.228163 -0.178004 2.208579 101 100 100
0.229036 -0.177038 2.217028 108 107 107
0.229183 -0.175505 2.218459 108 108 108
0.228142 -0.173067 2.208379 115 115 115
0.228061 -0.171366 2.207592 119 121 119
0.227837 -0.169560 2.205429 115 118 115
0.227891 -0.167961 2.205949 111 114 111
0.228192 -0.166542 2.208865 114 117 113
0.228064 -0.164809 2.207619 116 118 115
0.227752 -0.162946 2.204605 98 100 97
0.227870 -0.161392 2.205743 64 66 64
0.228268 -0.160033 2.209596 30 32 31
0.228165 -0.158320 2.208599 21 22 21
0.228131 -0.156656 2.208268 17 16 15
0.228192 -0.155057 2.208862 9 6 5
0.226751 -0.152448 2.194911 24 18 16
0.227031 -0.151004 2.197628 49 42 38
0.227084 -0.149407 2.198139 72 66 62
0.227774 -0.148223 2.204813 107 103 98
0.228221 -0.146872 2.209139 130 129 124
0.228287 -0.145274 2.209783 130 129 125
0.228292 -0.143635 2.209828 121 121 118
0.223407 -0.137350 2.162548 113 112 116
0.226626 -0.137699 2.193707 118 113 122
0.227745 -0.136742 2.204538 105 96 108
0.227562 -0.134995 2.202762 71 61 75
0.228006 -0.133619 2.207058 36 32 47
0.228452 -0.132238 2.211375 19 23 38
0.227288 -0.128297 2.200117 22 30 45
0.227849 -0.126975 2.205544 22 32 47
0.229168 -0.126062 2.218306 20 33 46
0.228520 -0.124062 2.212034 16 30 43
0.225423 -0.120761 2.182063 14 28 41
0.226456 -0.119686 2.192058 11 26 39
0.224150 -0.116856 2.169739 9 25 38
0.223239 -0.114775 2.160917 7 23 35
0.224725 -0.113924 2.175301 5 21 31
0.220892 -0.108804 2.138196 2 16 24
0.222165 -0.107834 2.150523 1 14 22
0.223110 -0.106689 2.159674 1 12 20
0.225005 -0.105977 2.178014 0 6 15
0.224466 -0.104109 2.172792 0 1 10
0.224695 -0.102600 2.175008 0 1 9
0.220627 -0.086466 2.135637 1 1 11
0.223224 -0.085879 2.160775 2 1 11
0.224875 -0.084897 2.176753 1 0 7
0.224637 -0.083192 2.174446 0 2 6
0.224577 -0.081555 2.173875 0 2 4
0.225206 -0.080164 2.179963 0 1 2
0.226388 -0.078957 2.191397 0 0 2
0.225837 -0.077141 2.186069 0 0 2
0.225583 -0.075432 2.183604 0 0 2
0.225636 -0.073828 2.184125 0 0 1
0.225759 -0.072245 2.185310 0 0 0
0.224451 -0.066985 2.172651 0 0 0
0.225144 -0.065573 2.179354 0 0 0
0.225306 -0.064000 2.180923 0 0 0
0.224463 -0.062147 2.172763 0 0 0
0.220313 -0.051494 2.132591 0 0 0
0.222864 -0.048885 2.157287 0 0 0
0.221982 -0.016772 2.148750 0 0 2
0.220726 -0.015090 2.136595 1 0 3
0.220844 -0.013510 2.137734 0 0 3
0.216327 -0.011678 2.094007 1 0 3
0.218514 -0.010225 2.115180 0 0 3
0.215518 -0.008535 2.086180 0 0 2
0.215802 -0.006995 2.088927 0 0 2
0.204286 -0.003684 1.977459 0 0 3
0.216232 -0.000790 2.093096 0 11 17
0.210773 0.005291 2.040253 0 18 29
0.220392 0.008702 2.133360 0 18 32
0.216203 0.013200 2.092809 0 14 31
0.208337 0.014218 2.016667 0 14 33
0.209348 0.017297 2.026452 0 15 31
0.208785 0.018752 2.021004 0 15 31
0.215670 0.022471 2.087647 0 16 32
0.215523 0.024006 2.086231 0 17 33
0.214211 0.026940 2.073529 0 18 33
0.215466 0.028647 2.085673 0 18 33
0.215551 0.030208 2.086504 0 18 33
0.213747 0.031492 2.069040 0 18 33
0.211559 0.032691 2.047858 0 18 33
0.210976 0.034118 2.042215 0 19 33
0.201056 0.036850 1.946189 0 22 38
0.203019 0.038670 1.965193 0 22 38
0.207564 0.045505 2.009189 0 24 39
0.200563 0.048296 1.941415 0 21 35
0.202950 0.050330 1.964526 0 21 35
0.204614 0.052214 1.980628 0 22 36
0.204092 0.053548 1.975583 1 23 37
0.203160 0.054764 1.966553 3 25 39
0.202320 0.055992 1.958426 3 25 39
0.202749 0.057569 1.962579 1 23 37
0.201810 0.058753 1.953492 1 23 37
0.202361 0.060369 1.958827 1 23 37
0.201725 0.061629 1.952663 1 23 37
0.202132 0.063207 1.956602 1 23 37
0.202337 0.064726 1.958594 1 23 37
0.201006 0.065745 1.945708 1 22 37
0.201701 0.067423 1.952431 3 22 37
0.202836 0.069261 1.963424 5 22 38
0.202552 0.070620 1.960668 3 20 36
0.202176 0.071942 1.957036 0 18 32
0.201770 0.073249 1.953102 0 15 29
0.200467 0.074217 1.940489 0 13 27
0.199853 0.075426 1.934546 0 11 26
0.198532 0.079210 1.921760 0 9 25
0.199011 0.080832 1.926395 0 11 27
0.199042 0.082276 1.926693 0 12 28
0.199636 0.083957 1.932443 3 12 27
0.199430 0.085304 1.930448 3 11 24
0.199244 0.086657 1.928652 3 7 19
0.197837 0.087467 1.915027 0 2 15
0.196326 0.089623 1.900408 0 0 9
0.195755 0.090769 1.894882 0 0 7
0.196424 0.093904 1.901354 0 1 4
0.195295 0.100385 1.890427 0 2 0
0.194591 0.101422 1.883609 0 2 1
0.194745 0.102903 1.885101 0 2 1
0.195300 0.110217 1.890470 0 2 0
0.195023 0.111463 1.887790 0 2 0
0.195913 0.113380 1.896406 0 2 0
0.215434 0.154107 2.085369 0 1 1
0.202141 0.151865 1.956688 0 1 3
0.201478 0.152816 1.950276 0 1 3
0.201242 0.154084 1.947993 0 1 3
0.200006 0.157451 1.936025 0 1 5
0.199605 0.158571 1.932149 0 1 4
0.198902 0.159442 1.925336 0 1 2
0.197646 0.165541 1.913183 1 1 1
0.197960 0.167227 1.916223 1 1 1
0.191222 0.175283 1.850994 0 0 0
0.190717 0.176192 1.846107 0 0 0
0.176490 0.168125 1.708397 0 0 0
0.176788 0.173492 1.711277 0 0 0
0.176937 0.174911 1.712723 0 0 0
0.191201 0.209632 1.850794 0 0 0
0.191477 0.214065 1.853466 0 0 0
0.241830 -0.342689 2.324169 169 162 157
0.238601 -0.336410 2.293133 168 160 156
0.240512 -0.335671 2.311501 170 163 159
0.245750 -0.334210 2.361843 96 99 105
0.240324 -0.302812 2.309694 15 28 41
0.238780 -0.299162 2.294851 10 22 34
0.239333 -0.298146 2.300165 7 20 30
0.239395 -0.296515 2.300767 9 21 30
0.239084 -0.294423 2.297779 10 22 31
0.241322 -0.295456 2.319281 13 23 31
0.243255 -0.296086 2.337857 9 20 26
0.242918 -0.293942 2.334626 3 12 18
0.241258 -0.286767 2.318671 2 9 15
0.237574 -0.280692 2.283261 1 8 14
0.242318 -0.281108 2.328859 1 6 14
0.237035 -0.261442 2.278085 1 4 11
0.233643 -0.254365 2.245481 0 3 10
0.233643 -0.252697 2.245481 0 3 10
0.232126 -0.249400 2.230906 0 2 9
0.231862 -0.247460 2.228362 0 2 9
0.231697 -0.245630 2.226776 0 1 9
0.231589 -0.243863 2.225746 0 1 8
0.231568 -0.242187 2.225539 0 1 8
0.232619 -0.241626 2.235644 0 1 5
0.233056 -0.240416 2.239837 0 1 5
0.233861 -0.239578 2.247579 0 1 5
0.233901 -0.237949 2.247961 0 1 5
0.233663 -0.236038 2.245672 0 1 5
0.234278 -0.234987 2.251586 0 1 5
0.234235 -0.233272 2.251170 0 1 6
0.235139 -0.232494 2.259863 0 1 6
0.234536 -0.230224 2.254070 0 1 6
0.234926 -0.228929 2.257815 0 1 6
0.233950 -0.226308 2.248437 0 1 6
0.232619 -0.223360 2.235644 0 1 6
0.233072 -0.222131 2.239993 0 1 6
0.234299 -0.221628 2.251787 0 1 6
0.233988 -0.217993 2.248801 0 1 6
0.233702 -0.216059 2.246053 0 1 6
0.234595 -0.215209 2.254629 0 1 6
0.236533 -0.215299 2.273258 0 1 6
0.236232 -0.213338 2.270366 0 1 6
0.235209 -0.210735 2.260532 0 1 6
0.232558 -0.206700 2.235051 0 1 6
0.228987 -0.201892 2.200737 0 1 6
0.229030 -0.200294 2.201144 0 1 6
0.229309 -0.198901 2.203827 0 0 5
0.229656 -0.197563 2.207163 0 1 6
0.234576 -0.200121 2.254452 0 1 6
0.234578 -0.198448 2.254472 0 1 6
0.232880 -0.195349 2.238147 0 0 5
0.233379 -0.194102 2.242942 0 2 7
0.233583 -0.192604 2.244910 4 8 12
0.232275 -0.189867 2.232333 9 13 17
0.231804 -0.187827 2.227807 22 25 23
0.232042 -0.186364 2.230099 39 40 35
0.231178 -0.184019 2.221788 55 56 51
0.231071 -0.182285 2.220767 70 70 67
0.231499 -0.180970 2.224875 83 82 82
0.231176 -0.179067 2.221773 96 95 96
0.230789 -0.177120 2.218050 105 105 106
0.230120 -0.174964 2.211627 109 110 111
0.230064 -0.173279 2.211085 118 120 120
0.229792 -0.171434 2.208472 122 126 126
0.229151 -0.169320 2.202314 121 125 125
0.229916 -0.168244 2.209664 119 125 123
0.230043 -0.166695 2.210886 125 130 127
0.229538 -0.164690 2.206033 133 138 135
0.229403 -0.162956 2.204736 130 134 132
0.229455 -0.161355 2.205238 113 118 116
0.229613 -0.159826 2.206748 87 91 91
0.229581 -0.158166 2.206445 70 73 73
0.229736 -0.156632 2.207934 50 50 49
0.229754 -0.155004 2.208102 26 24 23
0.229298 -0.153060 2.203722 27 23 21
0.228668 -0.151007 2.197671 45 40 37
0.227732 -0.148763 2.188672 70 67 63
0.229170 -0.148066 2.202489 107 106 101
0.229909 -0.146903 2.209596 129 130 125
0.230091 -0.145377 2.211346 127 130 125
0.229451 -0.143335 2.205198 119 122 118
0.228856 -0.141329 2.199471 112 114 113
0.224994 -0.137338 2.162364 112 111 115
0.228699 -0.137967 2.197968 117 112 118
0.228018 -0.135928 2.191424 108 98 108
0.229350 -0.135085 2.204226 80 69 81
0.229712 -0.133658 2.207703 45 39 52
0.229794 -0.132066 2.208494 22 24 38
0.231306 -0.131283 2.223018 20 25 39
0.229434 -0.128583 2.205033 23 30 43
0.229151 -0.126789 2.202314 24 32 46
0.229692 -0.125448 2.207510 22 32 46
0.226508 -0.117241 2.176906 9 25 38
0.225176 -0.114945 2.164107 8 24 36
0.224653 -0.113074 2.159086 5 22 32
0.224590 -0.111439 2.158476 3 19 29
0.224273 -0.109681 2.155432 2 17 25
0.223934 -0.107917 2.152176 1 15 23
0.224296 -0.106490 2.155650 0 13 20
0.225116 -0.105272 2.163536 0 8 14
0.226549 -0.104325 2.177308 0 2 9
0.225280 -0.102132 2.165103 0 2 9
0.225798 -0.095920 2.170087 12 22 28
0.224370 -0.093711 2.156359 24 37 43
0.223970 -0.088748 2.152514 0 2 10
0.223824 -0.087092 2.151114 0 2 10
0.225762 -0.086235 2.169739 0 2 9
0.225107 -0.084378 2.163443 0 1 6
0.226159 -0.083158 2.173561 0 2 5
0.225103 -0.081162 2.163404 0 2 3
0.226747 -0.080137 2.179210 0 1 2
0.227113 -0.078645 2.182722 0 0 2
0.228051 -0.077341 2.191735 0 0 2
0.226345 -0.075147 2.175345 0 0 2
0.226072 -0.073443 2.172718 0 0 1
0.226986 -0.070499 2.181503 0 0 0
0.224534 -0.066532 2.157935 0 0 0
0.225855 -0.065311 2.170634 0 0 0
0.226536 -0.063890 2.177177 0 0 0
0.224728 -0.061776 2.159805 0 0 0
0.224438 -0.060094 2.157014 0 0 0
0.223486 -0.050267 2.147864 0 0 0
0.223646 -0.048707 2.149406 0 0 0
0.222599 -0.046890 2.139343 0 0 0
0.222024 -0.016655 2.133816 0 0 2
0.222331 -0.015091 2.136761 0 0 3
0.217346 -0.011649 2.088856 1 0 5
0.224438 -0.004019 2.157014 0 1 5
0.217220 -0.000788 2.087647 1 12 19
0.221958 0.007117 2.133185 1 19 31
0.223656 0.010365 2.149496 0 17 31
0.216931 0.013150 2.084871 0 14 31
0.208222 0.014109 2.001167 0 14 33
0.210206 0.015743 2.020233 0 14 32
0.209969 0.017225 2.017959 0 14 31
0.210168 0.018741 2.019873 0 14 31
0.216822 0.022430 2.083818 0 15 31
0.215714 0.023855 2.073167 0 17 32
0.212658 0.025036 2.043805 0 18 32
0.215009 0.028382 2.066392 0 18 32
0.215901 0.030041 2.074965 0 18 32
0.214982 0.031448 2.066132 0 18 32
0.212597 0.032617 2.043217 0 18 33
0.228774 0.039998 2.198691 0 21 35
0.204470 0.038668 1.965106 0 22 37
0.213442 0.043412 2.051333 0 22 39
0.212247 0.044684 2.039854 0 24 40
0.208160 0.045309 2.000568 1 24 39
0.204811 0.046043 1.968390 1 23 37
0.204176 0.047357 1.962283 0 22 36
0.205361 0.050564 1.973675 0 21 35
0.204877 0.051908 1.969018 0 22 36
0.204655 0.053312 1.966883 2 24 38
0.203335 0.054420 1.954205 4 26 40
0.203621 0.055950 1.956950 4 26 40
0.203333 0.057322 1.954179 1 23 37
0.202778 0.058613 1.948845 1 23 37
0.202853 0.060083 1.949566 1 23 37
0.202587 0.061451 1.947009 1 23 37
0.202728 0.062941 1.948363 1 23 37
0.202532 0.064326 1.946486 1 23 37
0.202929 0.065900 1.950295 1 22 37
0.202901 0.067340 1.950030 1 22 37
0.204237 0.069241 1.962869 4 22 38
0.204188 0.070682 1.962397 3 20 36
0.203737 0.071980 1.958068 0 18 34
0.203262 0.073264 1.953503 0 17 31
0.202058 0.075714 1.941931 0 15 30
0.200974 0.079612 1.931505 0 14 30
0.200748 0.080955 1.929333 0 15 31
0.204563 0.083954 1.966002 3 15 31
0.204236 0.085278 1.962857 6 15 32
0.204285 0.089673 1.963331 0 2 15
0.206584 0.093632 1.985422 0 0 8
0.197156 0.092174 1.894819 0 1 5
0.198865 0.094392 1.911241 0 1 4
0.196656 0.098959 1.890015 0 2 1
0.196734 0.103212 1.890758 0 2 1
0.194696 0.110482 1.871173 0 2 0
0.195287 0.112211 1.876850 0 2 0
0.218527 0.155204 2.100202 0 1 1
0.218006 0.156390 2.095200 0 2 1
0.217432 0.157531 2.089688 0 1 2
0.204375 0.153906 1.964195 0 1 3
0.200570 0.158200 1.927622 0 1 4
0.198174 0.166213 1.904604 1 1 0
0.205941 -0.263488 1.965214 29 46 54
0.206759 -0.261604 1.973024 24 39 51
0.240807 -0.301270 2.297933 15 28 42
0.240900 -0.299679 2.298817 9 23 35
0.240933 -0.298012 2.299131 7 20 31
0.240613 -0.295911 2.296078 9 22 31
0.241436 -0.293501 2.303935 16 28 36
0.243803 -0.294650 2.326523 12 23 30
0.241540 -0.288491 2.304927 0 5 10
0.241334 -0.284824 2.302958 3 11 16
0.240219 -0.278399 2.292315 1 7 15
0.241620 -0.278311 2.305690 1 9 15
0.243101 -0.278294 2.319823 1 9 15
0.244799 -0.278502 2.336025 1 9 15
0.235598 -0.264695 2.248226 0 7 13
0.236161 -0.256958 2.253595 0 5 11
0.233303 -0.250540 2.226318 0 5 11
0.233919 -0.249544 2.232199 0 4 11
0.233156 -0.247078 2.224922 0 3 10
0.232543 -0.244780 2.219073 0 3 9
0.231316 -0.240210 2.207366 0 2 8
0.232428 -0.239717 2.217977 0 1 6
0.232666 -0.238313 2.220248 0 1 6
0.235029 -0.239067 2.242790 0 1 6
0.234768 -0.237137 2.240299 0 1 6
0.235197 -0.235904 2.244398 0 1 6
0.234093 -0.233138 2.233865 0 1 6
0.234153 -0.231537 2.234432 0 1 6
0.236531 -0.232212 2.257124 0 1 6
0.235919 -0.229939 2.251281 0 1 6
0.235834 -0.228186 2.250479 0 1 6
0.234866 -0.225584 2.241241 0 1 6
0.232217 -0.219748 2.215961 0 1 6
0.234187 -0.219951 2.234754 0 1 6
0.235484 -0.219501 2.247138 0 1 6
0.234654 -0.213737 2.239211 0 1 6
0.235058 -0.212439 2.243066 0 1 6
0.235758 -0.211401 2.249749 0 1 6
0.234604 -0.208704 2.238739 0 1 6
0.234106 -0.206601 2.233989 0 1 6
0.228352 -0.199905 2.179080 0 1 6
0.228108 -0.198075 2.176753 0 1 6
0.228214 -0.196549 2.177761 0 0 5
0.234346 -0.196846 2.236273 0 1 6
0.234228 -0.195087 2.235147 0 1 6
0.232919 -0.192346 2.222661 0 2 7
0.233783 -0.189746 2.230906 4 7 11
0.232353 -0.186938 2.217261 18 20 19
0.232796 -0.185645 2.221488 34 35 31
0.232383 -0.183668 2.217539 51 51 49
0.231269 -0.181148 2.206912 65 65 63
0.231902 -0.180000 2.212950 74 74 75
0.232778 -0.179031 2.221315 84 84 86
0.232520 -0.177184 2.218854 98 98 101
0.232104 -0.175222 2.214885 110 112 114
0.231787 -0.173340 2.211860 117 120 122
0.231080 -0.171173 2.205109 120 126 126
0.231258 -0.169665 2.206803 123 130 129
0.231672 -0.168327 2.210761 125 132 132
0.231474 -0.166543 2.208872 126 133 133
0.231462 -0.164893 2.208754 129 135 135
0.231171 -0.163048 2.205977 133 139 139
0.230816 -0.161161 2.202589 137 143 143
0.230993 -0.159647 2.204277 131 137 137
0.231104 -0.158086 2.205342 110 114 115
0.231139 -0.156472 2.205671 76 78 78
0.231378 -0.154993 2.207950 41 41 40
0.230476 -0.152756 2.199343 23 21 20
0.230486 -0.151129 2.199438 34 31 29
0.229234 -0.148683 2.187495 73 72 68
0.230263 -0.147718 2.197310 119 119 115
0.232241 -0.147341 2.216185 135 139 133
0.231911 -0.145488 2.213039 128 133 128
0.230914 -0.143226 2.203524 121 126 123
0.230910 -0.141587 2.203485 119 122 122
0.229719 -0.139228 2.192126 118 116 119
0.228934 -0.137130 2.184631 118 111 118
0.229097 -0.135604 2.186189 115 104 113
0.229213 -0.134048 2.187296 100 87 98
0.230761 -0.133317 2.202067 70 62 73
0.232655 -0.132762 2.220136 35 34 45
0.230569 -0.128303 2.200230 20 25 36
0.231069 -0.126944 2.205006 25 32 44
0.228110 -0.117234 2.176771 10 26 39
0.226864 -0.114986 2.164880 7 24 36
0.226129 -0.113011 2.157868 5 22 32
0.224466 -0.110588 2.141994 5 21 31
0.224827 -0.109173 2.145443 5 19 28
0.224548 -0.105854 2.142774 0 13 21
0.226079 -0.104973 2.157384 0 8 17
0.226628 -0.103622 2.162622 0 4 12
0.228237 -0.102740 2.177976 1 4 11
0.224386 -0.088283 2.141233 0 2 10
0.224190 -0.086617 2.139364 0 3 11
0.227210 -0.086173 2.168175 1 3 11
0.226017 -0.084119 2.156799 0 1 7
0.226638 -0.082743 2.162718 0 2 6
0.226100 -0.080944 2.157587 0 2 4
0.227843 -0.079953 2.174215 0 1 2
0.228118 -0.078433 2.176841 0 0 2
0.227949 -0.076759 2.175232 0 0 2
0.225623 -0.072777 2.153039 0 0 1
0.225826 -0.066440 2.154968 0 0 0
0.225422 -0.064723 2.151114 0 0 0
0.227397 -0.063679 2.169963 0 0 0
0.227473 -0.062088 2.170693 0 0 0
0.224471 -0.059677 2.142039 0 0 0
0.225120 -0.058254 2.148233 0 0 0
0.223786 -0.053150 2.135507 0 0 0
0.223284 -0.051449 2.130718 0 0 0
0.224110 -0.050050 2.138598 0 0 0
0.223532 -0.048337 2.133082 0 0 0
0.224114 -0.046874 2.138634 0 0 0
0.337919 -0.046725 3.224632 0 0 0
0.223322 -0.016634 2.131080 0 0 2
0.223464 -0.015060 2.132429 1 0 4
0.223029 -0.007127 2.128278 0 0 5
0.212010 0.005247 2.023129 0 18 29
0.223556 0.007117 2.133311 0 18 31
0.223705 0.008708 2.134734 0 18 32
0.225001 0.010353 2.147100 0 17 31
0.217087 0.013066 2.071579 0 14 31
0.209802 0.015602 2.002061 1 14 32
0.210549 0.017150 2.009189 1 14 31
0.210714 0.018657 2.010763 1 14 31
0.219498 0.022546 2.094587 0 15 31
0.216349 0.023756 2.064537 0 18 32
0.216340 0.029889 2.064453 0 18 32
0.214894 0.031212 2.050650 0 18 32
0.212799 0.032416 2.030657 0 18 33
0.227046 0.039414 2.166613 0 20 35
0.212270 0.042867 2.025609 0 22 39
0.212573 0.044435 2.028502 0 23 39
0.205357 0.045838 1.959644 1 23 37
0.204257 0.047040 1.949150 0 22 36
0.203891 0.048401 1.945651 0 22 36
0.205596 0.050263 1.961924 0 22 36
0.205814 0.051775 1.964007 1 23 37
0.204444 0.052880 1.950933 3 25 39
0.203746 0.054144 1.944275 5 27 41
0.204717 0.055852 1.953536 5 27 41
0.204072 0.057123 1.947387 1 23 37
0.203397 0.058376 1.940939 1 23 37
0.203461 0.059836 1.941556 1 23 37
0.202923 0.061116 1.936414 1 23 37
0.202690 0.062483 1.934198 1 23 37
0.204178 0.064389 1.948390 1 23 37
0.204370 0.065898 1.950228 1 22 37
0.205611 0.067755 1.962066 2 21 37
0.205478 0.069168 1.960802 2 19 37
0.205285 0.070558 1.958953 1 19 36
0.205539 0.072102 1.961377 1 20 37
0.204863 0.073317 1.954934 1 20 37
0.204374 0.074591 1.950265 3 22 39
0.203315 0.075645 1.940162 6 25 42
0.202759 0.076876 1.934857 8 27 44
0.203751 0.078696 1.944322 10 29 46
0.202643 0.079704 1.933746 10 29 46
0.205235 0.082179 1.958484 9 25 43
0.205751 0.083843 1.963402 7 20 37
0.204049 0.084596 1.947161 5 14 31
0.205514 0.088117 1.961145 1 4 20
0.206273 0.091367 1.968390 0 0 12
0.206850 0.093088 1.973888 0 0 7
0.205557 0.093963 1.961555 0 0 5
0.200834 0.096075 1.916479 0 1 2
0.200252 0.097216 1.910925 0 1 2
0.199365 0.102438 1.902466 0 1 1
0.198521 0.103411 1.894412 0 1 1
0.194370 0.109515 1.854800 0 1 0
0.193759 0.116037 1.848967 0 1 0
0.234327 0.155280 2.236090 0 1 1
0.218920 0.148174 2.089066 0 1 1
0.220355 0.152269 2.102767 1 1 1
0.219998 0.153582 2.099359 1 1 1
0.219250 0.154613 2.092216 0 1 1
0.218908 0.155924 2.088952 0 2 1
0.218586 0.157244 2.085879 0 1 2
0.205436 0.155065 1.960399 0 1 3
0.198232 0.165083 1.891650 1 1 0
0.165424 0.153004 1.578578 0 0 0
0.234030 -0.318731 2.217539 170 167 164
0.398374 -0.531342 3.774781 99 103 111
0.206849 -0.262788 1.959989 27 43 51
0.207581 -0.260796 1.966927 25 38 53
0.242676 -0.298056 2.299469 12 25 37
0.243480 -0.292189 2.307089 10 23 29
0.243105 -0.290028 2.303534 2 13 19
0.242523 -0.284212 2.298012 2 11 17
0.240409 -0.280043 2.277982 1 9 15
0.242670 -0.275845 2.299405 1 10 15
0.244991 -0.276759 2.321399 1 10 15
0.235697 -0.262943 2.233342 0 8 13
0.234827 -0.257013 2.225090 0 7 13
0.235777 -0.254734 2.234092 0 6 12
0.235040 -0.252284 2.227110 0 6 12
0.233513 -0.249002 2.212644 0 6 12
0.234438 -0.248338 2.221412 0 6 12
0.234834 -0.247105 2.225164 0 5 11
0.234354 -0.244950 2.220609 0 4 10
0.234076 -0.243012 2.217977 0 3 10
0.235565 -0.237926 2.232088 1 1 7
0.235741 -0.234785 2.233754 1 1 7
0.235565 -0.232953 2.232088 1 1 7
0.235004 -0.230744 2.226776 1 1 7
0.235469 -0.224571 2.231173 0 1 6
0.231971 -0.219602 2.198030 0 1 6
0.232619 -0.218579 2.204176 0 1 6
0.234153 -0.218372 2.218703 0 1 6
0.235790 -0.213261 2.234221 0 1 6
0.234614 -0.210545 2.223072 0 1 6
0.235230 -0.209443 2.228910 0 1 6
0.234704 -0.207323 2.223925 0 0 6
0.233853 -0.204925 2.215863 0 0 6
0.229030 -0.197475 2.170166 0 0 6
0.235306 -0.194606 2.229633 0 1 6
0.235987 -0.190187 2.236090 1 4 7
0.233913 -0.186869 2.216436 15 17 16
0.233168 -0.184633 2.209378 30 32 29
0.234267 -0.183854 2.219790 49 50 48
0.233839 -0.181872 2.215732 65 65 65
0.233097 -0.179654 2.208699 76 76 77
0.233487 -0.178312 2.212397 85 86 89
0.234500 -0.177435 2.221999 98 99 103
0.233810 -0.175267 2.215456 108 111 115
0.232792 -0.172866 2.205814 115 120 123
0.232982 -0.171367 2.207608 118 125 126
0.232478 -0.169361 2.202840 121 130 129
0.232644 -0.167844 2.204413 123 132 132
0.233005 -0.166464 2.207826 124 134 133
0.233164 -0.164937 2.209340 126 135 135
0.232752 -0.163008 2.205436 129 138 138
0.232508 -0.161200 2.203121 133 142 142
0.232658 -0.159667 2.204545 131 140 140
0.232350 -0.157820 2.201619 117 125 125
0.232860 -0.156527 2.206452 89 93 93
0.232794 -0.154845 2.205832 54 55 56
0.232423 -0.152962 2.202314 29 29 28
0.232117 -0.151127 2.199414 33 32 31
0.231424 -0.149047 2.192850 73 73 70
0.231286 -0.147330 2.191544 124 125 121
0.232778 -0.146642 2.205679 138 141 136
0.233016 -0.145152 2.207934 126 132 127
0.232960 -0.143478 2.207398 121 126 122
0.232596 -0.141616 2.203950 120 123 121
0.232227 -0.139757 2.200454 120 118 120
0.232490 -0.138280 2.202951 123 116 121
0.230524 -0.135488 2.184318 123 112 120
0.230379 -0.133781 2.182945 110 98 107
0.232952 -0.131996 2.207331 39 36 43
0.234818 -0.131401 2.225010 12 14 21
0.231373 -0.127845 2.192366 17 21 28
0.228232 -0.114865 2.162606 11 28 39
0.227304 -0.112798 2.153811 7 24 34
0.226278 -0.110696 2.144085 5 22 31
0.225535 -0.108746 2.137051 4 20 28
0.227020 -0.107864 2.151114 2 17 25
0.226857 -0.106190 2.149577 0 14 21
0.227291 -0.104793 2.153682 0 10 16
0.227426 -0.103255 2.154968 0 7 12
0.228804 -0.102270 2.168019 1 6 12
0.222640 -0.091680 2.109616 19 30 36
0.223817 -0.087439 2.120774 0 3 11
0.224784 -0.086235 2.129927 0 2 11
0.227087 -0.085520 2.151756 0 2 9
0.227639 -0.084126 2.156984 0 1 5
0.229150 -0.079846 2.171306 0 0 2
0.229275 -0.078276 2.172482 0 0 2
0.229600 -0.076771 2.175570 0 0 2
0.225130 -0.072107 2.133208 0 0 1
0.227463 -0.061648 2.155319 0 0 0
0.225436 -0.057925 2.136107 0 0 0
0.223133 -0.051052 2.114291 0 0 0
0.224333 -0.049748 2.125662 0 0 0
0.223966 -0.048090 2.122177 0 0 0
0.224804 -0.046688 2.130117 0 0 0
0.335162 -0.046018 3.175811 0 0 0
0.224224 -0.016583 2.124627 0 0 4
0.224357 -0.015014 2.125885 1 0 5
0.224269 -0.013430 2.125056 1 0 5
0.210621 -0.008165 1.995727 0 1 6
0.224399 -0.007120 2.126282 0 1 6
0.225407 -0.003979 2.135836 0 1 6
0.227223 0.000786 2.153039 0 12 20
0.211842 0.003715 2.007303 0 14 23
0.212262 0.005216 2.011279 0 16 26
0.223983 0.008657 2.122340 0 18 32
0.225223 0.010290 2.134087 0 17 31
0.225480 0.011889 2.136526 0 15 31
0.211256 0.015599 2.001752 1 14 32
0.211623 0.017116 2.005223 1 14 31
0.212613 0.018692 2.014604 1 14 31
0.212681 0.020195 2.015248 0 14 31
0.218928 0.022329 2.074446 0 15 31
0.220284 0.027119 2.087297 0 18 32
0.213120 0.027737 2.019408 0 18 32
0.213996 0.030863 2.027708 0 18 32
0.214148 0.032392 2.029153 0 18 32
0.213934 0.039888 2.027121 0 20 35
0.213373 0.041285 2.021803 0 20 37
0.212367 0.042585 2.012279 0 20 37
0.212219 0.044049 2.010869 0 21 38
0.208523 0.044750 1.975856 0 22 37
0.207071 0.045895 1.962091 0 22 36
0.205658 0.049925 1.948706 0 21 35
0.205452 0.054213 1.946756 3 25 39
0.205495 0.055670 1.947161 4 26 40
0.205467 0.064339 1.946891 0 22 36
0.205898 0.065923 1.950976 0 22 36
0.206975 0.067725 1.961186 0 21 36
0.206964 0.069178 1.961083 0 19 36
0.207079 0.070674 1.962170 0 19 37
0.206016 0.071761 1.952099 2 21 39
0.205714 0.073103 1.949233 3 24 41
0.205125 0.074338 1.943655 7 28 46
0.204074 0.075393 1.933697 12 34 51
0.204288 0.076910 1.935722 16 37 54
0.204513 0.078434 1.937854 19 40 57
0.204164 0.079737 1.934546 23 42 59
0.206080 0.081936 1.952703 17 34 50
0.205353 0.083092 1.945811 9 22 39
0.203833 0.083912 1.931409 3 12 29
0.203379 0.085156 1.927107 0 4 20
0.205886 0.092002 1.950861 1 0 6
0.205175 0.093128 1.944127 1 0 5
0.203840 0.093957 1.931476 1 0 5
0.202195 0.094622 1.915890 1 0 4
0.201579 0.095753 1.910058 1 1 3
0.200488 0.096645 1.899716 1 1 2
0.199042 0.097349 1.886014 1 1 1
0.199666 0.101870 1.891931 1 1 1
0.199281 0.103076 1.888276 1 1 1
0.193217 0.113538 1.830817 1 1 1
0.193393 0.115003 1.832484 1 1 1
0.226987 0.138175 2.150807 1 1 1
0.226338 0.139373 2.144655 1 1 1
0.233830 0.150569 2.215643 1 1 2
0.234138 0.152415 2.218561 1 1 3
0.233658 0.153747 2.214016 1 1 3
0.233367 0.155199 2.211263 1 1 3
0.221733 0.150582 2.101018 1 1 2
0.220764 0.153032 2.091836 1 1 2
0.220269 0.154239 2.087154 0 1 2
0.219716 0.155398 2.081908 0 1 2
0.219426 0.156738 2.079163 0 1 2
0.218563 0.157659 2.070983 0 1 3
0.206877 0.155054 1.960257 0 1 4
0.166596 0.153004 1.578578 0 0 0
0.250719 -0.319800 2.359074 31 48 56
0.238406 -0.295764 2.243220 25 38 55
0.242556 -0.297521 2.282263 21 35 49
0.241600 -0.291283 2.273272 15 28 37
0.242991 -0.291261 2.286356 14 27 35
0.242079 -0.273251 2.277783 0 10 15
0.236658 -0.250592 2.226776 0 7 13
0.236410 -0.248677 2.224438 0 6 12
0.236861 -0.247495 2.228680 0 5 11
0.237059 -0.246046 2.230546 0 5 11
0.236592 -0.243907 2.226147 0 4 11
0.237223 -0.242900 2.232088 0 3 10
0.236658 -0.240668 2.226776 0 1 9
0.236581 -0.238936 2.226048 1 1 9
0.238054 -0.238760 2.239907 1 1 9
0.236997 -0.236043 2.229960 1 1 9
0.237917 -0.235297 2.238616 1 1 9
0.238786 -0.234488 2.246798 1 1 9
0.239317 -0.233336 2.251787 1 1 9
0.241643 -0.233915 2.273676 0 1 8
0.240591 -0.229533 2.263774 0 1 6
0.238727 -0.226087 2.246236 0 1 6
0.240566 -0.219422 2.263539 0 1 6
0.235915 -0.210234 2.219779 0 1 6
0.235662 -0.208361 2.217402 0 1 6
0.234003 -0.203623 2.201788 1 0 6
0.237640 -0.193502 2.236010 0 1 6
0.239048 -0.192978 2.249260 0 1 6
0.237230 -0.189852 2.232155 0 2 5
0.236898 -0.187930 2.229026 12 14 14
0.235411 -0.183460 2.215034 47 49 47
0.236183 -0.182412 2.222304 65 66 66
0.236124 -0.180716 2.221749 78 79 81
0.235488 -0.178583 2.215765 88 89 93
0.235621 -0.177037 2.217010 100 101 106
0.236014 -0.175683 2.220707 108 111 116
0.235599 -0.173728 2.216809 114 119 123
0.235572 -0.172061 2.216552 117 124 127
0.234792 -0.169851 2.209214 120 129 131
0.234974 -0.168340 2.210925 122 132 133
0.235723 -0.167229 2.217977 122 132 134
0.235351 -0.165321 2.214477 124 133 135
0.234886 -0.163352 2.210095 126 135 138
0.235451 -0.162100 2.215418 129 138 140
0.235351 -0.160386 2.214477 131 140 141
0.234427 -0.158118 2.205776 123 132 134
0.234239 -0.156354 2.204011 104 110 112
0.234580 -0.154942 2.207215 75 78 79
0.234226 -0.153072 2.203893 48 49 50
0.234801 -0.151806 2.209301 46 46 46
0.233726 -0.149477 2.199182 80 80 79
0.234308 -0.148212 2.204658 129 130 127
0.233489 -0.146062 2.196951 139 142 139
0.234330 -0.144950 2.204864 126 131 127
0.234554 -0.143450 2.206976 121 126 122
0.234122 -0.141549 2.202909 121 125 122
0.233802 -0.139722 2.199897 122 121 121
0.234115 -0.138273 2.202840 126 122 124
0.232722 -0.135824 2.189740 130 121 126
0.232195 -0.133893 2.184775 121 110 116
0.234134 -0.131739 2.203026 46 42 46
0.234946 -0.130554 2.210662 12 10 15
0.237129 -0.125137 2.231201 23 33 42
0.234516 -0.118842 2.206615 18 35 45
0.227382 -0.110459 2.139489 8 25 34
0.227513 -0.108933 2.140724 5 22 30
0.227286 -0.107235 2.138583 2 19 26
0.228316 -0.106126 2.148284 0 16 23
0.230669 -0.105607 2.170417 0 13 19
0.227475 -0.102555 2.140368 0 10 15
0.228890 -0.101594 2.153682 0 8 14
0.226850 -0.092761 2.134483 19 31 37
0.226004 -0.087676 2.126528 0 6 13
0.225226 -0.085800 2.119200 0 3 11
0.228945 -0.084017 2.154196 0 0 6
0.231390 -0.080063 2.177201 0 0 2
0.231515 -0.078488 2.178384 0 0 2
0.229146 -0.076083 2.156090 0 0 2
0.228924 -0.061611 2.154004 0 0 0
0.227890 -0.059739 2.144267 0 0 0
0.227803 -0.058124 2.143448 0 0 0
0.227605 -0.056483 2.141592 0 0 0
0.224076 -0.050909 2.108383 0 0 0
0.224575 -0.049453 2.113078 0 0 0
0.225253 -0.048028 2.119455 0 0 0
0.225504 -0.046506 2.121818 0 0 0
0.226489 -0.037211 2.131090 0 0 0
0.223326 -0.016401 2.101324 0 0 4
0.225012 -0.014953 2.117190 1 0 5
0.224759 -0.013365 2.114808 1 0 5
0.225585 -0.007108 2.122585 0 1 6
0.223501 -0.005480 2.102977 0 1 6
0.225924 -0.003961 2.125771 0 1 7
0.225822 -0.000802 2.124808 1 11 17
0.226819 0.000779 2.134198 0 12 18
0.226844 0.002365 2.134426 0 13 21
0.212921 0.003708 2.003426 0 14 23
0.223200 0.008567 2.100144 0 17 30
0.226447 0.010274 2.130691 0 16 31
0.226376 0.011853 2.130028 0 15 31
0.225663 0.013393 2.123316 0 14 31
0.213534 0.014165 2.009189 1 14 33
0.213610 0.015663 2.009908 1 14 32
0.212812 0.017092 2.002401 1 14 31
0.213118 0.018606 2.005281 1 14 31
0.214022 0.020181 2.013786 1 14 31
0.219930 0.023812 2.069378 0 17 32
0.220925 0.027008 2.078734 0 18 32
0.212885 0.027513 2.003089 0 18 32
0.213605 0.029098 2.009860 0 18 32
0.226994 0.038854 2.135836 0 16 32
0.213000 0.037948 2.004168 0 18 33
0.214505 0.039715 2.018329 0 19 34
0.213757 0.041071 2.011289 0 19 36
0.213067 0.042427 2.004794 0 20 37
0.211558 0.043605 1.990600 0 20 37
0.210241 0.044803 1.978212 0 20 36
0.208569 0.045904 1.962478 0 21 35
0.206151 0.046813 1.939721 0 21 35
0.206711 0.049829 1.944991 0 21 35
0.207030 0.054247 1.947993 1 23 37
0.208091 0.057434 1.957974 2 24 38
0.206855 0.058538 1.946346 0 22 36
0.205415 0.059567 1.932801 0 20 34
0.206481 0.061319 1.942828 0 20 34
0.206829 0.062868 1.946107 0 20 34
0.208217 0.064745 1.959165 0 21 35
0.208218 0.066200 1.959170 0 20 34
0.208365 0.067703 1.960553 0 19 34
0.209000 0.069370 1.966527 3 21 38
0.208484 0.070656 1.961678 5 24 42
0.207538 0.071786 1.952776 5 24 44
0.206880 0.073004 1.946586 3 25 44
0.206065 0.074156 1.938911 9 30 49
0.205233 0.075292 1.931085 19 42 60
0.205717 0.076907 1.935635 27 50 68
0.206547 0.080104 1.943454 19 37 54
0.206884 0.081681 1.946621 6 21 37
0.205799 0.084129 1.936414 0 3 20
0.204109 0.086291 1.920514 0 0 15
0.206138 0.091471 1.939603 1 0 5
0.205126 0.092455 1.930076 1 0 3
0.203935 0.093344 1.918873 1 0 3
0.203244 0.094448 1.912367 1 0 3
0.201703 0.095142 1.897871 1 1 3
0.200744 0.096092 1.888849 1 1 2
0.201318 0.099181 1.894253 1 1 2
0.200679 0.100269 1.888237 1 1 2
0.200198 0.101428 1.883713 1 1 2
0.199742 0.102593 1.879422 1 1 1
0.199332 0.103775 1.875563 1 1 1
0.193676 0.114366 1.822341 1 1 1
0.226639 0.136999 2.132504 1 1 1
0.226591 0.138554 2.132051 1 1 1
0.226926 0.140345 2.135204 1 1 1
0.233845 0.146258 2.200300 1 1 1
0.234027 0.148008 2.202019 1 1 1
0.234400 0.149882 2.205528 1 1 2
0.234269 0.151435 2.204295 1 1 3
0.234155 0.152998 2.203217 1 0 3
0.233986 0.154523 2.201629 1 0 3
0.224314 0.149703 2.110625 1 1 3
0.222050 0.151296 2.089321 1 1 3
0.221909 0.152751 2.087998 1 1 3
0.221262 0.153852 2.081908 0 1 3
0.219586 0.155755 2.066132 0 1 3
0.211167 0.154211 1.986918 0 1 3
0.191506 0.205435 1.801924 0 0 0
0.191706 0.206990 1.803807 0 0 0
0.249846 -0.274858 2.334549 0 8 14
0.241381 -0.262195 2.255446 0 7 13
0.241775 -0.259267 2.259132 0 7 13
0.240764 -0.256511 2.249681 1 8 14
0.240589 -0.254655 2.248046 0 7 13
0.240796 -0.253203 2.249982 0 7 13
0.241093 -0.251843 2.252760 0 6 12
0.240395 -0.249445 2.246236 1 6 12
0.240781 -0.248174 2.249843 0 5 11
0.240223 -0.245932 2.244632 0 5 11
0.239844 -0.243879 2.241089 0 4 10
0.239816 -0.242187 2.240826 0 1 9
0.239484 -0.240189 2.237719 0 1 9
0.239833 -0.238874 2.240981 0 1 9
0.238976 -0.236362 2.232976 0 1 9
0.239727 -0.235441 2.239993 0 1 9
0.240733 -0.234759 2.249397 0 1 9
0.240751 -0.233105 2.249557 1 1 9
0.241795 -0.232438 2.259314 0 0 8
0.241460 -0.230440 2.256183 0 0 6
0.241560 -0.228859 2.257124 0 0 6
0.240871 -0.226534 2.250678 0 1 6
0.239027 -0.223141 2.233455 0 1 6
0.239411 -0.221838 2.237039 0 1 6
0.240989 -0.221628 2.251787 0 1 6
0.242724 -0.221539 2.267998 0 1 6
0.241290 -0.218555 2.254601 0 1 6
0.241399 -0.216979 2.255616 0 1 6
0.235515 -0.208421 2.200640 0 1 6
0.235278 -0.206578 2.198419 0 1 6
0.240954 -0.196511 2.251463 0 1 6
0.238837 -0.193127 2.231676 0 1 6
0.239917 -0.192335 2.241766 0 1 6
0.240125 -0.190835 2.243710 0 1 5
0.238021 -0.187511 2.224054 10 12 12
0.238397 -0.186153 2.227565 25 28 25
0.238099 -0.184268 2.224783 45 47 46
0.237150 -0.181887 2.215917 65 66 67
0.237861 -0.180781 2.222557 80 81 84
0.237504 -0.178862 2.219222 92 93 98
0.236712 -0.176623 2.211822 102 105 110
0.237303 -0.175416 2.217340 110 114 119
0.237629 -0.174008 2.220387 113 120 124
0.236441 -0.171497 2.209285 116 125 128
0.236885 -0.170175 2.213437 119 130 132
0.237468 -0.168946 2.218889 121 132 135
0.237463 -0.167294 2.218834 121 132 134
0.236897 -0.165251 2.213549 121 132 134
0.236958 -0.163649 2.214118 122 133 135
0.236526 -0.161709 2.210083 124 135 137
0.236865 -0.160298 2.213255 126 136 138
0.236404 -0.158345 2.208943 123 133 134
0.236191 -0.156563 2.206953 115 122 123
0.235996 -0.154795 2.205128 99 104 105
0.235961 -0.153135 2.204807 81 83 84
0.236034 -0.151544 2.205482 76 77 77
0.236110 -0.149954 2.206192 97 97 96
0.235910 -0.148190 2.204332 129 129 128
0.236385 -0.146848 2.208767 136 137 135
0.236387 -0.145208 2.208784 127 130 127
0.236284 -0.143505 2.207826 123 127 123
0.235723 -0.141529 2.202583 123 125 122
0.235417 -0.139711 2.199725 122 122 121
0.235848 -0.138330 2.203750 127 123 124
0.235916 -0.136732 2.204381 132 125 127
0.234909 -0.134518 2.194975 126 117 120
0.234279 -0.132531 2.189088 102 94 95
0.236019 -0.128601 2.205342 18 17 19
0.241532 -0.128253 2.256856 30 36 41
0.235812 -0.118669 2.203414 14 30 40
0.235647 -0.116950 2.201866 11 29 39
0.238280 -0.116604 2.226474 11 29 39
0.230805 -0.111344 2.156624 12 29 38
0.229833 -0.109280 2.147548 10 27 35
0.230233 -0.107872 2.151278 5 22 29
0.230348 -0.106327 2.152356 1 17 24
0.231654 -0.105322 2.164561 0 13 20
0.231639 -0.103708 2.164420 0 11 16
0.233735 -0.103024 2.184004 0 9 13
0.232993 -0.097846 2.177070 0 8 13
0.232330 -0.095955 2.170878 5 17 22
0.231071 -0.093831 2.159112 15 28 34
0.225954 -0.087049 2.111299 0 8 15
0.226500 -0.085687 2.116405 0 4 11
0.231066 -0.085811 2.159064 0 2 8
0.231874 -0.084501 2.166613 0 1 6
0.233530 -0.080242 2.182089 0 0 2
0.234194 -0.077220 2.188291 0 0 2
0.232867 -0.073550 2.175895 0 0 1
0.233422 -0.064005 2.181077 0 0 0
0.232668 -0.062183 2.174032 0 0 0
0.229479 -0.059739 2.144239 0 0 0
0.229675 -0.058196 2.146070 0 0 0
0.230186 -0.056727 2.150840 0 0 0
0.225020 -0.050769 2.102576 0 0 0
0.224801 -0.049160 2.100528 0 0 0
0.225658 -0.047781 2.108533 0 0 0
0.226244 -0.046335 2.114013 0 0 0
0.223772 -0.016320 2.090914 0 0 4
0.225164 -0.014859 2.103913 1 0 5
0.225774 -0.013332 2.109616 1 0 6
0.227227 -0.010264 2.123193 0 0 8
0.225571 -0.007058 2.107722 1 1 9
0.224806 -0.005474 2.100573 0 1 8
0.225362 -0.003923 2.105772 0 1 9
0.224498 -0.002350 2.097696 0 4 13
0.225774 -0.000796 2.109616 0 10 17
0.226343 0.000772 2.114937 0 12 18
0.226284 0.002343 2.114383 0 12 20
0.213741 0.003696 1.997180 0 13 23
0.214918 0.005208 2.008183 0 15 26
0.223205 0.008507 2.085611 0 16 31
0.225853 0.010176 2.110356 0 16 31
0.226455 0.011775 2.115977 0 14 31
0.225435 0.013286 2.106449 1 13 31
0.214648 0.018609 2.005653 1 13 31
0.215080 0.020140 2.009693 1 14 31
0.221196 0.022247 2.066842 1 14 31
0.221120 0.023774 2.066132 0 17 32
0.220633 0.025253 2.061579 0 17 32
0.220552 0.026775 2.060822 0 17 32
0.213142 0.027355 1.991583 0 17 32
0.214292 0.028989 2.002329 0 17 32
0.223740 0.033373 2.090616 0 17 32
0.226347 0.038475 2.114973 0 16 32
0.214021 0.039350 1.999794 0 17 34
0.213837 0.040801 1.998078 0 18 35
0.214397 0.042396 2.003309 1 18 36
0.212366 0.043468 1.984330 0 19 36
0.211160 0.044687 1.973064 0 19 36
0.209659 0.045824 1.959039 0 21 35
0.207907 0.046884 1.942669 0 21 35
0.208184 0.049836 1.945256 0 21 35
0.208356 0.054216 1.946861 1 23 37
0.210021 0.056107 1.962422 1 23 37
0.208812 0.057233 1.951123 0 22 36
0.208070 0.058474 1.944194 0 21 35
0.208899 0.060156 1.951941 0 21 35
0.208625 0.061525 1.949381 0 21 35
0.208645 0.062979 1.949566 0 22 36
0.209282 0.064624 1.955517 0 22 36
0.209370 0.066104 1.956341 0 22 36
0.210106 0.067795 1.963215 0 20 35
0.209964 0.069206 1.961888 1 17 35
