ply
format ascii 1.0
element vertex 1289
property float x
property float y
property float z
property uchar red
property uchar green
property uchar blue
end_header
0.030252 -0.256798 2.252195 45 65 82
0.030292 -0.255458 2.255135 45 65 84
0.030412 -0.254788 2.264063 42 62 84
0.030464 -0.253541 2.267953 42 61 85
0.030408 -0.251390 2.263752 42 62 85
0.030383 -0.249510 2.261949 43 64 86
0.030398 -0.247952 2.263068 45 67 88
0.030371 -0.246053 2.261066 49 71 92
0.030396 -0.244573 2.262907 51 76 95
0.030387 -0.242822 2.262250 53 80 97
0.030444 -0.241588 2.266443 54 81 99
0.030471 -0.240117 2.268446 37 63 82
0.030484 -0.238538 2.269451 22 46 64
0.030350 -0.235813 2.259500 24 46 64
0.030306 -0.233789 2.256164 31 52 69
0.030485 -0.233491 2.269554 31 52 68
0.030574 -0.232479 2.276154 28 48 63
0.030313 -0.228816 2.256701 28 47 61
0.030358 -0.227479 2.260065 26 42 56
0.030447 -0.226464 2.266711 23 39 52
0.030438 -0.224711 2.266010 21 37 49
0.030434 -0.223002 2.265753 20 37 48
0.030434 -0.221319 2.265753 21 37 50
0.030457 -0.219800 2.267443 21 37 50
0.030341 -0.217281 2.258764 19 35 48
0.030467 -0.216501 2.268164 17 32 45
0.030491 -0.214983 2.269928 20 33 45
0.030607 -0.214110 2.278579 20 31 41
0.030578 -0.212220 2.276464 10 20 29
0.030575 -0.210507 2.276221 7 16 24
0.030747 -0.209989 2.288999 19 27 36
0.030841 -0.208928 2.296033 26 32 43
0.030828 -0.207137 2.295081 27 30 41
0.030653 -0.204264 2.282032 40 41 52
0.030612 -0.202299 2.278984 55 57 66
0.030673 -0.201003 2.283491 93 100 107
0.030738 -0.199729 2.288333 165 179 185
0.030665 -0.197561 2.282923 214 236 242
0.030636 -0.195681 2.280775 225 251 255
0.030899 -0.190524 2.300319 149 158 162
0.030610 -0.187049 2.278805 167 174 180
0.030625 -0.173596 2.279956 164 170 182
0.030548 -0.171469 2.274209 160 166 177
0.030496 -0.169489 2.270311 157 164 174
0.030540 -0.168049 2.273645 157 164 174
0.030572 -0.166531 2.275974 157 164 173
0.030527 -0.164597 2.272611 156 163 171
0.030596 -0.163281 2.277812 155 161 169
0.030619 -0.161711 2.279524 157 161 170
0.030559 -0.159701 2.275017 158 161 170
0.030487 -0.157637 2.269632 154 157 165
0.030524 -0.156142 2.272402 150 153 160
0.030519 -0.154429 2.272026 148 152 158
0.030510 -0.152698 2.271388 148 153 157
0.030554 -0.151226 2.274626 147 151 156
0.030580 -0.149665 2.276575 147 149 154
0.030480 -0.147492 2.269164 148 148 153
0.030508 -0.145941 2.271256 149 148 153
0.030492 -0.144177 2.270048 148 147 152
0.030484 -0.142451 2.269413 147 145 149
0.030326 -0.140040 2.257704 146 145 146
0.030453 -0.138942 2.267165 146 147 144
0.030471 -0.137339 2.268490 148 148 144
0.030602 -0.136236 2.278229 149 150 145
0.030593 -0.134505 2.277565 149 151 149
0.030606 -0.132870 2.278543 148 151 153
0.030570 -0.131024 2.275875 149 153 156
0.030428 -0.128733 2.265304 151 155 158
0.030418 -0.127005 2.264504 153 157 160
0.030544 -0.125843 2.273889 155 159 162
0.030504 -0.123991 2.270917 157 161 164
0.030458 -0.122122 2.267518 158 162 165
0.030430 -0.120328 2.265452 160 164 167
0.030399 -0.118523 2.263123 162 166 169
0.030332 -0.116584 2.258128 163 167 170
0.030508 -0.115574 2.271233 163 167 170
0.030493 -0.113832 2.270133 163 167 170
0.030541 -0.112320 2.273676 163 167 170
0.030367 -0.110003 2.260749 163 167 170
0.030153 -0.105891 2.244783 167 169 172
0.030449 -0.103564 2.266832 169 170 172
0.030561 -0.102256 2.275212 167 168 170
0.030690 -0.100990 2.284782 164 165 166
0.030707 -0.099346 2.286022 161 162 162
0.030900 -0.098262 2.300387 158 159 159
0.030851 -0.096402 2.296775 156 158 157
0.030809 -0.094567 2.293651 154 156 155
0.030778 -0.092771 2.291363 153 155 154
0.030870 -0.091341 2.298206 155 157 155
0.030921 -0.089781 2.301978 158 160 158
0.030950 -0.088152 2.304109 163 165 162
0.031057 -0.086740 2.312072 168 170 167
0.027282 0.049018 2.031083 162 169 169
0.027337 0.050628 2.035170 128 136 140
0.027430 0.052316 2.042047 85 93 96
0.027443 0.053859 2.043052 46 53 56
0.027434 0.055359 2.042413 22 30 33
0.027384 0.056773 2.038690 14 18 22
0.027394 0.058307 2.039389 8 12 16
0.027363 0.059755 2.037102 1 7 12
0.027415 0.061385 2.040998 0 7 12
0.027447 0.062973 2.043319 0 9 15
0.027463 0.064529 2.044559 0 14 21
0.027444 0.066002 2.043135 8 25 33
0.027388 0.067381 2.038945 18 36 47
0.027306 0.068690 2.032858 25 43 57
0.027324 0.070247 2.034219 29 47 61
0.027169 0.071350 2.022645 29 47 61
0.026724 0.073137 1.989543 27 41 50
0.026614 0.074307 1.981313 11 24 33
0.026596 0.075727 1.979975 2 13 22
0.026421 0.076692 1.966994 1 11 20
0.026437 0.078200 1.968177 3 13 22
0.026408 0.079575 1.966028 3 14 23
0.026391 0.080983 1.964760 2 14 24
0.026393 0.082447 1.964882 0 12 21
0.026349 0.083766 1.961582 0 12 22
0.026294 0.085044 1.957482 0 15 25
0.026284 0.086468 1.956803 3 19 30
0.026186 0.087593 1.949476 6 23 34
0.026168 0.088980 1.948157 8 26 37
0.026216 0.090592 1.951699 7 26 38
0.026075 0.091545 1.941181 7 27 38
0.026090 0.093043 1.942339 8 28 39
0.026089 0.094483 1.942277 8 28 39
0.026147 0.096138 1.946577 8 28 39
0.026225 0.097874 1.952371 7 28 39
0.026286 0.099555 1.956910 7 29 38
0.026303 0.101073 1.958165 7 29 38
0.026334 0.102649 1.960479 7 29 39
0.026359 0.104204 1.962335 7 28 40
0.026368 0.105699 1.963047 6 27 40
0.026384 0.107219 1.964174 5 26 40
0.026382 0.108673 1.964087 5 26 40
0.026353 0.110011 1.961924 5 26 41
0.026362 0.111506 1.962592 5 26 41
0.026378 0.113030 1.963750 5 26 40
0.026329 0.114279 1.960140 5 26 40
0.026241 0.115346 1.953568 5 26 39
0.026225 0.116728 1.952408 4 26 37
0.026188 0.118008 1.949596 4 25 37
0.026160 0.119331 1.947544 4 25 37
0.026154 0.120747 1.947055 4 25 37
0.026153 0.122188 1.946983 4 25 37
0.026137 0.123560 1.945811 4 25 36
0.026199 0.125303 1.950444 4 26 37
0.026301 0.127247 1.958064 4 26 37
0.026370 0.129038 1.963184 3 25 36
0.026354 0.130417 1.961998 2 24 35
0.026330 0.131754 1.960202 2 24 35
0.026314 0.133130 1.959029 2 24 35
0.026227 0.134138 1.952523 2 24 34
0.026173 0.135311 1.948532 2 25 33
0.026258 0.137200 1.954812 2 25 33
0.026291 0.138828 1.957302 2 24 33
0.025655 0.143981 1.909945 4 21 31
0.025861 0.150859 1.925308 4 22 32
0.025881 0.152403 1.926737 4 22 32
0.025799 0.153347 1.920646 4 22 32
0.025798 0.154770 1.920600 4 22 32
0.025775 0.156054 1.918843 4 22 32
0.025262 0.157143 1.880699 4 21 31
0.025230 0.158339 1.878315 4 21 31
0.025241 0.159804 1.879142 5 21 31
0.025264 0.161348 1.880867 5 21 31
0.025257 0.162699 1.880335 5 20 31
0.025243 0.164000 1.879237 5 20 33
0.025208 0.165169 1.876664 4 20 33
0.025212 0.166588 1.876950 4 20 33
0.025237 0.168147 1.878789 4 20 33
0.025245 0.169600 1.879422 2 19 32
0.025240 0.170958 1.879009 2 20 31
0.025229 0.172280 1.878205 2 20 30
0.025225 0.173652 1.877954 2 20 29
0.025230 0.175082 1.878333 2 20 28
0.025274 0.176783 1.881584 2 21 28
0.025334 0.178605 1.886068 2 21 28
0.025312 0.179848 1.884410 2 21 28
0.025293 0.181110 1.882988 1 18 27
0.025315 0.182669 1.884635 1 18 27
0.025315 0.184070 1.884648 0 18 27
0.025423 0.186259 1.892670 0 18 27
0.025526 0.188423 1.900316 0 18 27
0.025595 0.190352 1.905494 0 18 27
0.025639 0.193514 1.908759 0 18 27
0.025650 0.195016 1.909586 0 19 28
0.025783 0.197454 1.919500 0 20 28
0.025842 0.199329 1.923838 0 20 28
0.025853 0.200847 1.924691 0 20 28
0.025860 0.202332 1.925212 0 21 28
0.025872 0.203853 1.926079 0 20 29
0.025893 0.205455 1.927686 0 20 29
0.025905 0.206983 1.928578 0 20 29
0.025879 0.208205 1.926634 0 19 28
0.025880 0.209643 1.926700 1 19 28
0.025851 0.210840 1.924564 2 18 29
0.025764 0.211552 1.918058 2 18 30
0.025684 0.212315 1.912097 2 18 30
0.025608 0.213101 1.906422 2 18 30
0.025568 0.214186 1.903479 2 18 30
0.025572 0.215633 1.903768 2 18 31
0.025569 0.217018 1.903513 2 18 32
0.025548 0.218254 1.901969 3 19 34
0.025550 0.219688 1.902151 3 19 34
0.032440 -0.313633 2.288507 173 169 166
0.032653 -0.313982 2.303534 164 162 159
0.032842 -0.314075 2.316844 154 154 153
0.032978 -0.313649 2.326446 146 148 150
0.033109 -0.313158 2.335676 120 126 129
0.033201 -0.312291 2.342184 77 87 90
0.033116 -0.309760 2.336212 47 60 63
0.033010 -0.307036 2.328717 46 61 65
0.031885 -0.291560 2.249357 72 87 94
0.031583 -0.287144 2.228056 67 82 89
0.031435 -0.284155 2.217638 68 85 92
0.031881 -0.286511 2.249063 76 93 102
0.032686 -0.292035 2.305871 81 98 108
0.032979 -0.292926 2.326553 78 94 105
0.032937 -0.290823 2.323557 72 88 100
0.033018 -0.289808 2.329268 68 83 97
0.033024 -0.288131 2.329703 65 81 95
0.033032 -0.286475 2.330309 65 81 96
0.033032 -0.284744 2.330309 64 82 97
0.032660 -0.279819 2.304006 56 74 91
0.032611 -0.277696 2.300596 46 64 82
0.032484 -0.273206 2.291602 49 68 86
0.032457 -0.271283 2.289737 45 66 83
0.032219 -0.267605 2.272940 44 65 82
0.032147 -0.265322 2.267856 44 65 82
0.032021 -0.262603 2.258957 44 65 82
0.031954 -0.260378 2.254221 43 65 82
0.031960 -0.258751 2.254633 44 66 84
0.031980 -0.257240 2.256073 42 67 84
0.031979 -0.255557 2.256010 43 66 86
0.032107 -0.254892 2.264992 35 59 80
0.032147 -0.253527 2.267828 35 57 81
0.032133 -0.251736 2.266868 34 57 81
0.031980 -0.248863 2.256082 35 57 81
0.031958 -0.247017 2.254528 37 59 82
0.032014 -0.245767 2.258430 39 61 83
0.032019 -0.244133 2.258834 40 63 83
0.032091 -0.243001 2.263923 41 64 83
0.032077 -0.241215 2.262939 46 68 84
0.032113 -0.239796 2.265418 36 57 72
0.031963 -0.237007 2.254893 24 45 60
0.032059 -0.236039 2.261666 24 43 59
0.031988 -0.233841 2.256661 28 48 62
0.031985 -0.232139 2.256408 30 49 63
0.032118 -0.231420 2.265784 27 46 59
0.031938 -0.228451 2.253096 26 44 57
0.031839 -0.226074 2.246111 24 40 53
0.031864 -0.224585 2.247902 21 37 50
0.031939 -0.223440 2.253193 18 34 46
0.031965 -0.221947 2.255026 17 34 45
0.031934 -0.220053 2.252791 19 35 48
0.031976 -0.218667 2.255746 21 37 50
0.031947 -0.216796 2.253717 20 36 49
0.031999 -0.215472 2.257388 20 35 48
0.032100 -0.214470 2.264504 18 31 43
0.032235 -0.211998 2.274082 11 20 29
0.032037 -0.209016 2.260103 10 19 27
0.032615 -0.211079 2.300890 21 29 38
0.032605 -0.209304 2.300165 24 30 40
0.032645 -0.207848 2.302958 18 21 32
0.032518 -0.205339 2.294032 20 22 34
0.032213 -0.201726 2.272526 31 35 48
0.032292 -0.200524 2.278047 82 88 102
0.032308 -0.195548 2.279216 236 254 255
0.032751 -0.194798 2.310486 88 105 106
0.032578 -0.190353 2.298252 145 153 158
0.032172 -0.186296 2.269632 166 172 178
0.032094 -0.172391 2.264128 167 171 183
0.032054 -0.170497 2.261311 163 167 179
0.032080 -0.168949 2.263084 161 165 176
0.032226 -0.168032 2.273413 160 164 174
0.032060 -0.165489 2.261734 160 164 172
0.032243 -0.164740 2.274598 157 163 169
0.032268 -0.163178 2.276371 154 159 165
0.032221 -0.161253 2.273063 155 159 166
0.032018 -0.158560 2.258755 157 160 167
0.031998 -0.156781 2.257305 152 155 162
0.031999 -0.155111 2.257394 149 152 157
0.031998 -0.153429 2.257325 147 151 155
0.032034 -0.151926 2.259895 147 152 155
0.032044 -0.150292 2.260576 146 151 154
0.031978 -0.148306 2.255912 145 149 152
0.031948 -0.146492 2.253772 146 148 152
0.031885 -0.144536 2.249381 149 149 152
0.031984 -0.143306 2.256329 148 147 150
0.031973 -0.141583 2.255571 146 146 148
0.031984 -0.139957 2.256378 146 145 145
0.032011 -0.138395 2.258232 146 146 143
0.032110 -0.137140 2.265215 147 149 143
0.032192 -0.135806 2.271043 148 150 144
0.032231 -0.134281 2.273779 150 152 149
0.032217 -0.132534 2.272786 151 154 155
0.032152 -0.130580 2.268164 151 155 157
0.032033 -0.128422 2.259830 152 156 158
0.032025 -0.126710 2.259238 154 158 159
0.032179 -0.125635 2.270133 155 159 161
0.032212 -0.124073 2.272402 157 161 163
0.032170 -0.122225 2.269434 157 161 163
0.031962 -0.119761 2.254780 160 164 166
0.031940 -0.118005 2.253239 162 166 168
0.031901 -0.116191 2.250523 162 166 169
0.031973 -0.114775 2.255540 162 166 169
0.032080 -0.113478 2.263084 161 165 168
0.032085 -0.111817 2.263481 160 164 167
0.031718 -0.108873 2.237545 160 164 167
0.031741 -0.107291 2.239211 160 164 167
0.031741 -0.105628 2.239211 164 167 169
0.031578 -0.103432 2.227727 169 170 172
0.031953 -0.102985 2.254160 168 169 171
0.032163 -0.101976 2.268961 167 168 170
0.032236 -0.100519 2.274137 164 165 167
0.032369 -0.099237 2.283510 162 163 165
0.032434 -0.097737 2.288102 160 161 162
0.032454 -0.096098 2.289531 158 160 159
0.032451 -0.094387 2.289285 156 158 157
0.032526 -0.092902 2.294603 153 155 154
0.032390 -0.090817 2.285020 152 154 153
0.032476 -0.089356 2.291082 150 152 151
0.032690 -0.088232 2.306183 151 153 151
0.028705 0.044359 2.024995 163 169 162
0.028750 0.045935 2.028178 129 136 129
0.028819 0.047556 2.033091 101 109 105
0.028781 0.049001 2.030376 60 70 72
0.028906 0.050728 2.039198 31 42 47
0.028918 0.052266 2.040080 12 21 27
0.028899 0.053744 2.038697 4 9 14
0.028889 0.055241 2.038037 0 6 12
0.028960 0.056893 2.043021 0 9 15
0.028963 0.058417 2.043248 3 13 19
0.028972 0.059952 2.043839 5 19 25
0.028956 0.061437 2.042728 12 28 34
0.028952 0.062946 2.042452 16 33 39
0.028950 0.064458 2.042295 18 39 46
0.028920 0.065908 2.040218 23 46 55
0.028854 0.067269 2.035539 27 50 62
0.028731 0.068488 2.026886 27 51 65
0.028688 0.069888 2.023827 28 52 67
0.028185 0.074569 1.988320 10 24 33
0.028196 0.076078 1.989148 1 13 21
0.028050 0.078624 1.978846 2 16 24
0.027925 0.079736 1.970013 2 15 25
0.027923 0.081191 1.969827 1 12 23
0.027866 0.082488 1.965853 1 16 26
0.027756 0.083616 1.958081 2 19 29
0.027724 0.084974 1.955851 4 22 32
0.027669 0.086252 1.951910 6 25 36
0.027587 0.087442 1.946126 7 28 39
0.027554 0.088783 1.943842 7 28 41
0.027535 0.090164 1.942476 4 27 40
0.027410 0.091190 1.933647 3 26 38
0.027520 0.093000 1.941437 6 27 38
0.027579 0.094644 1.945602 9 28 38
0.027593 0.096138 1.946577 10 28 38
0.027732 0.098076 1.956410 10 28 38
0.027670 0.099305 1.951990 10 28 38
0.027657 0.100710 1.951123 10 28 38
0.027659 0.102163 1.951208 10 28 39
0.027672 0.103663 1.952162 10 28 40
0.027687 0.105171 1.953230 8 26 39
0.027707 0.106698 1.954627 7 25 40
0.027697 0.108112 1.953939 7 24 42
0.027637 0.109324 1.949676 7 24 42
0.027637 0.110773 1.949689 7 24 42
0.027655 0.112293 1.950933 7 24 41
0.027615 0.113577 1.948103 7 24 41
0.027582 0.114888 1.945811 7 25 40
0.027604 0.116428 1.947387 7 25 38
0.027580 0.117768 1.945626 7 25 36
0.027545 0.119065 1.943203 7 25 36
0.027574 0.120634 1.945239 7 25 36
0.027570 0.122061 1.944953 7 25 36
0.027564 0.123478 1.944510 7 25 35
0.027612 0.125140 1.947912 6 25 35
0.027721 0.127085 1.955573 6 25 35
0.027757 0.128706 1.958130 5 24 35
0.027751 0.130134 1.957738 4 23 35
0.027712 0.131402 1.954972 4 23 35
0.027647 0.132541 1.950359 4 23 35
0.027591 0.133721 1.946441 4 23 34
0.027562 0.135025 1.944406 4 23 34
0.027552 0.136420 1.943705 4 23 34
0.027548 0.137843 1.943414 4 23 35
0.027572 0.139408 1.945112 4 22 36
0.027372 0.139832 1.931015 4 21 36
0.027330 0.141045 1.927990 4 21 36
0.027317 0.142412 1.927107 4 21 35
0.027321 0.143866 1.927406 4 21 33
0.027271 0.146459 1.923859 4 22 31
0.027263 0.147847 1.923332 4 22 31
0.027277 0.149347 1.924253 4 22 31
0.027304 0.150926 1.926158 4 22 32
0.027333 0.152519 1.928207 4 22 32
0.027244 0.153453 1.921975 4 22 33
0.027147 0.154327 1.915098 4 22 33
0.027123 0.155612 1.913415 4 22 33
0.027124 0.157040 1.913496 4 22 32
0.026586 0.156713 1.875553 5 21 32
0.026549 0.157886 1.872944 6 20 33
0.026624 0.159723 1.878193 7 20 32
0.026640 0.161219 1.879363 7 20 32
0.026684 0.162884 1.882472 7 20 33
0.026647 0.164051 1.879832 7 20 34
0.026601 0.165160 1.876566 6 20 34
0.026549 0.166233 1.872949 6 20 34
0.026514 0.167404 1.870482 5 20 33
0.026563 0.169100 1.873888 4 19 32
0.026546 0.170384 1.872700 3 20 32
0.026518 0.171597 1.870762 3 20 30
0.026510 0.172933 1.870180 2 20 30
0.026542 0.174535 1.872467 2 21 28
0.026551 0.175985 1.873092 2 21 28
0.026562 0.177448 1.873857 2 21 28
0.026557 0.178804 1.873481 2 21 28
0.026593 0.180440 1.876013 2 19 27
0.026633 0.182110 1.878872 2 19 27
0.026693 0.183915 1.883062 2 19 27
0.026717 0.185479 1.884745 1 19 27
0.026726 0.186946 1.885423 1 19 27
0.026414 0.187531 1.863402 1 20 27
0.026563 0.191370 1.873888 1 19 27
0.027057 0.196349 1.908759 0 19 27
0.027233 0.199056 1.921206 0 20 27
0.027255 0.202071 1.922730 0 20 27
0.027269 0.203607 1.923751 0 21 27
0.027298 0.205253 1.925785 0 21 27
0.027304 0.206723 1.926156 0 20 28
0.027297 0.208102 1.925683 1 19 29
0.027247 0.209148 1.922146 1 19 29
0.027189 0.210131 1.918091 2 18 30
0.027123 0.211038 1.913394 2 18 31
0.027104 0.212311 1.912062 2 18 31
0.027085 0.213587 1.910768 2 18 31
0.027071 0.214894 1.909770 2 18 31
0.027046 0.216108 1.907966 2 18 31
0.027042 0.217494 1.907691 2 18 31
0.027032 0.218834 1.907021 3 19 32
0.027006 0.220039 1.905187 3 19 32
0.034773 -0.328103 2.330925 155 154 155
0.034921 -0.326028 2.340890 162 161 156
0.034354 -0.315602 2.302872 173 169 167
0.034480 -0.315046 2.311345 164 161 161
0.034421 -0.312792 2.307382 153 153 155
0.034728 -0.313848 2.327921 144 147 150
0.034831 -0.313045 2.334832 118 125 128
0.034939 -0.312275 2.342064 75 87 89
0.034739 -0.308762 2.328685 46 62 63
0.034840 -0.307925 2.335457 46 65 65
0.033603 -0.291972 2.252531 68 86 92
0.034589 -0.291928 2.318630 75 92 100
0.034738 -0.291456 2.328617 68 85 94
0.034792 -0.290178 2.332245 64 81 89
0.034789 -0.286684 2.332003 62 79 90
0.034584 -0.283278 2.318305 63 81 94
0.034184 -0.278295 2.291455 56 76 90
0.033993 -0.275048 2.278660 46 68 83
0.033826 -0.272015 2.267483 44 67 83
0.033928 -0.271149 2.274343 46 71 88
0.034068 -0.270570 2.283714 42 68 85
0.033908 -0.267609 2.272971 42 68 83
0.033677 -0.264108 2.257479 41 68 82
0.033717 -0.262745 2.260177 41 67 84
0.033832 -0.261958 2.267905 43 68 85
0.033676 -0.259068 2.257394 46 71 88
0.033649 -0.257188 2.255616 47 74 92
0.033662 -0.255614 2.256508 48 75 95
0.033655 -0.253882 2.256010 40 66 89
0.033661 -0.252249 2.256395 38 63 86
0.033700 -0.250866 2.259036 34 58 83
0.033696 -0.249157 2.258755 31 55 79
0.033650 -0.247145 2.255697 31 53 76
0.033583 -0.244980 2.251199 32 53 75
0.033639 -0.243709 2.254912 35 54 76
0.033636 -0.242012 2.254709 36 55 75
0.033653 -0.240460 2.255859 42 60 75
0.033646 -0.238740 2.255436 36 53 66
0.033577 -0.236579 2.250814 26 43 57
0.033645 -0.235382 2.255372 23 40 53
0.033677 -0.233927 2.257492 25 42 56
0.033568 -0.231498 2.250179 29 46 59
0.033634 -0.230278 2.254601 28 45 58
0.033527 -0.227874 2.247408 26 42 55
0.033399 -0.225344 2.238859 23 39 52
0.033376 -0.223528 2.237325 19 35 48
0.033474 -0.222519 2.243911 16 32 45
0.033577 -0.221532 2.250814 15 31 44
0.033558 -0.219734 2.249519 18 34 47
0.033565 -0.218108 2.249982 20 36 49
0.033524 -0.216175 2.247262 22 38 51
0.033675 -0.215470 2.257365 23 37 49
0.033712 -0.214030 2.259863 20 34 43
0.033949 -0.213844 2.275750 17 28 37
0.033881 -0.211726 2.271155 14 23 31
0.033933 -0.210362 2.274655 12 21 28
0.034234 -0.210525 2.294851 13 21 30
0.034159 -0.208358 2.289767 13 20 30
0.034272 -0.207344 2.297374 10 16 23
0.034083 -0.204506 2.284731 5 11 20
0.034001 -0.202319 2.279216 7 12 33
0.034038 -0.200844 2.281686 72 77 104
0.033995 -0.197205 2.278805 239 249 255
0.034095 -0.196085 2.285480 244 254 255
0.034195 -0.193260 2.292246 81 90 88
0.034128 -0.189479 2.287708 140 144 148
0.034025 -0.187215 2.280821 163 166 174
0.033726 -0.183892 2.260797 164 167 176
0.033860 -0.182937 2.269783 166 169 178
0.033745 -0.180631 2.262020 168 170 179
0.033938 -0.179979 2.275017 168 168 179
0.034065 -0.178955 2.283510 166 166 178
0.034090 -0.177386 2.285154 164 164 176
0.034116 -0.175823 2.286892 161 160 173
0.034004 -0.173554 2.279410 159 158 172
0.033969 -0.171686 2.277079 159 158 171
0.034028 -0.170289 2.281033 160 158 171
0.033912 -0.168020 2.273258 160 158 170
0.034010 -0.166809 2.279780 160 158 168
0.034073 -0.165423 2.284028 159 159 166
0.034120 -0.163955 2.287208 159 159 164
0.033889 -0.161157 2.271721 155 157 161
0.033746 -0.158797 2.262127 151 155 158
0.033809 -0.157408 2.266333 150 154 156
0.033727 -0.155349 2.260856 149 152 154
0.033818 -0.154083 2.266943 147 151 152
0.033811 -0.152368 2.266473 145 149 151
0.033848 -0.150850 2.268961 144 148 150
0.033873 -0.149275 2.270638 143 147 148
0.033706 -0.143501 2.259400 146 148 148
0.033810 -0.142264 2.266424 146 148 147
0.033642 -0.139879 2.255120 147 148 147
0.033782 -0.138779 2.264504 147 149 147
0.033773 -0.137060 2.263895 148 150 146
0.033913 -0.135942 2.273319 148 151 147
0.033945 -0.134380 2.275452 149 153 150
0.034022 -0.132990 2.280605 151 155 155
0.033964 -0.131074 2.276750 151 155 156
0.033766 -0.128629 2.263481 152 156 157
0.033715 -0.126756 2.260065 153 157 158
0.033951 -0.125953 2.275875 154 158 159
0.033900 -0.124075 2.272449 155 159 160
0.033860 -0.122243 2.269763 155 159 160
0.033753 -0.120177 2.262611 157 161 162
0.033539 -0.117744 2.248251 159 163 165
0.033658 -0.116484 2.256194 159 163 165
0.033782 -0.115231 2.264504 159 163 165
0.033722 -0.113349 2.260515 159 163 165
0.033662 -0.111470 2.256456 159 163 165
0.033451 -0.109107 2.242342 159 163 165
0.033219 -0.105042 2.226776 161 165 166
0.033272 -0.103554 2.230372 165 167 169
0.033498 -0.102588 2.245481 164 167 168
0.033642 -0.101353 2.255120 163 165 167
0.033891 -0.100417 2.271836 162 164 166
0.033971 -0.098962 2.277173 161 163 164
0.033990 -0.097327 2.278491 160 162 163
0.034016 -0.095705 2.280182 159 162 162
0.034038 -0.094074 2.281686 157 160 160
0.034122 -0.092608 2.287336 154 157 157
0.034082 -0.090802 2.284666 151 154 153
0.033995 -0.088877 2.278805 148 150 149
0.034151 -0.087585 2.289285 145 148 145
0.034298 -0.084547 2.299131 146 148 145
0.033928 -0.080255 2.274291 153 154 149
0.034413 -0.077976 2.306846 162 162 158
0.034293 -0.075996 2.298779 167 167 163
0.030150 0.041270 2.021076 144 152 147
0.030175 0.042807 2.022738 109 118 113
0.030189 0.044330 2.023683 72 81 78
0.030229 0.045894 2.026369 39 48 45
0.030287 0.047490 2.030247 16 25 23
0.030312 0.049037 2.031898 5 12 16
0.030378 0.050657 2.036314 2 7 15
0.030459 0.052309 2.041786 1 12 19
0.030468 0.053841 2.042377 13 25 32
0.030479 0.055379 2.043117 23 35 43
0.030466 0.056871 2.042227 24 37 44
0.030467 0.058390 2.042295 20 36 43
0.030465 0.059903 2.042149 20 38 45
0.030454 0.061398 2.041437 22 41 48
0.030451 0.062908 2.041236 23 46 53
0.030417 0.064354 2.038990 23 49 57
0.030338 0.065696 2.033663 22 48 58
0.030230 0.066967 2.026407 20 47 59
0.030195 0.068392 2.024045 20 47 61
0.030198 0.069904 2.024282 21 48 64
0.030145 0.071281 2.020705 25 50 65
0.030149 0.072793 2.021004 26 49 60
0.030105 0.074186 2.018071 18 36 46
0.030016 0.076956 2.012108 0 12 21
0.029718 0.077671 1.992114 0 14 23
0.029514 0.078608 1.978456 1 17 26
0.029463 0.079938 1.975011 2 18 27
0.029359 0.081117 1.968031 2 15 25
0.029240 0.082246 1.960080 4 21 31
0.029113 0.083337 1.951556 5 24 35
0.029036 0.084562 1.946367 6 26 38
0.029109 0.086225 1.951294 6 29 40
0.029021 0.087407 1.945347 6 30 42
0.028903 0.088494 1.937499 5 30 43
0.028841 0.089738 1.933302 3 29 41
0.028957 0.091542 1.941102 2 28 40
0.028993 0.094542 1.943506 9 28 37
0.029103 0.096352 1.950909 10 28 37
0.029051 0.097624 1.947387 10 28 37
0.028855 0.099840 1.934265 10 28 37
0.028850 0.101260 1.933944 10 27 39
0.028858 0.102724 1.934475 10 27 40
0.028868 0.104195 1.935106 8 25 39
0.028912 0.105793 1.938042 7 24 39
0.029005 0.107580 1.944322 7 23 41
0.028927 0.108730 1.939090 7 23 42
0.028883 0.110004 1.936155 7 23 42
0.028867 0.111378 1.935040 7 23 42
0.028865 0.112809 1.934931 7 23 42
0.028875 0.114285 1.935583 7 24 40
0.028940 0.115984 1.939968 7 24 36
0.028959 0.117503 1.941244 7 25 33
0.028986 0.119055 1.943055 7 25 33
0.028981 0.120475 1.942669 7 25 34
0.028956 0.121814 1.941013 7 24 34
0.028912 0.123067 1.938042 7 24 34
0.028941 0.124632 1.940003 7 25 35
0.028981 0.126247 1.942669 7 25 35
0.029014 0.127838 1.944921 5 23 34
0.028929 0.128904 1.939224 5 23 34
0.028933 0.130361 1.939485 5 23 35
0.028838 0.131367 1.933089 5 23 35
0.028796 0.132610 1.930281 5 23 35
0.028777 0.133957 1.929021 5 23 35
0.028760 0.135309 1.927880 5 23 35
0.028822 0.137038 1.932060 5 22 35
0.028919 0.138937 1.938542 5 22 37
0.028799 0.139794 1.930481 5 21 38
0.028667 0.143435 1.921641 5 22 35
0.028563 0.144336 1.914657 5 22 33
0.028524 0.145560 1.912047 5 22 32
0.028528 0.146999 1.912300 5 22 32
0.028568 0.148632 1.915040 5 22 32
0.028658 0.150528 1.921075 4 22 32
0.028705 0.152200 1.924181 4 21 32
0.028645 0.153307 1.920146 4 21 34
0.028696 0.155012 1.923601 4 21 34
0.028586 0.155838 1.916192 4 21 34
0.028508 0.156834 1.910983 4 21 33
0.027985 0.156742 1.875909 6 21 32
0.027973 0.158073 1.875163 9 20 34
0.027973 0.159466 1.875163 9 20 34
0.027965 0.160808 1.874571 9 20 34
0.027991 0.162350 1.876306 9 20 34
0.027980 0.163685 1.875629 9 20 36
0.028009 0.165247 1.877549 8 20 36
0.027952 0.166300 1.873703 8 20 34
0.027965 0.167771 1.874587 7 20 34
0.027999 0.169372 1.876897 6 20 33
0.027936 0.170378 1.872632 6 20 32
0.027885 0.171459 1.869250 6 20 31
0.027886 0.172852 1.869303 4 21 30
0.027835 0.173921 1.865878 4 21 28
0.027848 0.175389 1.866750 4 21 28
0.027805 0.176502 1.863857 4 21 28
0.027813 0.177936 1.864383 4 21 28
0.027859 0.179619 1.867484 4 20 27
0.027992 0.181868 1.876379 5 19 27
0.028074 0.183800 1.881883 5 19 27
0.028053 0.185061 1.880499 5 19 27
0.027974 0.185932 1.875190 5 19 27
0.027510 0.185588 1.844096 3 20 27
0.028427 0.198850 1.905550 1 19 26
0.028433 0.200306 1.905944 0 20 27
0.028468 0.201973 1.908310 0 20 27
0.028540 0.203905 1.913145 0 20 27
0.028585 0.205649 1.916153 0 20 27
0.028570 0.206966 1.915164 1 19 28
0.028552 0.208254 1.913931 3 18 29
0.028560 0.209737 1.914488 3 18 29
0.028479 0.210561 1.909066 3 18 29
0.028445 0.211722 1.906755 3 18 29
0.028426 0.212998 1.905503 3 18 29
0.028413 0.214316 1.904638 3 18 29
0.028395 0.215593 1.903422 3 18 29
0.028385 0.216931 1.902755 3 18 29
0.028372 0.218242 1.901861 3 18 29
0.028382 0.219731 1.902526 3 18 29
0.036532 -0.330092 2.332742 161 161 166
0.036188 -0.325267 2.310774 153 153 154
0.036424 -0.325655 2.325803 153 152 151
0.036452 -0.324178 2.327603 161 160 156
0.036283 -0.320959 2.316844 168 165 162
0.036283 -0.319238 2.316844 170 167 164
0.036424 -0.318745 2.325803 171 167 166
0.036181 -0.314908 2.310332 163 160 160
0.036124 -0.312698 2.306689 153 153 155
0.036424 -0.313562 2.325803 142 146 148
0.036561 -0.313007 2.334549 115 123 126
0.036611 -0.311704 2.337781 75 88 90
0.036518 -0.309176 2.331815 49 65 67
0.036392 -0.306386 2.323789 49 68 70
0.036483 -0.305425 2.329621 62 81 83
0.035239 -0.289990 2.250139 66 83 91
0.036373 -0.295873 2.322554 64 83 90
0.036486 -0.295061 2.329767 67 86 93
0.036426 -0.292854 2.325983 67 84 92
0.036310 -0.290197 2.318554 63 80 88
0.036294 -0.288349 2.317549 60 77 85
0.036436 -0.287750 2.326621 59 76 85
0.036424 -0.285921 2.325803 60 78 88
0.036068 -0.281421 2.303107 61 79 91
0.035561 -0.275778 2.270733 55 74 89
0.035464 -0.273340 2.264504 47 68 85
0.035389 -0.271084 2.259718 46 69 86
0.035432 -0.269738 2.262508 47 71 89
0.035510 -0.268641 2.267439 41 68 85
0.035404 -0.266166 2.260721 40 67 85
0.035332 -0.263943 2.256067 40 66 84
0.035334 -0.262288 2.256246 41 66 86
0.035378 -0.260932 2.259020 45 70 89
0.035294 -0.258637 2.253639 50 75 94
0.035241 -0.256580 2.250278 55 81 102
0.035197 -0.254588 2.247454 58 84 105
0.035233 -0.253179 2.249769 55 81 104
0.035227 -0.251465 2.249381 49 75 98
0.035285 -0.250210 2.253126 40 64 89
0.035348 -0.248979 2.257139 31 55 79
0.035355 -0.247352 2.257589 29 52 75
0.035276 -0.245125 2.252531 32 53 74
0.035224 -0.243091 2.249196 38 56 78
0.035287 -0.241849 2.253193 42 59 78
0.035272 -0.240080 2.252292 43 59 75
0.035279 -0.238451 2.252712 35 51 64
0.035277 -0.236761 2.252553 24 40 53
0.035359 -0.235638 2.257825 19 35 48
0.035244 -0.233198 2.250456 21 37 50
0.035225 -0.231403 2.249260 25 41 54
0.035285 -0.230124 2.253096 28 44 57
0.035051 -0.226934 2.238140 28 44 57
0.035001 -0.224951 2.234949 28 44 57
0.034978 -0.223148 2.233522 24 40 53
0.035009 -0.221682 2.235466 20 36 49
0.035188 -0.221150 2.246933 18 34 47
0.035284 -0.220079 2.253052 19 35 48
0.035338 -0.218735 2.256456 19 35 48
0.035170 -0.216030 2.245755 19 35 48
0.035211 -0.214614 2.248399 19 34 45
0.035249 -0.213169 2.250776 15 29 38
0.035568 -0.211729 2.271197 12 21 29
0.035568 -0.210037 2.271139 12 21 28
0.035744 -0.209384 2.282408 14 21 30
0.036025 -0.209318 2.300319 12 19 28
0.035932 -0.207076 2.294408 6 14 20
0.035671 -0.203880 2.277736 1 7 17
0.035495 -0.201188 2.266473 1 7 30
0.035670 -0.200491 2.277682 69 74 105
0.035627 -0.195178 2.274905 247 254 255
0.035765 -0.192541 2.283714 80 86 83
0.035713 -0.190568 2.280397 74 79 78
0.035781 -0.189237 2.284782 138 141 144
0.035710 -0.187165 2.280209 161 162 169
0.035585 -0.184826 2.272282 163 163 171
0.035504 -0.182718 2.267065 164 164 173
0.035464 -0.180829 2.264504 165 164 174
0.035409 -0.178872 2.261022 164 162 173
0.035629 -0.178295 2.275086 162 160 171
0.035625 -0.176581 2.274782 160 158 170
0.035562 -0.174585 2.270796 158 156 169
0.035674 -0.173440 2.277905 158 156 169
0.035698 -0.171865 2.279454 158 155 169
0.035626 -0.169829 2.274873 159 155 168
0.035686 -0.168422 2.278694 159 156 166
0.035665 -0.166632 2.277366 159 156 164
0.035703 -0.165116 2.279780 159 156 162
0.035566 -0.162795 2.271026 158 157 161
0.035364 -0.160193 2.258128 155 156 157
0.035362 -0.158507 2.258003 151 154 153
0.035288 -0.156504 2.253316 149 153 152
0.035351 -0.155104 2.257298 148 152 151
0.035346 -0.153408 2.257006 147 151 150
0.035367 -0.151820 2.258333 145 149 148
0.035309 -0.149896 2.254614 144 148 147
0.035308 -0.148218 2.254566 143 147 146
0.035340 -0.146677 2.256626 143 147 146
0.035307 -0.143190 2.254500 144 148 147
0.035313 -0.141538 2.254853 145 149 148
0.035432 -0.140335 2.262460 146 149 148
0.035409 -0.138565 2.260999 147 150 149
0.035388 -0.136804 2.259664 147 151 149
0.035484 -0.135492 2.265784 147 151 149
0.035517 -0.133935 2.267920 149 153 151
0.035571 -0.132450 2.271346 150 154 153
0.035575 -0.130777 2.271582 151 155 154
0.035358 -0.128305 2.257775 151 155 155
0.035411 -0.126817 2.261143 152 156 156
0.035564 -0.125678 2.270917 153 157 157
0.035431 -0.123527 2.262409 153 157 157
0.035345 -0.121550 2.256911 154 158 158
0.035311 -0.119760 2.254766 155 159 159
0.035241 -0.117852 2.250317 156 160 160
0.035211 -0.116079 2.248343 156 160 160
0.035300 -0.114699 2.254047 156 160 161
0.035135 -0.112496 2.243507 156 160 161
0.035151 -0.110880 2.244529 156 160 161
0.035253 -0.109530 2.251043 157 161 162
0.034834 -0.106577 2.224305 157 161 162
0.034830 -0.104912 2.224031 157 161 162
0.034638 -0.102690 2.211762 158 162 163
0.035159 -0.102569 2.245062 157 161 162
0.035283 -0.101255 2.252937 156 160 161
0.035440 -0.100027 2.263000 156 160 160
0.035504 -0.098523 2.267065 155 159 158
0.035546 -0.096955 2.269783 155 159 159
0.035686 -0.093952 2.278728 154 158 159
0.035665 -0.092204 2.277366 152 156 157
0.035634 -0.090432 2.275356 151 155 155
0.035679 -0.088854 2.278229 148 152 151
0.035672 -0.087145 2.277783 145 149 147
0.035920 -0.086049 2.293651 141 146 142
0.036075 -0.084708 2.303534 138 143 138
0.035391 -0.079745 2.259863 142 143 138
0.036096 -0.077909 2.304858 150 146 146
0.035965 -0.075923 2.296548 151 148 149
0.036060 -0.074412 2.302588 154 152 152
0.036109 -0.072801 2.305741 159 158 157
0.036085 -0.071040 2.304164 165 164 162
0.035761 -0.068707 2.283510 168 170 168
0.035689 -0.043178 2.278899 222 217 219
0.035762 -0.034786 2.283581 160 159 163
0.035727 -0.033057 2.281325 146 146 149
0.035810 -0.031435 2.286643 140 140 142
0.035896 -0.029808 2.292121 162 162 161
0.031533 0.038125 2.013538 146 154 151
0.031638 0.039753 2.020250 104 115 111
0.031625 0.041236 2.019416 60 71 69
0.031659 0.042782 2.021582 26 38 36
0.031695 0.044334 2.023879 6 19 18
0.031713 0.045863 2.025017 1 11 11
0.031795 0.047490 2.030263 0 9 11
0.031894 0.049150 2.036557 15 30 36
0.031952 0.050756 2.040301 18 35 44
0.031936 0.052244 2.039228 21 38 47
0.031953 0.053787 2.040313 31 48 58
0.031968 0.055328 2.041264 36 54 63
0.031964 0.056838 2.041031 33 50 60
0.031960 0.058347 2.040795 29 48 57
0.031964 0.059870 2.041029 30 51 59
0.031939 0.061338 2.039444 23 45 54
0.031901 0.062778 2.036993 21 47 56
0.031850 0.064188 2.033740 24 51 61
0.031544 0.066565 2.014235 25 53 66
0.031633 0.068251 2.019873 23 51 66
0.031551 0.069571 2.014640 20 47 65
0.031449 0.070839 2.008183 19 45 62
0.031514 0.072480 2.012310 19 42 56
0.031330 0.075027 2.000531 2 21 32
0.031197 0.076190 1.992092 0 15 26
0.030957 0.078539 1.976722 3 21 32
0.030824 0.079665 1.968252 5 24 34
0.030686 0.080764 1.959455 5 24 35
0.030665 0.082163 1.958118 5 25 37
0.030473 0.083092 1.945811 4 26 38
0.030370 0.084253 1.939276 4 27 39
0.030471 0.085977 1.945675 6 29 41
0.030402 0.087224 1.941275 5 30 43
0.030483 0.088904 1.946486 5 31 44
0.030492 0.090377 1.947060 5 33 45
0.030483 0.091795 1.946463 6 33 44
0.030549 0.093443 1.950698 7 30 39
0.030703 0.095370 1.960515 9 28 36
0.030621 0.096568 1.955300 10 28 36
0.030646 0.098099 1.956858 10 28 36
0.030562 0.099279 1.951494 10 28 36
0.030492 0.100501 1.947071 10 28 37
0.030611 0.102342 1.954620 10 27 39
0.030575 0.103674 1.952371 10 27 40
0.030598 0.105203 1.953835 8 25 40
0.030473 0.106217 1.945811 7 24 39
0.030452 0.107587 1.944463 8 23 41
0.030402 0.108853 1.941275 8 23 43
0.030372 0.110189 1.939412 8 23 43
0.030356 0.111569 1.938351 8 23 43
0.030386 0.113119 1.940248 8 23 43
0.030374 0.114518 1.939537 8 23 41
0.030345 0.115845 1.937635 8 24 37
0.030282 0.117041 1.933613 9 24 33
0.030312 0.118595 1.935545 9 24 33
0.030395 0.120361 1.940838 9 24 33
0.030390 0.121784 1.940541 9 24 33
0.030392 0.123232 1.940636 9 24 33
0.030406 0.124731 1.941545 9 24 33
0.030411 0.126197 1.941900 9 24 34
0.030389 0.127546 1.940489 8 22 33
0.030351 0.128823 1.938012 7 22 33
0.030216 0.129685 1.929426 7 22 34
0.030228 0.131171 1.930200 7 22 35
0.030370 0.138987 1.939232 7 20 37
0.030154 0.139431 1.925474 9 19 38
0.029895 0.141067 1.908908 9 20 37
0.029886 0.142443 1.908343 9 20 36
0.029908 0.143965 1.909736 9 20 34
0.029919 0.145437 1.910430 9 21 33
0.029889 0.146711 1.908548 9 21 33
0.029916 0.148261 1.910260 8 21 33
0.029935 0.149776 1.911480 8 20 33
0.029943 0.151235 1.911977 8 19 33
0.029955 0.152716 1.912743 8 19 34
0.029990 0.154317 1.914975 7 19 34
0.029863 0.155079 1.906860 7 19 34
0.029849 0.156424 1.905987 7 20 33
0.029277 0.157593 1.869471 11 19 36
0.029310 0.159161 1.871577 11 19 35
0.029285 0.160411 1.869947 11 19 35
0.029316 0.161976 1.871979 11 19 36
0.029342 0.163506 1.873578 11 19 37
0.029343 0.164908 1.873696 10 20 36
0.029489 0.167124 1.882988 10 20 35
0.029852 0.174843 1.906149 7 20 31
0.029857 0.176292 1.906506 7 21 29
0.029472 0.178209 1.881883 5 21 28
0.029781 0.182906 1.901659 5 20 26
0.029701 0.183823 1.896544 5 20 26
0.029674 0.185063 1.894819 5 20 26
0.029645 0.186291 1.892989 5 20 26
0.030027 0.192962 1.917365 5 20 26
0.030085 0.194759 1.921048 3 20 26
0.030035 0.195864 1.917889 2 19 26
0.029892 0.196349 1.908759 2 19 25
0.029823 0.197306 1.904309 2 19 25
0.029841 0.198839 1.905448 1 19 25
0.029865 0.200418 1.907002 1 20 26
0.029814 0.201487 1.903725 1 20 26
0.029888 0.203406 1.908457 1 20 26
0.029931 0.205122 1.911241 1 19 26
0.029901 0.206335 1.909328 3 18 26
0.029920 0.207880 1.910492 3 18 28
0.029936 0.209412 1.911529 4 18 29
0.029884 0.210468 1.908225 4 18 29
0.029830 0.211503 1.904782 4 18 29
0.029837 0.212966 1.905210 4 18 29
0.029818 0.214246 1.904012 4 18 29
0.029820 0.215676 1.904153 4 18 29
0.029811 0.217019 1.903527 3 17 28
0.029786 0.218251 1.901941 3 17 27
0.029796 0.219740 1.902600 3 17 26
0.037977 -0.329325 2.315172 165 165 171
0.037945 -0.327331 2.313231 158 157 162
0.037920 -0.325398 2.311706 153 153 154
0.037867 -0.323226 2.308460 155 154 153
0.037858 -0.321441 2.307953 161 160 157
0.037851 -0.319669 2.307532 166 165 161
0.037890 -0.318281 2.309903 169 168 165
0.037854 -0.316262 2.307689 168 166 166
0.037891 -0.314853 2.309923 160 159 161
0.037714 -0.311674 2.299131 150 152 155
0.038041 -0.312655 2.319077 138 143 146
0.038081 -0.311263 2.321539 112 119 124
0.038143 -0.310044 2.325330 75 87 90
0.037903 -0.306374 2.310682 52 68 70
0.037870 -0.304396 2.308692 53 71 74
0.037858 -0.302584 2.307953 63 81 86
0.037808 -0.291906 2.304858 54 72 80
0.037960 -0.291367 2.314169 55 72 80
0.037666 -0.287399 2.296205 54 71 79
0.037777 -0.286537 2.302982 56 73 81
0.037831 -0.285234 2.306275 57 74 82
0.037819 -0.283430 2.305541 58 75 86
0.037604 -0.280118 2.292443 58 75 88
0.036980 -0.273792 2.254380 54 73 87
0.037000 -0.272265 2.255602 49 69 85
0.036969 -0.270366 2.253734 47 69 86
0.037118 -0.269776 2.262828 47 71 89
0.037033 -0.267477 2.257612 40 66 85
0.036910 -0.264919 2.250128 39 65 85
0.036935 -0.263430 2.251682 39 64 84
0.036881 -0.261372 2.248367 41 66 86
0.036896 -0.259805 2.249260 46 71 91
0.036896 -0.258134 2.249260 52 77 97
0.036848 -0.256131 2.246345 59 84 106
0.036879 -0.254677 2.248238 64 89 111
0.036873 -0.252965 2.247862 66 92 115
0.036859 -0.251203 2.247040 58 84 107
0.036851 -0.249478 2.246530 46 70 94
0.036910 -0.248204 2.250109 35 58 82
0.036954 -0.246829 2.252812 29 51 73
0.036950 -0.245132 2.252603 30 50 70
0.036861 -0.242871 2.247159 34 52 73
0.036864 -0.241224 2.247361 38 55 73
0.036877 -0.239636 2.248132 34 51 66
0.036878 -0.237972 2.248179 28 44 57
0.036903 -0.236463 2.249712 20 36 49
0.036912 -0.234850 2.250271 16 32 45
0.036761 -0.232225 2.241066 18 34 47
0.036748 -0.230479 2.240276 24 40 53
0.036937 -0.229991 2.251787 27 43 56
0.036795 -0.227442 2.243141 28 44 57
0.036680 -0.225066 2.236090 29 45 58
0.036565 -0.222708 2.229118 27 43 56
0.036643 -0.221523 2.233865 23 39 52
0.036774 -0.220650 2.241847 20 36 49
0.036903 -0.219753 2.249712 20 36 49
0.037032 -0.218841 2.257550 19 35 48
0.036891 -0.216340 2.248980 17 33 46
0.036842 -0.214386 2.246006 17 31 43
0.036711 -0.211959 2.237992 12 25 34
0.037102 -0.212535 2.261815 10 22 28
0.037164 -0.211209 2.265617 11 20 27
0.037089 -0.209106 2.261066 13 22 29
0.037428 -0.209318 2.281686 15 22 31
0.037607 -0.208618 2.292620 12 19 28
0.037698 -0.207417 2.298181 4 12 18
0.037258 -0.203308 2.271346 0 4 13
0.037137 -0.200969 2.264003 0 3 26
0.037344 -0.200397 2.276606 69 74 106
0.037320 -0.196888 2.275138 241 250 255
0.037075 -0.193915 2.260184 246 254 255
0.037331 -0.191875 2.275815 74 83 82
0.037406 -0.190564 2.280355 68 76 75
0.037507 -0.189382 2.286533 132 136 139
0.037392 -0.187108 2.279524 156 157 163
0.037121 -0.184073 2.263022 157 157 165
0.037111 -0.182340 2.262375 157 157 165
0.037041 -0.180320 2.258128 157 157 164
0.037029 -0.178584 2.257380 155 155 164
0.037060 -0.177056 2.259284 154 153 163
0.037077 -0.175460 2.260342 153 151 163
0.037204 -0.174375 2.268063 154 152 165
0.037277 -0.173030 2.272526 155 153 166
0.037146 -0.170737 2.264504 155 153 166
0.037320 -0.169848 2.275119 155 153 165
0.037288 -0.168016 2.273195 155 153 163
0.037203 -0.165948 2.268014 156 153 162
0.037107 -0.163837 2.262127 156 153 161
0.037057 -0.161941 2.259117 155 153 159
0.037039 -0.160185 2.258012 153 153 156
0.036965 -0.158191 2.253497 150 153 153
0.036731 -0.155525 2.239211 148 152 151
0.036989 -0.154943 2.254953 147 151 150
0.037122 -0.153821 2.263084 146 150 149
0.036944 -0.151407 2.252182 145 149 148
0.036906 -0.149583 2.249905 144 148 147
0.036868 -0.147759 2.247579 143 147 146
0.036803 -0.145830 2.243597 143 147 146
0.036935 -0.139665 2.251673 145 149 148
0.036985 -0.138178 2.254689 146 150 149
0.036951 -0.136380 2.252649 147 151 150
0.037033 -0.135004 2.257623 147 151 150
0.037083 -0.133507 2.260674 148 152 151
0.037146 -0.132051 2.264504 150 154 153
0.037175 -0.130471 2.266270 150 154 153
0.037090 -0.128494 2.261099 150 154 153
0.037013 -0.126553 2.256433 151 155 154
0.037200 -0.125506 2.267810 152 156 155
0.036975 -0.123074 2.254112 153 157 156
0.036854 -0.121003 2.246740 153 157 156
0.036899 -0.119480 2.249490 154 158 157
0.036929 -0.117905 2.251319 155 159 158
0.036925 -0.116218 2.251043 155 159 158
0.036786 -0.114116 2.242596 155 159 159
0.036859 -0.112674 2.247054 155 159 159
0.036804 -0.110839 2.243686 155 159 159
0.036764 -0.109052 2.241214 155 159 159
0.036704 -0.107214 2.237599 155 159 159
0.036405 -0.104693 2.219380 154 158 159
0.036242 -0.102580 2.209393 153 157 158
0.036731 -0.102302 2.239211 152 156 157
0.036920 -0.101158 2.250762 152 156 156
0.036937 -0.099531 2.251787 151 155 155
0.036950 -0.097892 2.252553 151 155 154
0.037030 -0.096429 2.257470 150 154 154
0.037253 -0.095322 2.271043 150 154 154
0.037238 -0.093596 2.270113 150 154 155
0.037338 -0.092159 2.276258 150 154 155
0.037026 -0.089712 2.257220 149 153 153
0.037239 -0.088541 2.270203 147 151 150
0.037393 -0.087215 2.279599 144 149 146
0.037347 -0.085417 2.276804 142 147 142
0.037479 -0.084021 2.284853 140 145 138
0.038086 -0.078484 2.321852 141 137 137
0.037738 -0.076056 2.300596 140 136 137
0.037847 -0.074563 2.307272 140 137 138
0.038026 -0.073195 2.318200 141 140 139
0.037499 -0.067085 2.286022 141 148 148
0.037392 -0.065201 2.279524 144 152 154
0.037513 -0.063714 2.286924 155 162 163
0.037326 -0.046493 2.275468 223 216 219
0.037409 -0.044903 2.280528 225 220 223
0.037318 -0.039725 2.275031 151 152 158
0.037268 -0.037984 2.271989 104 106 114
0.037240 -0.036269 2.270274 64 67 75
0.037216 -0.034560 2.268775 38 41 48
0.037360 -0.033003 2.277586 29 31 36
0.037482 -0.031413 2.285035 42 45 48
0.037624 -0.029828 2.293651 106 110 111
0.032965 0.035066 2.009659 165 177 166
0.032962 0.036555 2.009445 133 145 140
0.032982 0.038071 2.010687 70 84 83
0.033077 0.039678 2.016451 13 26 26
0.033109 0.041216 2.018405 0 10 12
0.033136 0.042750 2.020034 0 16 17
0.033250 0.044403 2.027037 2 22 24
0.033379 0.046086 2.034864 13 33 38
0.033381 0.047601 2.034991 24 45 53
0.033354 0.049073 2.033368 27 49 58
0.033440 0.050713 2.038592 27 48 61
0.033455 0.052251 2.039508 27 49 62
0.033467 0.053785 2.040246 28 50 63
0.033481 0.055324 2.041095 28 50 64
0.033453 0.056792 2.039382 26 50 63
0.033453 0.058307 2.039382 26 51 62
0.033422 0.059767 2.037524 26 52 62
0.033341 0.061132 2.032573 25 51 62
0.033245 0.062461 2.026716 26 52 63
0.033115 0.063716 2.018799 23 49 61
0.032897 0.064785 2.005475 23 50 64
0.032860 0.067690 2.003257 28 53 74
0.032863 0.070671 2.003397 17 39 62
0.032585 0.071549 1.986481 15 35 55
0.032580 0.073014 1.986174 13 31 49
0.032544 0.074406 1.983967 10 28 44
0.032575 0.075951 1.985842 9 26 42
0.032359 0.076914 1.972690 8 26 41
0.032275 0.078175 1.967545 8 27 42
0.032183 0.079411 1.961975 8 27 41
0.032162 0.080814 1.960668 8 27 40
0.032108 0.082132 1.957383 6 27 40
0.031937 0.083142 1.946972 5 27 40
0.031813 0.084259 1.939394 5 28 41
0.031855 0.085813 1.941972 5 29 42
0.031897 0.087371 1.944544 5 29 43
0.031934 0.088918 1.946796 5 31 44
0.032122 0.090895 1.958239 6 33 45
0.032121 0.092347 1.958183 7 34 45
0.032238 0.094144 1.965327 6 30 40
0.032111 0.095226 1.957561 7 28 37
0.031937 0.096156 1.946945 7 28 36
0.031848 0.097332 1.941556 8 28 36
0.031838 0.098741 1.940914 8 28 36
0.031829 0.100155 1.940374 8 27 37
0.031986 0.102098 1.949951 9 27 38
0.031852 0.103112 1.941773 9 27 39
0.031750 0.104220 1.935565 7 26 39
0.031649 0.105322 1.929426 7 24 39
0.031664 0.106806 1.930334 8 23 41
0.031604 0.108034 1.926666 8 23 41
0.031565 0.109330 1.924292 8 23 41
0.031544 0.110687 1.923041 8 23 41
0.031585 0.112260 1.925512 8 23 41
0.031597 0.113734 1.926266 8 23 40
0.031539 0.114954 1.922730 7 24 36
0.031447 0.116043 1.917125 7 24 33
0.031484 0.117605 1.919378 7 24 33
0.031586 0.119414 1.925565 7 24 33
0.031601 0.120900 1.926455 7 24 33
0.031594 0.122305 1.926049 7 24 34
0.031603 0.123772 1.926607 8 24 34
0.031597 0.125181 1.926266 9 24 34
0.031562 0.126470 1.924115 8 22 33
0.031512 0.127697 1.921070 8 22 34
0.031395 0.128642 1.913909 8 22 34
0.031541 0.134956 1.922842 8 21 37
0.031526 0.136317 1.921901 8 21 37
0.031017 0.141139 1.890873 10 21 37
0.031064 0.142759 1.893734 10 21 36
0.031052 0.144112 1.893027 10 21 35
0.031095 0.145718 1.895633 10 21 35
0.031017 0.146756 1.890858 9 20 34
0.031027 0.148211 1.891507 8 19 34
0.031072 0.149832 1.894237 8 19 34
0.031107 0.151409 1.896366 8 19 34
0.031144 0.152999 1.898614 8 19 34
0.031071 0.154049 1.894193 8 19 34
0.030957 0.154882 1.887198 8 19 34
0.030823 0.155609 1.879049 8 19 34
0.030787 0.156821 1.876850 9 19 34
0.030770 0.158127 1.875812 12 19 37
0.030756 0.159450 1.874981 12 19 37
0.030774 0.160937 1.876082 12 19 37
0.030821 0.162578 1.878944 12 19 37
0.030776 0.163733 1.876178 11 19 37
0.030827 0.165403 1.879323 11 20 37
0.030827 0.166797 1.879307 11 20 35
0.030821 0.168161 1.878944 10 20 34
0.031271 0.174861 1.906340 8 20 31
0.030819 0.176525 1.878843 7 21 27
0.030818 0.177914 1.878771 7 21 27
0.030863 0.179568 1.881478 7 21 26
0.030950 0.181475 1.886782 7 20 26
0.031025 0.183320 1.891352 8 20 26
0.031078 0.185041 1.894587 8 20 26
0.030972 0.185813 1.888139 8 20 26
0.031049 0.187684 1.892858 8 20 26
0.031122 0.189530 1.897264 7 20 26
0.031402 0.192656 1.914329 7 20 26
0.031403 0.194088 1.914425 6 20 26
0.031153 0.193952 1.899171 4 19 24
0.031137 0.195261 1.898185 4 19 24
0.031095 0.196405 1.895619 4 19 24
0.031096 0.197821 1.895694 4 19 24
0.031104 0.199280 1.896181 3 19 24
0.031101 0.200668 1.895987 2 19 24
0.031108 0.202126 1.896449 1 20 24
0.031113 0.203564 1.896720 1 19 25
0.031130 0.205086 1.897772 3 18 26
0.031099 0.206288 1.895866 4 17 28
0.031105 0.207737 1.896238 4 17 29
0.031099 0.209109 1.895905 4 17 29
0.031148 0.210845 1.898859 4 17 28
0.031074 0.211749 1.894331 4 18 27
0.031078 0.213185 1.894587 4 18 27
0.031074 0.214564 1.894331 4 18 27
0.031074 0.215971 1.894331 4 17 27
0.031032 0.217091 1.891828 3 17 26
0.031052 0.218630 1.892989 3 17 25
0.039061 -0.325748 2.278127 169 168 173
0.039357 -0.324803 2.295370 156 155 160
0.039325 -0.322838 2.293519 155 154 155
0.039426 -0.321959 2.299405 157 157 155
0.039316 -0.319353 2.292958 160 160 158
0.039361 -0.318018 2.295620 163 163 161
0.039440 -0.316948 2.300230 167 167 165
0.039315 -0.314240 2.292931 164 164 163
0.039271 -0.312188 2.290375 156 157 158
0.039603 -0.313110 2.309726 147 150 152
0.039840 -0.313259 2.323557 132 139 142
0.039584 -0.309533 2.308635 105 115 119
0.039556 -0.307596 2.306969 72 85 90
0.039387 -0.304580 2.297148 54 71 75
0.039489 -0.303655 2.303077 56 75 79
0.039194 -0.299687 2.285855 66 84 90
0.039110 -0.295661 2.280994 73 90 98
0.039139 -0.294180 2.282648 67 84 92
0.039128 -0.289016 2.282032 42 60 69
0.039175 -0.287667 2.284782 43 60 68
0.039099 -0.285412 2.280327 46 62 70
0.039162 -0.284177 2.284011 53 68 77
0.039159 -0.282461 2.283852 56 71 82
0.039226 -0.281245 2.287761 57 73 86
0.039229 -0.279561 2.287886 55 72 86
0.038907 -0.275583 2.269126 52 70 86
0.038776 -0.272975 2.261483 50 69 86
0.038813 -0.271557 2.263661 47 69 88
0.038856 -0.270176 2.266183 46 69 90
0.038801 -0.268110 2.262955 44 69 91
0.038694 -0.265692 2.256693 44 69 90
0.038626 -0.263556 2.252760 45 68 90
0.038604 -0.261728 2.251431 47 70 92
0.038632 -0.260250 2.253112 51 74 96
0.038581 -0.258231 2.250102 55 79 101
0.038608 -0.256741 2.251696 59 84 106
0.038602 -0.255029 2.251343 62 87 109
0.038610 -0.253406 2.251787 65 90 113
0.038555 -0.251381 2.248630 58 83 106
0.038586 -0.249911 2.250429 48 71 95
0.038569 -0.248126 2.249403 38 60 83
0.038588 -0.246576 2.250509 29 50 71
0.038610 -0.245044 2.251787 26 44 64
0.038563 -0.243080 2.249095 24 41 60
0.038496 -0.240986 2.245151 24 41 58
0.038488 -0.239268 2.244676 19 35 49
0.038528 -0.237847 2.247000 18 33 45
0.038362 -0.235164 2.237350 16 31 43
0.038461 -0.234103 2.243109 18 33 45
0.038313 -0.231545 2.234502 21 36 48
0.038279 -0.229677 2.232483 25 40 52
0.038437 -0.228962 2.241715 27 42 54
0.038427 -0.227238 2.241137 28 43 55
0.038313 -0.224906 2.234502 26 41 54
0.038221 -0.222707 2.229108 24 39 51
0.038282 -0.221406 2.232680 21 36 49
0.038362 -0.220208 2.237360 21 36 48
0.038491 -0.219277 2.244840 21 36 49
0.038576 -0.218092 2.249821 21 36 49
0.038533 -0.216178 2.247295 19 35 47
0.038332 -0.213393 2.235605 18 32 43
0.038264 -0.211354 2.231612 12 24 33
0.038388 -0.210380 2.238882 10 21 28
0.038537 -0.209528 2.247579 12 21 28
0.038442 -0.207342 2.241994 15 24 31
0.039542 -0.211565 2.306183 18 25 34
0.039290 -0.206811 2.291466 4 12 18
0.039067 -0.203943 2.278444 0 4 13
0.038760 -0.200665 2.260576 0 5 27
0.038934 -0.199876 2.270695 72 79 109
0.038828 -0.195967 2.264504 240 250 255
0.038748 -0.193887 2.259863 243 254 255
0.039004 -0.191788 2.274782 65 76 77
0.039122 -0.190675 2.281686 64 73 74
0.039168 -0.189201 2.284353 127 133 135
0.038952 -0.186470 2.271742 150 153 156
