ply
format ascii 1.0
element vertex 1319
property float x
property float y
property float z
property uchar red
property uchar green
property uchar blue
end_header
0.030983 -0.132330 2.185755 97 128 161
0.031028 -0.130893 2.188877 90 119 154
0.031304 -0.130419 2.208379 81 109 143
0.030879 -0.125411 2.178384 69 96 126
0.030798 -0.123469 2.172672 67 94 122
0.030651 -0.121272 2.162273 60 87 112
0.030736 -0.119998 2.168287 51 77 100
0.030810 -0.118673 2.173503 45 70 92
0.030856 -0.117233 2.176741 38 61 82
0.030862 -0.115640 2.177201 30 51 71
0.031001 -0.114536 2.186988 28 47 67
0.031296 -0.113987 2.207826 29 47 66
0.031448 -0.112893 2.218561 29 47 64
0.031412 -0.111117 2.216007 29 47 64
0.030611 -0.106679 2.159482 28 47 65
0.030648 -0.105201 2.162079 28 47 66
0.030724 -0.103853 2.167449 28 47 67
0.030816 -0.102550 2.173955 34 48 70
0.030874 -0.101124 2.178025 44 53 79
0.031038 -0.100035 2.189600 50 61 87
0.031090 -0.098574 2.193279 53 68 94
0.030834 -0.096148 2.175249 55 75 101
0.030725 -0.094196 2.167514 59 83 110
0.030752 -0.092668 2.169426 61 89 117
0.030883 -0.091445 2.178672 59 88 120
0.030989 -0.090135 2.186166 48 77 112
0.030540 -0.087228 2.154465 36 63 101
0.030500 -0.085516 2.151664 30 55 94
0.030523 -0.083980 2.153245 22 43 82
0.030602 -0.082594 2.158836 15 34 69
0.030636 -0.081082 2.161260 11 28 59
0.030614 -0.079419 2.159697 10 24 52
0.030727 -0.078102 2.167678 10 24 47
0.030310 -0.075454 2.138252 10 26 41
0.030122 -0.073408 2.124989 5 23 34
0.030006 -0.071552 2.116775 0 18 29
0.030040 -0.070059 2.119172 2 21 34
0.030181 -0.068807 2.129154 12 37 51
0.030025 -0.066878 2.118138 35 65 81
0.029645 -0.064479 2.091369 53 85 103
0.029702 -0.063045 2.095341 46 78 98
0.029709 -0.061504 2.095862 33 60 82
0.029735 -0.060000 2.097684 24 46 70
0.029909 -0.058783 2.109952 13 32 57
0.030131 -0.057641 2.125612 8 27 52
0.030112 -0.056027 2.124305 8 29 54
0.030099 -0.054425 2.123365 8 30 54
0.030199 -0.053024 2.130409 8 29 53
0.030038 -0.051167 2.119049 10 28 54
0.029888 -0.049346 2.108506 10 29 54
0.029748 -0.045996 2.098574 12 32 56
0.029669 -0.044320 2.093024 14 34 59
0.029571 -0.042624 2.086096 16 36 62
0.029633 -0.041161 2.090512 18 38 65
0.030146 -0.038714 2.126657 20 41 68
0.030136 -0.037122 2.125989 20 42 67
0.030125 -0.035530 2.125196 20 42 65
0.029621 -0.033383 2.089626 18 42 64
0.029573 -0.031779 2.086231 16 41 63
0.029431 -0.030085 2.076236 16 40 63
0.029360 -0.028474 2.071237 15 39 63
0.029435 -0.027004 2.076493 14 38 63
0.029487 -0.025507 2.080186 15 38 62
0.029510 -0.023980 2.081784 18 38 62
0.029362 -0.022322 2.071364 20 39 61
0.029272 -0.020720 2.065032 17 37 59
0.029514 -0.019345 2.082125 15 36 57
0.029457 -0.017763 2.078053 14 35 56
0.029628 -0.016314 2.090121 13 34 55
0.029707 -0.014801 2.095743 15 35 55
0.029727 -0.013253 2.097111 17 35 56
0.029760 -0.011708 2.099436 17 34 56
0.029732 -0.010140 2.097476 17 34 55
0.029656 -0.008560 2.092085 16 33 54
0.029609 -0.006995 2.088819 15 33 53
0.029482 -0.005420 2.079826 13 33 52
0.029455 -0.003871 2.077938 11 32 51
0.029483 -0.002330 2.079912 10 32 51
0.029439 -0.000784 2.076834 8 32 51
0.029507 0.000760 2.081568 8 32 56
0.029461 0.002303 2.078329 9 33 60
0.029315 0.003827 2.068070 9 33 59
0.029425 0.005384 2.075810 9 33 58
0.029531 0.006950 2.083263 9 33 56
0.029197 0.008402 2.059764 9 33 56
0.029353 0.009985 2.070705 8 34 54
0.029212 0.011468 2.060822 8 35 53
0.029056 0.012929 2.049761 8 35 51
0.029067 0.014457 2.050593 8 35 50
0.029055 0.017496 2.049702 9 34 50
0.029012 0.018990 2.046662 10 34 50
0.028881 0.020418 2.037472 12 33 50
0.028887 0.021936 2.037860 13 32 50
0.028868 0.023434 2.036529 14 32 51
0.028872 0.024950 2.036798 13 33 54
0.028892 0.026481 2.038184 13 33 56
0.028792 0.027898 2.031169 12 33 55
0.028833 0.029449 2.034053 12 32 54
0.028876 0.031006 2.037111 11 32 53
0.028502 0.036578 2.010722 9 30 49
0.028507 0.038079 2.011087 9 30 49
0.028570 0.039659 2.015501 8 29 46
0.028485 0.041034 2.009504 7 28 45
0.028624 0.042734 2.019308 6 27 44
0.028682 0.044323 2.023384 4 25 42
0.028593 0.045685 2.017131 3 24 41
0.028562 0.047131 2.014910 4 24 39
0.028648 0.048775 2.021004 3 21 34
0.028544 0.050092 2.013632 2 19 30
0.028766 0.051990 2.029305 1 18 28
0.028889 0.053726 2.037988 0 17 27
0.028552 0.054596 2.014235 0 14 25
0.028791 0.056561 2.031093 0 12 23
0.028754 0.057996 2.028502 0 10 22
0.028872 0.059746 2.036817 0 9 21
0.028758 0.061018 2.028795 0 6 19
0.028812 0.062641 2.032544 0 3 18
0.028892 0.065843 2.038217 1 3 15
0.028884 0.067338 2.037632 0 3 13
0.028638 0.068266 2.020325 0 3 11
0.028626 0.069738 2.019472 0 3 9
0.028723 0.071477 2.026266 0 3 8
0.028731 0.073003 2.026842 0 2 8
0.028665 0.074337 2.022186 0 2 9
0.028662 0.075832 2.021975 0 2 9
0.028783 0.077662 2.030557 0 1 8
0.028903 0.082526 2.038960 1 1 7
0.028954 0.084190 2.042575 0 1 6
0.028937 0.085658 2.041398 0 1 6
0.028919 0.087120 2.040127 0 1 6
0.028745 0.088100 2.027818 0 1 6
0.028584 0.089106 2.016487 0 1 6
0.028413 0.090062 2.004438 0 1 5
0.028229 0.090957 1.991436 0 1 5
0.027932 0.094390 1.970473 0 1 5
0.028062 0.096300 1.979645 0 1 6
0.028122 0.097979 1.983863 0 1 6
0.028156 0.099575 1.986297 0 1 6
0.028189 0.101168 1.988625 0 0 6
0.028324 0.103138 1.998175 1 0 6
0.028645 0.105806 2.020785 1 0 6
0.028432 0.106511 2.005785 1 0 6
0.028482 0.108191 2.009325 1 1 6
0.028481 0.109676 2.009189 1 2 7
0.028457 0.111076 2.007513 0 1 8
0.028394 0.112320 2.003102 0 1 9
0.028409 0.113868 2.004168 0 2 9
0.028434 0.115459 2.005937 0 2 9
0.028422 0.116899 2.005079 0 3 9
0.028409 0.118334 2.004168 0 3 9
0.028359 0.119611 2.000619 0 3 11
0.028388 0.121220 2.002651 0 3 12
0.028326 0.122440 1.998292 0 3 12
0.028375 0.124139 2.001752 0 3 12
0.028358 0.125550 2.000551 0 4 13
0.028329 0.126906 1.998498 0 5 13
0.028349 0.128479 1.999883 0 6 14
0.028313 0.129800 1.997350 0 8 14
0.028299 0.131220 1.996387 1 11 17
0.028221 0.132338 1.990899 1 13 19
0.028068 0.133089 1.980059 1 14 20
0.028047 0.134460 1.978603 2 16 22
0.027921 0.135319 1.969708 3 17 25
0.027824 0.136306 1.962857 3 18 27
0.027799 0.137641 1.961096 3 19 30
0.027712 0.138665 1.955002 4 20 32
0.027713 0.140122 1.955073 4 19 31
0.027754 0.141781 1.957926 2 16 29
0.027742 0.143173 1.957071 1 16 29
0.027654 0.144171 1.950909 0 17 29
0.027645 0.145570 1.950236 0 18 29
0.027657 0.147084 1.951101 0 19 30
0.027633 0.148406 1.949433 0 19 31
0.027560 0.149455 1.944239 0 19 32
0.027567 0.150937 1.944728 1 19 32
0.027614 0.152642 1.948062 2 20 34
0.027560 0.153787 1.944239 2 19 33
0.027509 0.154944 1.940647 1 17 32
0.027534 0.156530 1.942437 0 16 31
0.027482 0.157673 1.938755 0 16 32
0.027459 0.158981 1.937148 1 17 33
0.027486 0.160578 1.939050 3 19 34
0.027377 0.161377 1.931372 4 20 34
0.027516 0.163637 1.941164 6 20 31
0.027742 0.166435 1.957118 6 19 30
0.027640 0.168719 1.949912 3 17 28
0.027608 0.171414 1.947621 0 15 24
0.027834 0.175736 1.963582 0 15 20
0.027810 0.177043 1.961910 3 17 19
0.027370 0.177111 1.930870 0 7 5
0.027317 0.178197 1.927107 0 7 3
0.027368 0.179961 1.930676 0 9 3
0.027362 0.181358 1.930281 2 9 4
0.026604 0.181910 1.876807 0 4 16
0.026682 0.185239 1.882304 0 5 14
0.026718 0.186888 1.884832 14 20 27
0.026754 0.188546 1.887420 48 55 59
0.026672 0.189363 1.881603 94 100 103
0.026653 0.190626 1.880279 130 137 136
0.026572 0.191435 1.874522 150 156 153
0.026433 0.191818 1.864710 143 150 143
0.026497 0.193674 1.869256 125 133 123
0.026542 0.195397 1.872467 110 120 107
0.026425 0.195919 1.864198 110 121 105
0.026472 0.197656 1.867530 120 132 113
0.026471 0.199033 1.867429 123 137 115
0.026423 0.200058 1.864059 118 131 107
0.026432 0.201510 1.864679 117 124 102
0.026419 0.202796 1.863774 107 108 87
0.026490 0.204727 1.868760 83 84 64
0.026479 0.206031 1.868002 68 71 50
0.026328 0.206235 1.857335 68 72 51
0.026450 0.208577 1.865948 80 86 64
0.026403 0.209586 1.862597 109 117 94
0.026448 0.211335 1.865829 148 157 133
0.026480 0.212976 1.868068 172 184 158
0.026403 0.213742 1.862650 174 187 162
0.026437 0.215403 1.865050 172 185 160
0.035909 -0.328103 2.407139 168 167 172
0.035704 -0.317335 2.393347 171 166 164
0.036214 -0.320072 2.427585 155 151 152
0.035955 -0.312409 2.410205 117 131 149
0.035211 -0.291918 2.360317 36 58 76
0.035459 -0.292211 2.376966 46 67 86
0.035501 -0.290785 2.379741 57 79 99
0.035562 -0.289517 2.383855 65 90 110
0.035469 -0.286996 2.377637 70 94 116
0.034795 -0.276344 2.332449 64 91 120
0.035504 -0.276667 2.379941 57 81 107
0.035598 -0.275629 2.386261 58 80 104
0.035297 -0.271539 2.366062 56 76 101
0.035084 -0.268154 2.351788 55 72 98
0.034768 -0.264010 2.330631 52 69 95
0.034744 -0.262100 2.329040 50 69 97
0.034715 -0.260150 2.327070 43 62 91
0.034785 -0.258940 2.331736 39 60 90
0.034873 -0.257862 2.337668 42 62 94
0.033590 -0.246699 2.251631 43 62 94
0.033265 -0.239346 2.229872 34 54 81
0.033176 -0.237054 2.223903 29 46 68
0.033253 -0.235949 2.229068 31 47 66
0.033171 -0.233713 2.223546 27 44 60
0.033164 -0.232017 2.223124 16 33 48
0.033231 -0.230827 2.227574 12 29 42
0.033169 -0.228747 2.223439 17 35 46
0.033209 -0.227366 2.226089 20 37 47
0.033221 -0.225795 2.226901 16 32 42
0.033135 -0.223562 2.221149 17 32 44
0.033159 -0.222074 2.222770 18 32 45
0.033024 -0.219527 2.213736 18 32 45
0.032900 -0.217059 2.205371 17 32 44
0.032832 -0.214978 2.200830 17 33 44
0.032879 -0.213651 2.204006 17 33 44
0.032873 -0.211977 2.203617 16 33 44
0.033019 -0.211272 2.213382 15 33 44
0.033023 -0.209654 2.213662 17 34 45
0.033207 -0.209165 2.225951 17 33 46
0.033215 -0.207565 2.226523 17 33 46
0.033168 -0.205618 2.223360 17 33 46
0.033032 -0.203129 2.214230 17 33 46
0.033092 -0.201854 2.218289 17 34 45
0.033274 -0.201308 2.230492 17 34 45
0.033326 -0.199961 2.233958 17 34 45
0.033364 -0.198531 2.236535 17 34 45
0.033308 -0.196539 2.232776 17 34 45
0.033174 -0.194094 2.223772 17 33 44
0.033163 -0.192377 2.223018 16 33 43
0.033167 -0.190752 2.223318 15 32 42
0.033192 -0.189244 2.225010 14 31 41
0.033318 -0.188304 2.233455 13 30 40
0.033669 -0.186932 2.256951 12 28 40
0.033751 -0.185708 2.262460 11 27 40
0.033627 -0.183348 2.254112 12 28 41
0.033610 -0.181585 2.253011 12 28 41
0.033508 -0.179366 2.246180 10 26 39
0.033558 -0.177960 2.249490 8 24 37
0.033625 -0.176644 2.254020 5 21 34
0.033622 -0.174955 2.253828 3 19 32
0.033554 -0.172929 2.249260 3 19 32
0.033503 -0.170996 2.245812 4 19 32
0.033492 -0.169273 2.245080 3 17 29
0.033609 -0.168189 2.252903 2 16 25
0.033688 -0.166912 2.258257 2 13 22
0.033709 -0.165334 2.259617 1 12 19
0.033709 -0.163655 2.259617 0 10 15
0.033751 -0.162179 2.262432 0 7 13
0.033578 -0.159678 2.250862 2 6 15
0.033391 -0.157123 2.238285 3 5 16
0.033020 -0.153735 2.213444 2 4 14
0.032844 -0.151282 2.201678 1 5 13
0.032908 -0.149937 2.205949 0 3 12
0.033265 -0.149907 2.229872 6 15 27
0.033245 -0.148163 2.228544 47 66 83
0.033136 -0.146027 2.221246 114 137 161
0.032490 -0.141561 2.177911 143 172 199
0.032755 -0.141086 2.195700 135 168 197
0.033111 -0.140970 2.219550 123 158 188
0.032890 -0.138392 2.204736 112 149 177
0.033219 -0.138121 2.226776 104 140 169
0.032532 -0.133647 2.180753 99 134 163
0.032564 -0.132156 2.182882 97 129 159
0.032632 -0.130805 2.187416 93 123 156
0.032798 -0.129838 2.198540 88 116 151
0.032754 -0.128034 2.195614 83 108 146
0.032314 -0.123098 2.166145 70 96 129
0.032285 -0.121378 2.164177 65 92 121
0.032316 -0.119885 2.166241 60 86 112
0.032454 -0.118783 2.175519 53 79 102
0.032377 -0.116889 2.170366 46 69 91
0.032507 -0.115740 2.179080 38 60 80
0.032525 -0.114183 2.180254 35 54 74
0.032640 -0.112962 2.187970 33 52 71
0.032846 -0.112040 2.201788 31 49 68
0.032764 -0.110128 2.196282 29 47 66
0.032854 -0.108795 2.202314 29 47 67
0.032816 -0.107036 2.199785 29 48 68
0.032369 -0.103966 2.169811 29 49 70
0.032394 -0.102433 2.171484 33 50 73
0.032450 -0.100994 2.175232 38 54 77
0.032462 -0.099415 2.176019 44 62 86
0.032513 -0.097955 2.179494 50 71 95
0.032460 -0.096178 2.175931 53 76 101
0.032152 -0.093663 2.155251 56 81 108
0.032252 -0.092348 2.161940 59 86 115
0.032378 -0.091099 2.170442 57 87 117
0.032332 -0.089358 2.167323 45 75 106
0.032462 -0.088101 2.176019 32 60 92
0.032021 -0.085312 2.146508 26 52 83
0.031984 -0.083620 2.144021 19 41 72
0.032048 -0.082191 2.148284 13 33 61
0.032086 -0.080691 2.150840 11 27 53
0.032085 -0.079090 2.150748 10 25 48
0.031957 -0.077185 2.142210 11 24 43
0.031711 -0.075011 2.125710 11 25 39
0.031505 -0.072955 2.111888 7 23 32
0.031549 -0.071487 2.114864 2 19 29
0.031552 -0.069923 2.115070 6 24 37
0.031663 -0.068591 2.122475 20 43 59
0.031406 -0.066471 2.105252 45 72 90
0.031260 -0.064605 2.095440 58 88 108
0.031239 -0.063006 2.094029 45 74 95
0.031377 -0.061724 2.103334 29 54 77
0.031416 -0.060235 2.105922 21 42 67
0.031520 -0.058865 2.112885 12 31 56
0.031568 -0.057382 2.116088 11 29 53
0.031642 -0.055943 2.121090 11 30 54
0.031796 -0.054631 2.131368 8 29 52
0.031596 -0.052715 2.118004 6 27 51
0.031627 -0.051192 2.120094 9 29 54
0.031457 -0.049350 2.108651 10 30 54
0.031409 -0.047710 2.105424 10 30 54
0.031368 -0.046087 2.102701 12 32 56
0.031443 -0.044632 2.107767 14 34 59
0.031277 -0.042839 2.096623 16 36 61
0.031377 -0.041414 2.103334 18 38 63
0.031479 -0.039980 2.110120 19 40 65
0.031540 -0.038487 2.114228 20 42 66
0.031555 -0.036935 2.115272 20 42 66
0.031520 -0.035324 2.112885 19 41 65
0.031400 -0.033627 2.104869 18 41 64
0.031094 -0.031751 2.084344 17 41 63
0.030982 -0.030094 2.076834 15 40 62
0.031329 -0.028871 2.100117 15 39 62
0.031349 -0.027328 2.101402 14 38 62
0.031246 -0.025683 2.094514 15 38 62
0.031086 -0.024004 2.083835 18 39 63
0.030925 -0.022340 2.073045 20 39 62
0.030907 -0.020788 2.071811 18 38 59
0.030898 -0.019243 2.071222 15 36 57
0.030956 -0.017738 2.075072 14 35 56
0.031078 -0.016260 2.083241 14 35 56
0.031114 -0.014730 2.085708 15 35 55
0.031124 -0.013185 2.086369 17 35 55
0.031194 -0.011662 2.091038 18 35 55
0.031235 -0.010122 2.093780 18 35 55
0.031167 -0.008548 2.089201 17 34 54
0.031092 -0.006979 2.084184 16 33 53
0.031122 -0.005436 2.086231 13 33 52
0.031070 -0.003880 2.082750 11 32 51
0.031009 -0.002329 2.078629 10 32 51
0.031120 -0.000788 2.086096 9 31 51
0.030991 0.000759 2.077424 9 32 55
0.030843 0.002291 2.067507 9 33 59
0.030848 0.003827 2.067851 9 33 58
0.030982 0.005386 2.076834 9 33 58
0.030870 0.006904 2.069331 9 33 57
0.030791 0.008419 2.064005 9 33 56
0.030854 0.009973 2.068264 8 34 54
0.030712 0.011456 2.058760 8 34 54
0.030428 0.012865 2.039675 8 35 52
0.030633 0.014477 2.053435 8 35 51
0.030711 0.016043 2.058644 8 35 50
0.030719 0.017577 2.059189 10 34 50
0.030496 0.018968 2.044254 11 33 50
0.030341 0.020382 2.033853 13 33 50
0.030300 0.021863 2.031124 14 32 50
0.030321 0.023388 2.032507 14 32 51
0.030263 0.024850 2.028623 15 33 54
0.030271 0.026363 2.029162 13 33 56
0.030258 0.027859 2.028306 13 33 57
0.030230 0.029339 2.026452 12 32 56
0.030255 0.030869 2.028129 11 32 53
0.030251 0.032371 2.027818 11 32 52
0.030139 0.033752 2.020325 10 31 52
0.030097 0.035203 2.017505 10 30 51
0.030026 0.036615 2.012756 9 30 49
0.030056 0.038148 2.014742 8 29 48
0.029986 0.039552 2.010057 7 28 45
0.030054 0.041138 2.014617 5 26 43
0.030166 0.042794 2.022114 4 25 42
0.030106 0.044208 2.018118 2 23 40
0.030078 0.045664 2.016222 1 22 39
0.029978 0.047005 2.009549 1 21 37
0.030019 0.048564 2.012270 1 18 31
0.030135 0.050252 2.020034 1 16 28
0.030074 0.051648 2.015972 1 16 25
0.030163 0.053302 2.021922 0 14 24
0.030180 0.054835 2.023073 0 12 22
0.030145 0.056272 2.020695 0 11 20
0.030126 0.057738 2.019483 0 9 20
0.030136 0.059256 2.020090 0 7 20
0.030200 0.060886 2.024405 0 5 18
0.030106 0.062196 2.018135 0 3 18
0.030040 0.063555 2.013674 0 2 16
0.030048 0.065068 2.014235 1 1 15
0.030154 0.066798 2.021299 1 2 13
0.030145 0.068279 2.020695 1 2 11
0.030113 0.069706 2.018558 0 3 9
0.030065 0.071093 2.015382 0 2 7
0.030160 0.072819 2.021719 0 2 8
0.030033 0.074007 2.013189 0 2 9
0.029976 0.075360 2.009391 0 1 9
0.030042 0.077021 2.013805 0 1 9
0.030124 0.078731 2.019308 0 1 9
0.030081 0.080117 2.016426 1 1 9
0.030175 0.081870 2.022743 1 1 7
0.030282 0.083668 2.029924 0 1 6
0.030178 0.084883 2.022946 0 1 6
0.030069 0.086074 2.015632 0 1 6
0.030090 0.087633 2.017063 0 1 5
0.030014 0.088904 2.011925 0 1 5
0.029924 0.090130 2.005937 0 1 5
0.030111 0.092191 2.018445 0 1 5
0.030077 0.093584 2.016165 0 1 5
0.029590 0.096487 1.983489 0 1 6
0.029738 0.098452 1.993437 0 1 6
0.029807 0.100164 1.998064 0 1 6
0.029894 0.103434 2.003911 1 0 6
0.030040 0.105436 2.013703 0 0 6
0.030086 0.107094 2.016768 0 0 6
0.030048 0.108456 2.014235 0 1 6
0.030091 0.110110 2.017131 1 2 7
0.030101 0.111643 2.017761 0 2 9
0.030070 0.113027 2.015709 0 3 10
0.029852 0.113692 2.001064 0 4 10
0.029879 0.115285 2.002916 0 4 10
0.029846 0.116642 2.000679 0 6 12
0.029825 0.118044 1.999262 0 6 13
0.029814 0.119484 1.998507 0 6 15
0.029810 0.120952 1.998237 0 7 17
0.029796 0.122380 1.997311 0 7 18
0.029762 0.123725 1.995086 0 7 18
0.029767 0.125225 1.995367 0 9 19
0.029697 0.126411 1.990705 0 10 20
0.029613 0.127529 1.985086 0 11 20
0.029539 0.128678 1.980078 0 12 19
0.029475 0.129868 1.975806 1 13 19
0.029456 0.131252 1.974558 1 15 21
0.029307 0.132046 1.964550 2 17 23
0.029271 0.133344 1.962170 3 19 27
0.029208 0.134511 1.957945 4 21 29
0.029113 0.135521 1.951556 4 21 32
0.029187 0.137320 1.956526 4 21 34
0.029105 0.138381 1.951004 3 21 35
0.029010 0.139374 1.944632 3 19 33
0.028970 0.140625 1.941962 3 18 31
0.028902 0.141734 1.937399 2 18 31
0.028851 0.142920 1.933978 1 19 31
0.028838 0.144289 1.933080 1 19 31
0.028841 0.145740 1.933281 0 20 31
0.028844 0.147193 1.933504 1 21 33
0.028774 0.148272 1.928850 1 20 34
0.028795 0.149813 1.930250 2 20 34
0.028851 0.151539 1.933978 4 22 36
0.028878 0.153117 1.935764 3 20 34
0.028877 0.154553 1.935746 2 18 33
0.028831 0.155741 1.932643 1 17 32
0.028770 0.156845 1.928571 1 17 33
0.028752 0.158178 1.927353 3 19 35
0.028780 0.159763 1.929207 4 20 36
0.028809 0.161362 1.931202 5 21 35
0.028962 0.163660 1.941445 6 20 30
0.029076 0.165753 1.949093 5 20 27
0.029061 0.167115 1.948093 4 18 25
0.029021 0.168329 1.945401 2 16 23
0.029011 0.169713 1.944701 0 15 22
0.029105 0.173161 1.951004 0 11 20
0.029083 0.174479 1.949538 0 11 19
0.028705 0.176497 1.924175 0 4 9
0.028686 0.177809 1.922907 0 4 8
0.028671 0.179145 1.921926 0 6 7
0.028661 0.180508 1.921231 2 8 7
0.028650 0.181867 1.920514 1 7 3
0.028200 0.186033 1.890370 0 3 15
0.028137 0.187017 1.886133 0 2 11
0.028129 0.188365 1.885610 7 11 18
0.028109 0.189628 1.884242 30 37 43
0.027992 0.190231 1.876379 56 66 69
0.027873 0.190815 1.868455 112 122 123
0.027919 0.192517 1.871502 133 144 143
0.027904 0.193804 1.870508 137 150 144
0.027902 0.195178 1.870362 129 142 133
0.027888 0.196466 1.869401 117 131 117
0.027901 0.197951 1.870312 112 125 108
0.027783 0.198493 1.862365 111 125 103
0.027838 0.200278 1.866108 112 123 100
0.027802 0.201400 1.863660 121 125 101
0.027865 0.203247 1.867911 125 123 100
0.027840 0.204448 1.866209 116 113 91
0.027869 0.206047 1.868139 98 97 75
0.027879 0.207511 1.868832 72 73 52
0.027757 0.207986 1.860663 52 55 34
0.027799 0.209681 1.863446 59 64 42
0.027848 0.211440 1.866755 89 98 74
0.027822 0.212626 1.864991 128 139 115
0.027888 0.214523 1.869453 160 173 148
0.027823 0.215403 1.865050 173 185 161
0.036701 -0.324653 2.343510 170 169 175
0.036962 -0.325207 2.360163 153 152 158
0.037309 -0.326496 2.382363 162 160 165
0.037375 -0.316437 2.386576 165 161 162
0.037672 -0.317165 2.405538 149 147 150
0.038138 -0.319274 2.435257 133 136 147
0.037385 -0.309426 2.387192 106 118 137
0.036914 -0.289770 2.357112 76 98 120
0.037054 -0.289113 2.366062 84 106 129
0.037191 -0.288417 2.374804 84 108 131
0.036919 -0.284554 2.357406 80 104 129
0.036622 -0.278793 2.338463 68 94 122
0.036966 -0.274397 2.360413 53 75 102
0.036805 -0.269716 2.350176 54 74 99
0.036091 -0.261056 2.304552 54 71 98
0.036121 -0.259561 2.306478 52 71 100
0.036128 -0.257896 2.306912 42 61 91
0.036191 -0.256632 2.310960 36 57 88
0.035006 -0.244909 2.235288 42 62 94
0.035146 -0.244221 2.244225 39 60 91
0.035167 -0.242697 2.245548 34 54 85
0.035028 -0.240077 2.236677 33 52 80
0.035015 -0.238327 2.235850 19 37 60
0.034910 -0.235960 2.229178 20 38 57
0.034939 -0.234499 2.231029 17 34 51
0.034853 -0.232269 2.225539 9 27 42
0.034966 -0.231361 2.232727 9 27 40
0.034895 -0.229236 2.228196 17 35 47
0.034993 -0.228221 2.234458 20 37 47
0.034963 -0.226367 2.232545 14 31 41
0.034928 -0.224481 2.230285 17 34 46
0.034824 -0.222166 2.223688 19 35 48
0.034631 -0.219289 2.211333 18 34 47
0.034554 -0.217162 2.206409 18 34 47
0.034566 -0.215601 2.207206 17 33 46
0.034613 -0.214252 2.210205 16 32 45
0.034695 -0.213109 2.215395 15 33 45
0.034650 -0.211193 2.212561 14 32 44
0.034756 -0.210188 2.219300 15 32 45
0.034778 -0.208672 2.220707 16 32 45
0.034815 -0.207245 2.223093 16 32 45
0.034743 -0.205168 2.218494 16 32 45
0.034699 -0.203264 2.215701 16 32 45
0.034668 -0.201434 2.213675 16 32 45
0.034868 -0.200942 2.226441 16 32 45
0.034941 -0.199708 2.231129 16 32 45
0.034920 -0.197933 2.229803 15 31 44
0.034902 -0.196174 2.228632 15 31 44
0.034802 -0.193962 2.222260 15 31 44
0.034804 -0.192323 2.222396 15 31 44
0.034698 -0.190089 2.215590 14 30 43
0.034798 -0.188991 2.222029 13 29 42
0.034909 -0.187934 2.229068 12 28 41
0.034979 -0.186655 2.233578 11 27 40
0.035229 -0.186314 2.249490 11 27 40
0.035301 -0.185021 2.254088 11 27 40
0.035199 -0.182817 2.247579 11 27 40
0.035117 -0.180725 2.242342 11 27 40
0.035025 -0.178594 2.236511 10 27 39
0.035115 -0.175719 2.242217 4 22 34
0.035160 -0.174278 2.245111 2 20 32
0.035264 -0.173124 2.251787 3 20 32
0.035217 -0.171222 2.248780 3 19 32
0.035146 -0.169208 2.244225 3 17 29
0.035059 -0.167127 2.238679 1 15 25
0.035298 -0.166592 2.253936 0 13 22
0.035258 -0.164729 2.251351 0 12 18
0.035344 -0.163455 2.256856 0 10 14
0.035464 -0.162327 2.264504 0 7 12
0.035205 -0.159472 2.247970 2 6 15
0.034937 -0.156605 2.230906 2 4 17
0.034673 -0.153776 2.214033 0 2 14
0.034558 -0.151627 2.206698 0 3 13
0.034434 -0.149449 2.198762 0 5 14
0.034780 -0.149300 2.220837 12 24 36
0.034900 -0.148163 2.228544 63 83 101
0.034547 -0.145022 2.205949 129 153 178
0.034379 -0.142686 2.195221 144 174 204
0.034355 -0.140958 2.193707 127 161 194
0.034639 -0.140482 2.211860 117 154 186
0.034458 -0.138113 2.200300 107 145 176
0.034023 -0.133140 2.172482 97 133 161
0.034329 -0.132713 2.192080 96 128 157
0.034420 -0.131430 2.197866 94 124 156
0.034310 -0.129382 2.190828 93 120 157
0.034326 -0.127816 2.191880 89 114 155
0.034415 -0.126515 2.197559 81 105 147
0.034247 -0.124271 2.186799 74 100 136
0.033965 -0.121637 2.168793 71 97 129
0.033967 -0.120035 2.168957 67 94 121
0.033989 -0.118499 2.170316 61 88 111
0.034081 -0.117203 2.176195 54 79 100
0.033988 -0.115273 2.170278 48 71 90
0.034016 -0.113755 2.172090 44 65 84
0.034172 -0.112655 2.182031 40 60 79
0.033992 -0.110449 2.170522 34 54 73
0.034183 -0.109450 2.182753 30 50 69
0.034356 -0.108374 2.193791 28 48 69
0.034392 -0.106857 2.196100 29 49 70
0.033910 -0.103749 2.165276 29 50 71
0.034011 -0.102444 2.171715 31 54 74
0.034058 -0.100973 2.174774 32 58 77
0.034107 -0.099500 2.177884 38 65 85
0.034094 -0.097844 2.177032 49 76 98
0.033931 -0.095766 2.166613 53 80 105
0.033795 -0.093782 2.157975 53 80 108
0.033882 -0.092416 2.163536 55 84 112
0.033800 -0.090587 2.158251 54 84 112
0.033885 -0.089209 2.163690 43 73 100
0.033971 -0.087825 2.169218 31 60 85
0.034009 -0.086310 2.171642 24 51 73
0.033600 -0.083677 2.145487 17 41 61
0.033528 -0.081908 2.140905 13 34 51
0.033677 -0.080674 2.150399 11 28 44
0.033414 -0.078460 2.133608 9 23 39
0.033359 -0.076748 2.130098 9 18 34
0.033106 -0.074597 2.113951 4 14 26
0.033190 -0.073211 2.119312 1 12 21
0.033094 -0.071431 2.113202 5 18 29
0.033163 -0.070006 2.117573 17 32 48
0.033205 -0.068519 2.120252 36 56 76
0.032795 -0.066119 2.094121 53 75 100
0.032782 -0.064538 2.093269 52 77 103
0.032794 -0.063005 2.094007 37 61 89
0.032848 -0.061552 2.097476 21 43 71
0.032948 -0.060176 2.103859 15 35 60
0.033065 -0.058822 2.111336 14 33 56
0.033125 -0.057358 2.115180 12 30 52
0.033289 -0.056064 2.125674 9 29 50
0.033310 -0.054518 2.126961 8 29 50
0.033274 -0.052881 2.124670 7 28 51
0.033132 -0.051085 2.115645 7 29 52
0.032942 -0.049228 2.103467 8 28 52
0.032857 -0.047544 2.098086 8 28 52
0.032988 -0.046169 2.106449 8 28 52
0.032934 -0.044531 2.102977 10 30 54
0.032832 -0.042836 2.096484 12 32 56
0.033000 -0.041490 2.107205 14 34 59
0.033065 -0.040003 2.111325 16 36 61
0.033221 -0.038616 2.121308 17 37 61
0.033159 -0.036971 2.117328 16 37 61
0.033065 -0.035298 2.111325 15 36 60
0.032793 -0.033452 2.093960 15 36 60
0.032655 -0.031763 2.085142 15 36 59
0.032735 -0.030288 2.090239 15 37 58
0.032720 -0.028722 2.089296 15 36 59
0.032764 -0.027207 2.092103 14 35 59
0.032766 -0.025654 2.092216 15 35 59
0.032518 -0.023918 2.076412 15 36 59
0.032365 -0.022271 2.066628 16 36 58
0.032295 -0.020691 2.062147 16 36 57
0.032311 -0.019168 2.063173 15 36 57
0.032369 -0.017668 2.066911 15 36 57
0.032417 -0.016156 2.069942 15 36 57
0.032429 -0.014625 2.070756 16 37 57
0.032439 -0.013091 2.071384 17 37 58
0.032514 -0.011579 2.076182 16 36 57
0.032598 -0.010062 2.081496 17 35 56
0.032454 -0.008479 2.072315 16 34 55
0.032488 -0.006947 2.074511 15 34 55
0.032575 -0.005420 2.080026 13 34 54
0.032413 -0.003856 2.069687 12 33 53
0.032660 -0.002336 2.085476 11 33 52
0.032559 -0.000785 2.079024 9 31 52
0.032299 0.000753 2.062419 8 32 54
0.032279 0.002284 2.061154 8 32 56
0.032315 0.003819 2.063439 8 32 56
0.032415 0.005368 2.069833 8 33 56
0.032235 0.006867 2.058354 8 33 55
0.032182 0.008382 2.054971 9 34 55
0.032177 0.009907 2.054662 9 34 55
0.031920 0.011342 2.038199 9 34 55
0.031734 0.012781 2.026341 8 34 53
0.031794 0.014313 2.030171 8 34 52
0.031966 0.015907 2.041171 9 34 52
0.031957 0.017418 2.040596 10 33 52
0.031638 0.018745 2.020250 11 32 52
0.031700 0.020285 2.024156 12 32 52
0.031869 0.021904 2.034950 13 32 53
0.031823 0.023382 2.032027 13 32 52
0.031875 0.024932 2.035334 13 34 54
0.031893 0.026459 2.036524 13 34 56
0.031850 0.027934 2.033740 13 33 56
0.031742 0.029345 2.026875 12 32 54
0.031878 0.030982 2.035522 11 32 53
0.031657 0.032268 2.021404 11 31 51
0.031496 0.033599 2.011148 10 30 49
0.031518 0.035117 2.012551 11 29 49
0.031532 0.036628 2.013427 10 28 48
0.031453 0.038029 2.008434 9 27 47
0.031504 0.039584 2.011663 8 26 44
0.031528 0.041109 2.013185 6 25 42
0.031587 0.042684 2.016937 5 24 41
0.031544 0.044123 2.014235 3 22 39
0.031462 0.045500 2.008970 2 21 38
0.031434 0.046950 2.007164 1 19 35
0.031511 0.048561 2.012135 2 17 31
0.031501 0.050038 2.011467 2 15 27
0.031544 0.051603 2.014235 2 15 24
0.031594 0.053184 2.017436 1 14 23
0.031554 0.054613 2.014868 0 12 21
0.031645 0.056270 2.020647 0 10 19
0.031507 0.057519 2.011837 0 7 18
0.031618 0.059222 2.018953 0 5 17
0.031487 0.060470 2.010563 0 4 16
0.031465 0.061921 2.009189 0 2 15
0.031457 0.063396 2.008654 1 2 14
0.031465 0.064905 2.009189 1 1 13
0.031516 0.066504 2.012398 1 1 11
0.031615 0.068213 2.018743 1 2 9
0.031492 0.069441 2.010869 0 2 8
0.031459 0.070860 2.008770 0 2 7
0.031619 0.072721 2.019009 0 2 7
0.031565 0.074095 2.015586 0 1 8
0.031447 0.075308 2.008028 0 1 9
0.031476 0.076871 2.009876 0 0 8
0.031492 0.078402 2.010869 0 0 8
0.031489 0.079889 2.010691 0 1 8
0.031476 0.081348 2.009856 1 1 7
0.031544 0.083022 2.014235 0 1 6
0.031525 0.084467 2.013032 0 1 6
0.031471 0.085813 2.009534 0 1 6
0.031427 0.087183 2.006715 0 1 5
0.031401 0.088601 2.005058 0 1 5
0.031417 0.090138 2.006121 0 1 5
0.031379 0.091516 2.003675 0 1 5
0.031360 0.092948 2.002468 0 1 5
0.031384 0.094507 2.003979 0 1 5
0.031259 0.095614 1.996005 0 1 5
0.031153 0.096768 1.989253 0 1 5
0.031188 0.098355 1.991467 0 1 5
0.031207 0.101374 1.992675 0 0 6
0.031343 0.104791 2.001400 0 0 6
0.031347 0.106290 2.001617 0 1 6
0.031376 0.107878 2.003500 0 2 7
0.031315 0.109154 1.999624 1 3 8
0.031326 0.110676 2.000291 1 4 10
0.031330 0.112177 2.000551 0 4 11
0.031272 0.113452 1.996848 0 6 12
0.031231 0.114783 1.994200 1 7 13
0.031123 0.115863 1.987324 2 9 15
0.031062 0.117110 1.983438 2 11 17
0.031041 0.118501 1.982067 0 10 19
0.031032 0.119941 1.981529 0 10 22
0.030983 0.121221 1.978401 0 11 23
0.030949 0.122554 1.976200 0 12 24
0.030944 0.124005 1.975935 1 13 25
0.030928 0.125408 1.974912 2 15 25
0.030908 0.126793 1.973633 2 16 25
0.030753 0.127612 1.963679 3 17 25
0.030680 0.128768 1.959071 2 17 24
0.030634 0.130026 1.956112 2 17 24
0.030580 0.131245 1.952634 3 19 27
0.030586 0.132721 1.953015 4 22 29
0.030482 0.133718 1.946402 5 23 33
0.030463 0.135081 1.945209 5 23 35
0.030443 0.136435 1.943925 4 21 36
0.030346 0.137441 1.937751 3 20 36
0.030319 0.138757 1.936025 3 20 35
0.030230 0.139779 1.930281 4 20 34
0.030177 0.140969 1.926950 3 20 32
0.030047 0.141784 1.918609 2 20 32
0.030034 0.143147 1.917779 2 21 33
0.030042 0.144613 1.918326 2 21 34
0.030087 0.147683 1.921198 2 21 35
0.030042 0.148884 1.918280 3 22 36
0.030131 0.150755 1.923970 5 23 37
0.030218 0.152623 1.929527 4 21 36
0.030222 0.154079 1.929813 3 19 34
0.030318 0.156004 1.935909 2 18 34
0.030355 0.157633 1.938263 2 18 34
0.030260 0.158579 1.932240 4 20 36
0.030225 0.159828 1.929997 5 21 37
0.030270 0.161504 1.932897 6 22 35
0.030386 0.163560 1.940259 5 21 29
0.030426 0.166665 1.942848 3 18 21
0.030401 0.167966 1.941211 1 16 19
0.030427 0.170995 1.942865 0 10 16
0.030456 0.172607 1.944763 0 8 17
0.030182 0.176781 1.927276 0 2 16
0.029357 0.187264 1.874587 0 3 12
0.029442 0.189199 1.879976 0 8 17
0.029423 0.190473 1.878771 5 15 24
0.029260 0.190806 1.868364 41 54 61
0.029264 0.192221 1.868631 83 98 102
0.029303 0.193869 1.871135 126 142 142
0.029340 0.195502 1.873473 142 159 154
0.029273 0.196443 1.869178 127 143 132
0.029270 0.197814 1.869018 109 124 107
0.029268 0.199185 1.868857 105 119 98
0.029091 0.199363 1.857577 112 123 99
0.029193 0.201447 1.864094 119 121 95
0.029191 0.202814 1.863938 127 123 96
0.029159 0.203978 1.861927 132 127 102
0.029214 0.205748 1.865434 125 122 98
0.029164 0.206781 1.862253 103 102 81
0.029182 0.208289 1.863370 76 77 57
0.029172 0.209600 1.862726 56 61 41
0.029058 0.210161 1.855462 52 58 37
0.029146 0.212185 1.861125 72 81 60
0.029148 0.213580 1.861236 112 123 100
0.029153 0.215001 1.861569 143 155 131
0.038308 -0.323524 2.335366 159 157 164
0.038524 -0.323601 2.348508 148 146 152
0.038789 -0.324071 2.364666 163 161 165
0.039039 -0.319093 2.379941 169 167 169
0.038972 -0.316776 2.375824 166 164 167
0.039071 -0.315812 2.381862 158 156 160
0.039515 -0.317611 2.408926 142 143 150
0.039643 -0.316847 2.416744 124 130 143
0.038860 -0.307073 2.369033 85 98 117
0.038299 -0.287031 2.334832 89 111 134
0.038537 -0.287070 2.349342 93 115 140
0.038639 -0.286078 2.355545 87 111 137
0.038305 -0.281868 2.335156 79 103 131
0.038402 -0.280844 2.341081 73 98 125
0.038359 -0.278793 2.338463 68 93 123
0.038466 -0.272604 2.344986 48 71 98
0.038270 -0.267747 2.333020 54 74 99
0.037457 -0.258669 2.283478 56 73 100
0.037420 -0.255028 2.281253 39 58 88
0.036932 -0.246682 2.251478 41 62 92
0.036663 -0.243222 2.235051 40 61 91
0.036664 -0.241572 2.235143 37 56 86
0.036769 -0.240596 2.241517 34 54 82
0.036571 -0.237647 2.229467 31 49 72
0.036557 -0.235899 2.228602 30 47 66
0.036559 -0.234255 2.228710 21 38 55
0.036533 -0.232438 2.227162 10 27 43
0.036601 -0.231213 2.231300 10 28 41
0.036512 -0.228998 2.225880 18 36 48
0.036577 -0.227748 2.229831 20 37 47
0.036627 -0.226404 2.232904 12 29 39
0.036611 -0.224644 2.231905 19 35 47
0.036570 -0.222736 2.229395 21 37 50
0.036288 -0.219375 2.212199 20 36 49
0.036277 -0.217666 2.211537 18 34 47
0.036232 -0.215757 2.208803 17 33 46
0.036238 -0.214153 2.209185 15 31 44
0.036236 -0.212500 2.209055 14 31 43
0.036325 -0.211376 2.214477 13 31 43
0.036304 -0.209608 2.213173 13 30 43
0.036325 -0.208087 2.214477 14 30 43
0.036430 -0.207041 2.220902 14 30 43
0.036400 -0.205219 2.219037 14 30 43
0.036389 -0.203510 2.218375 14 30 43
0.036405 -0.201953 2.219380 14 30 43
0.036588 -0.201308 2.230492 14 30 43
0.036552 -0.199454 2.228295 14 30 43
0.036514 -0.197597 2.226019 13 29 42
0.036494 -0.195833 2.224764 13 29 42
0.036465 -0.194028 2.223018 13 29 42
0.036539 -0.192765 2.227503 12 28 41
0.036504 -0.190931 2.225402 12 28 41
0.036429 -0.188887 2.220808 11 27 40
0.036548 -0.187848 2.228056 11 27 40
0.036511 -0.186007 2.225825 10 26 39
0.036694 -0.185279 2.236990 11 26 39
0.036956 -0.184926 2.252937 12 26 39
0.036877 -0.182861 2.248121 11 26 39
0.036834 -0.180978 2.245481 10 26 39
0.036591 -0.178129 2.230688 9 26 39
0.036626 -0.176639 2.232799 7 25 37
0.036699 -0.175333 2.237289 4 22 34
0.036795 -0.174125 2.243141 3 21 33
0.037032 -0.173567 2.257550 3 20 33
0.036942 -0.171476 2.252111 3 19 32
0.036875 -0.169493 2.247999 3 17 29
0.036731 -0.167167 2.239211 2 15 25
0.036945 -0.166468 2.252255 1 13 22
0.036896 -0.164576 2.249260 1 12 19
0.036911 -0.162974 2.250207 0 10 15
0.036967 -0.161545 2.253595 0 7 12
0.036888 -0.159530 2.248780 2 6 15
0.036478 -0.156104 2.223772 2 3 16
0.036310 -0.153744 2.213572 0 0 13
0.036325 -0.152162 2.214477 0 1 13
0.036192 -0.149965 2.206353 2 8 19
0.036452 -0.149391 2.222192 24 39 52
0.036443 -0.147705 2.221660 83 102 122
0.036126 -0.144783 2.202314 143 167 194
0.035877 -0.142163 2.187167 146 176 207
0.035984 -0.140958 2.193707 122 155 190
0.036377 -0.140851 2.217672 113 148 183
0.036034 -0.137890 2.196745 104 141 173
0.035774 -0.133653 2.180864 96 130 162
0.035944 -0.132661 2.191222 94 126 158
0.035997 -0.131226 2.194453 93 123 157
0.035984 -0.129552 2.193707 95 121 160
0.035733 -0.127029 2.178384 93 118 160
0.035899 -0.125994 2.188499 86 111 152
0.035886 -0.124324 2.187723 79 105 143
0.035679 -0.121990 2.175075 75 103 135
0.035491 -0.119741 2.163644 72 101 127
0.035676 -0.118750 2.174926 67 95 117
0.035596 -0.116871 2.170017 60 87 107
0.035591 -0.115244 2.169739 56 81 99
0.035651 -0.113824 2.173398 53 76 94
0.035608 -0.112073 2.170753 48 70 89
0.035512 -0.110163 2.164901 42 63 83
0.035617 -0.108876 2.171306 36 57 78
0.035733 -0.107613 2.178384 33 54 75
0.035995 -0.106772 2.194364 31 53 74
0.035680 -0.104221 2.175124 30 53 73
0.035564 -0.102274 2.168108 32 58 76
0.035701 -0.101051 2.176459 31 61 78
0.035752 -0.099575 2.179537 35 64 84
0.035597 -0.097531 2.170073 45 73 96
0.035436 -0.095487 2.160290 50 78 103
0.035573 -0.094244 2.168607 52 79 107
0.035519 -0.092494 2.165348 53 82 110
0.035563 -0.090999 2.168047 49 79 106
0.035417 -0.089021 2.159146 39 69 94
0.035461 -0.087524 2.161779 30 59 81
0.035558 -0.086154 2.167702 23 50 69
0.035450 -0.084287 2.161117 16 41 56
0.035417 -0.082605 2.159112 13 33 47
0.035127 -0.080338 2.141428 12 28 41
0.034973 -0.078402 2.132051 11 22 36
0.034763 -0.076359 2.119279 9 18 32
0.034570 -0.074368 2.107483 4 11 24
0.034698 -0.073072 2.115278 2 11 22
0.034698 -0.071502 2.115316 9 21 35
0.034673 -0.069879 2.113735 24 39 57
0.034532 -0.068032 2.105185 40 59 81
0.034329 -0.066077 2.092775 52 73 98
0.034351 -0.064565 2.094140 49 72 99
0.034353 -0.063012 2.094247 34 57 85
0.034414 -0.061565 2.097947 20 42 68
0.034500 -0.060159 2.103244 15 35 59
0.034566 -0.058707 2.107230 14 33 56
0.034677 -0.057326 2.113997 12 30 51
0.034747 -0.055868 2.118253 9 29 48
0.034817 -0.054405 2.122570 7 29 49
0.034826 -0.052841 2.123066 5 29 50
0.034660 -0.051020 2.112950 5 30 51
0.034339 -0.048993 2.093418 6 29 52
0.034424 -0.047555 2.098574 7 28 52
0.034424 -0.045996 2.098574 8 28 52
0.034506 -0.044544 2.103607 10 30 54
0.034465 -0.042930 2.101087 12 32 56
0.034579 -0.041506 2.108031 13 33 57
0.034582 -0.039944 2.108229 14 34 58
0.034554 -0.038347 2.106537 15 35 59
0.034582 -0.036812 2.108204 15 35 59
0.034477 -0.035139 2.101794 15 35 59
0.034384 -0.033487 2.096136 15 35 58
0.034486 -0.032025 2.102368 15 35 57
0.034326 -0.030322 2.092600 15 36 57
0.034209 -0.028670 2.085476 15 35 57
0.034276 -0.027174 2.089567 15 35 57
0.034067 -0.025466 2.076834 15 35 57
0.033983 -0.023864 2.071683 14 35 56
0.033960 -0.022310 2.070307 14 35 56
0.033876 -0.020721 2.065202 15 36 57
0.033910 -0.019207 2.067279 15 36 57
0.033975 -0.017705 2.071202 16 37 58
0.033950 -0.016154 2.069687 17 38 59
0.033849 -0.014574 2.063533 17 38 59
0.033943 -0.013077 2.069268 18 39 60
0.034033 -0.011571 2.074737 16 37 58
0.033938 -0.010002 2.068985 15 35 57
0.033953 -0.008469 2.069865 15 34 56
0.033970 -0.006935 2.070916 14 34 56
0.033977 -0.005398 2.071356 13 34 55
0.034245 -0.003889 2.087647 12 33 54
0.034126 -0.002331 2.080426 12 33 54
0.033910 -0.000780 2.067266 10 32 53
0.033861 0.000754 2.064233 8 32 53
0.033863 0.002287 2.064359 7 32 53
0.033804 0.003814 2.060757 7 32 53
0.033941 0.005366 2.069131 8 33 54
0.033987 0.006913 2.071956 8 33 54
0.033831 0.008413 2.062413 9 34 54
0.033200 0.011263 2.023961 12 35 57
0.033151 0.012747 2.021004 10 32 54
0.032908 0.014144 2.006173 10 32 53
0.032965 0.015661 2.009621 10 32 55
0.032890 0.017114 2.005052 11 32 56
0.032852 0.018582 2.002738 12 32 56
0.033070 0.020203 2.016023 12 32 56
0.033167 0.021764 2.021955 12 32 56
0.033214 0.023299 2.024837 13 33 57
0.033316 0.024879 2.031014 12 33 55
0.033437 0.026484 2.038440 12 33 54
0.033027 0.027654 2.013393 11 33 53
0.033010 0.029135 2.012398 10 31 51
0.033008 0.030628 2.012279 10 29 49
0.032930 0.032047 2.007513 9 27 47
0.032960 0.033569 2.009351 8 26 46
0.032947 0.035046 2.008513 8 25 44
0.032885 0.036470 2.004786 10 27 45
0.032906 0.037984 2.006065 10 27 45
0.032958 0.039535 2.009189 8 25 43
0.032957 0.041026 2.009125 6 23 41
0.032961 0.042525 2.009414 3 20 40
0.032903 0.043939 2.005860 1 18 38
0.032868 0.045381 2.003745 0 17 37
0.032914 0.046935 2.006543 0 15 34
0.032930 0.048449 2.007513 0 13 29
0.032928 0.049937 2.007374 2 13 25
0.032950 0.051462 2.008706 2 12 24
0.032988 0.053015 2.011014 1 11 21
0.032957 0.054457 2.009131 0 9 19
0.032993 0.056011 2.011349 0 7 17
0.032980 0.057482 2.010525 0 6 16
0.032923 0.058875 2.007100 0 4 14
0.032903 0.060329 2.005886 0 3 13
0.032903 0.061818 2.005870 0 2 10
0.032858 0.063221 2.003095 0 1 10
0.032928 0.064847 2.007370 1 1 8
0.032969 0.066420 2.009870 1 1 7
0.032932 0.067838 2.007649 1 2 5
0.032952 0.069371 2.008853 0 2 5
0.032884 0.070716 2.004695 0 2 5
0.033060 0.072592 2.015427 0 1 5
0.032953 0.073849 2.008904 0 0 6
0.032964 0.075366 2.009554 1 0 7
0.032941 0.076807 2.008204 0 0 6
0.032938 0.078289 2.007974 0 0 6
0.032908 0.079709 2.006173 0 0 6
0.032992 0.081405 2.011264 1 0 6
0.032925 0.082733 2.007227 0 0 5
0.032923 0.084217 2.007061 0 0 5
0.032910 0.085674 2.006279 1 1 6
0.032811 0.086902 2.000229 0 1 5
0.032844 0.088478 2.002291 0 1 5
0.032842 0.089960 2.002166 0 1 4
0.032840 0.091439 2.001992 0 1 4
0.032842 0.092934 2.002166 0 1 4
0.032847 0.094435 2.002442 0 1 4
0.032831 0.095876 2.001474 0 0 3
0.032496 0.096369 1.981063 0 0 3
0.032506 0.100814 1.981656 0 1 8
0.032728 0.102984 1.995192 0 1 9
0.032776 0.106104 1.998114 0 3 11
0.032773 0.107578 1.997926 0 5 12
0.032722 0.108893 1.994833 0 6 14
0.032715 0.110349 1.994380 0 7 15
0.032585 0.111387 1.986468 0 8 15
0.032510 0.112602 1.981878 0 9 16
0.032418 0.113751 1.976276 1 12 18
0.032363 0.115025 1.972939 2 14 20
0.032312 0.116305 1.969807 2 14 22
0.032284 0.117666 1.968097 0 14 23
0.032262 0.119050 1.966810 0 14 26
0.032180 0.120202 1.961772 0 14 27
0.032164 0.121599 1.960798 0 15 28
0.032152 0.123010 1.960080 0 17 28
0.032109 0.124299 1.957443 2 19 29
0.032106 0.125742 1.957275 3 20 29
0.032004 0.126791 1.951047 3 21 29
0.031943 0.127995 1.947313 1 20 27
0.031901 0.129273 1.944784 0 19 26
0.031858 0.130539 1.942124 2 21 28
0.031854 0.131968 1.941922 4 23 31
0.031835 0.133329 1.940740 5 25 35
0.031865 0.134897 1.942566 5 24 37
0.031816 0.136131 1.939590 3 22 36
0.031660 0.136896 1.930059 2 20 34
0.031604 0.138088 1.926687 3 20 34
0.031654 0.139736 1.929692 4 21 34
0.031752 0.141607 1.935666 4 21 33
0.031561 0.143613 1.924025 3 21 34
0.031423 0.144411 1.915650 3 22 36
0.031600 0.148083 1.926395 3 22 36
0.031790 0.150416 1.938019 4 22 36
0.031809 0.154824 1.939139 4 20 35
0.031931 0.156864 1.946577 3 19 35
0.031903 0.158170 1.944868 3 19 35
0.031946 0.159831 1.947495 4 20 36
0.031862 0.160853 1.942370 6 22 37
0.031755 0.161753 1.935872 6 22 34
0.031741 0.163117 1.934998 5 21 27
0.031926 0.165517 1.946327 3 19 22
0.031905 0.166848 1.944991 2 17 18
0.031921 0.168381 1.946004 0 15 15
0.032021 0.170355 1.952060 0 11 13
0.032011 0.171755 1.951494 0 8 12
0.032162 0.176935 1.960705 2 2 20
0.031726 0.177405 1.934079 2 2 23
0.031561 0.177912 1.924025 1 2 19
0.032160 0.187117 1.960575 0 7 10
0.032141 0.188460 1.959396 2 4 15
0.031764 0.189126 1.936414 1 1 12
0.030700 0.186961 1.871549 0 2 12
0.030605 0.187766 1.865738 0 4 14
0.030680 0.189621 1.870362 0 8 18
0.030633 0.190715 1.867470 0 13 23
0.030631 0.192088 1.867338 26 44 52
0.030669 0.193714 1.869645 69 88 93
0.030705 0.195336 1.871875 102 121 121
0.030677 0.196548 1.870180 115 132 124
0.030682 0.197969 1.870482 114 131 115
0.030614 0.198914 1.866311 114 129 107
0.030617 0.200320 1.866494 117 126 101
0.030500 0.200938 1.859391 118 118 90
0.030485 0.202215 1.858431 128 121 93
0.030560 0.204098 1.863015 138 130 103
0.030514 0.205173 1.860216 136 131 107
0.030514 0.206557 1.860236 128 125 104
0.030524 0.208003 1.860812 115 115 96
0.030567 0.209681 1.863442 94 96 78
0.030552 0.210959 1.862507 67 72 54
0.030433 0.211521 1.855302 55 63 44
0.030477 0.213206 1.857978 70 79 58
0.030606 0.215489 1.865799 97 107 85
0.039988 -0.324812 2.332157 165 163 170
0.039859 -0.322044 2.324679 150 148 154
0.040460 -0.325142 2.359696 149 147 152
0.040554 -0.324144 2.365203 166 161 166
0.040753 -0.323969 2.376803 173 169 170
0.040602 -0.321011 2.368006 171 167 168
0.040761 -0.320503 2.377285 163 160 163
0.040786 -0.318926 2.378695 159 158 162
0.040558 -0.315392 2.365442 159 159 164
0.040880 -0.316122 2.384196 150 152 159
0.041026 -0.315470 2.392687 132 138 148
0.041070 -0.314032 2.395273 110 119 134
0.041106 -0.312525 2.397362 82 93 113
0.040792 -0.308373 2.379067 62 76 97
0.039866 -0.297918 2.325054 73 91 110
0.040414 -0.288009 2.357021 84 107 135
0.040405 -0.286197 2.356517 79 102 133
0.040142 -0.282590 2.341138 74 98 129
0.040034 -0.280094 2.334832 73 96 127
0.039917 -0.277547 2.328012 70 94 125
0.039725 -0.274495 2.316844 60 85 116
0.039008 -0.257710 2.275017 57 74 100
0.038794 -0.254614 2.262513 51 69 96
0.038736 -0.252560 2.259176 40 58 86
0.038663 -0.250409 2.254915 32 52 80
0.038417 -0.245483 2.240529 44 64 93
0.038325 -0.243236 2.235177 46 67 95
0.038323 -0.241567 2.235091 46 65 94
0.038224 -0.239284 2.229295 46 65 91
0.038195 -0.237446 2.227582 54 71 94
0.038237 -0.236056 2.230078 49 66 85
0.038181 -0.234052 2.226776 32 49 66
0.038186 -0.232430 2.227085 13 31 46
0.038310 -0.231523 2.234291 9 27 40
0.038156 -0.228941 2.225331 16 34 46
0.038188 -0.227477 2.227175 19 36 47
0.038206 -0.225930 2.228231 13 30 40
0.038210 -0.224302 2.228499 19 35 47
0.038181 -0.222474 2.226776 20 36 49
0.038093 -0.220314 2.221676 19 35 48
0.037889 -0.217493 2.209772 17 33 46
0.037953 -0.216217 2.213518 16 32 45
0.037870 -0.214101 2.208643 14 30 43
0.037886 -0.212552 2.209596 12 29 42
0.038036 -0.211744 2.218332 11 29 41
0.038032 -0.210074 2.218092 11 27 40
0.037993 -0.208214 2.215837 11 27 40
0.038047 -0.206861 2.218971 11 27 40
0.038046 -0.205207 2.218907 11 27 40
0.038012 -0.203377 2.216926 11 27 40
0.037982 -0.201571 2.215176 11 27 40
0.038097 -0.200531 2.221886 11 27 40
0.038098 -0.198888 2.221965 11 27 40
0.038080 -0.197143 2.220902 10 26 39
0.037995 -0.195058 2.215961 10 26 39
0.038069 -0.193787 2.220248 10 26 39
0.038155 -0.192574 2.225293 10 26 39
0.038119 -0.190737 2.223144 9 25 38
0.038145 -0.189219 2.224716 9 25 38
0.038147 -0.187573 2.224783 9 25 38
0.038106 -0.185721 2.222396 9 25 38
0.038125 -0.184161 2.223500 10 25 38
0.038425 -0.183950 2.241043 10 24 37
0.038522 -0.182744 2.246686 10 25 38
0.038534 -0.181129 2.247352 9 25 38
0.038159 -0.177716 2.225515 8 26 38
0.038090 -0.175744 2.221488 6 24 36
0.038157 -0.174401 2.225402 4 22 34
0.038277 -0.173289 2.232375 3 21 33
0.038490 -0.172585 2.244783 3 20 33
0.038373 -0.170398 2.237962 3 19 32
0.038264 -0.168260 2.231645 3 17 29
0.038252 -0.166547 2.230906 1 15 25
0.038480 -0.165874 2.244225 0 13 22
0.038217 -0.163085 2.228878 0 12 18
0.038282 -0.161706 2.232706 0 10 14
0.038304 -0.160138 2.233958 0 7 12
0.038248 -0.158249 2.230717 2 6 15
0.038050 -0.155781 2.219171 1 3 16
0.037833 -0.153251 2.206474 0 1 13
0.037840 -0.151642 2.206912 0 2 14
0.037843 -0.150015 2.207089 7 15 28
0.038037 -0.149134 2.218375 42 56 72
0.037923 -0.147047 2.211762 100 121 142
0.037689 -0.144507 2.198114 149 174 201
0.037299 -0.141392 2.175320 143 173 205
0.037539 -0.140677 2.189327 118 151 187
0.037798 -0.140011 2.204451 110 145 181
0.037453 -0.137110 2.184318 102 138 172
0.037537 -0.135792 2.189220 98 133 167
0.037286 -0.133268 2.174567 96 130 163
0.037414 -0.132107 2.182076 95 126 160
0.037385 -0.130382 2.180336 94 123 159
0.037425 -0.128901 2.182680 96 124 162
0.037323 -0.126935 2.176771 96 123 163
0.037393 -0.125553 2.180839 90 117 156
0.037348 -0.123782 2.178180 84 112 147
0.037245 -0.121827 2.172173 79 110 140
0.037294 -0.120373 2.175065 76 106 132
0.037196 -0.118446 2.169353 71 101 123
0.037159 -0.116716 2.167157 66 95 116
0.037196 -0.115222 2.169327 63 90 110
0.037156 -0.113489 2.167003 61 87 105
0.037186 -0.111969 2.168744 57 81 100
0.037128 -0.110187 2.165381 51 75 95
0.037186 -0.108748 2.168744 46 69 89
0.037205 -0.107192 2.169870 42 65 85
0.037385 -0.106091 2.180358 39 62 83
0.037270 -0.104150 2.173660 38 62 82
0.037319 -0.102671 2.176529 39 66 84
0.037297 -0.100994 2.175232 36 66 84
0.037269 -0.099303 2.173573 36 66 85
0.037245 -0.097627 2.172211 45 73 95
0.037002 -0.095387 2.158020 50 78 103
0.037010 -0.093804 2.158499 53 80 108
0.037221 -0.092726 2.170775 52 81 109
0.037204 -0.091071 2.169781 44 74 101
0.037042 -0.089072 2.160387 34 65 89
0.037002 -0.087373 2.158045 28 57 79
0.037021 -0.085814 2.159146 21 49 68
0.037116 -0.084425 2.164663 14 39 55
0.037259 -0.083137 2.173018 11 31 45
0.036730 -0.080366 2.142176 10 26 39
0.036302 -0.077856 2.117190 9 20 34
0.036160 -0.075985 2.108922 8 16 31
0.036192 -0.074484 2.110776 3 9 23
0.036272 -0.073078 2.115446 3 11 25
0.036271 -0.071505 2.115403 15 29 45
0.036377 -0.070138 2.121585 33 50 68
0.035841 -0.067552 2.090317 45 65 87
0.035878 -0.066067 2.092474 47 70 95
0.035891 -0.064537 2.093244 40 64 90
0.035885 -0.062972 2.092894 28 51 77
0.036019 -0.061645 2.100668 19 40 65
0.036058 -0.060151 2.102977 15 35 59
0.036056 -0.058585 2.102834 14 33 56
0.036207 -0.057263 2.111673 12 30 52
0.036291 -0.055823 2.116549 9 29 50
0.036520 -0.054593 2.129917 7 29 49
0.036278 -0.052660 2.115800 7 29 50
0.036272 -0.051080 2.115446 7 29 50
0.036377 -0.049652 2.121590 7 28 51
0.035994 -0.047570 2.099220 7 28 52
0.035930 -0.045929 2.095503 8 28 52
0.036131 -0.044621 2.107224 10 30 54
0.036079 -0.042993 2.104188 11 31 55
0.036146 -0.041508 2.108103 12 32 56
0.036148 -0.039944 2.108229 13 34 56
0.036068 -0.038293 2.103546 14 35 57
0.036081 -0.036744 2.104320 14 35 56
0.036035 -0.035136 2.101609 14 35 56
0.036033 -0.033573 2.101507 14 35 56
0.035842 -0.031842 2.090369 14 35 56
0.035785 -0.030242 2.087076 14 35 56
0.035808 -0.028710 2.088372 14 35 56
0.035649 -0.027038 2.079101 14 35 56
0.035719 -0.025544 2.083229 14 35 56
0.035690 -0.023977 2.081522 14 35 56
0.035486 -0.022303 2.069598 14 35 56
0.035415 -0.020724 2.065467 15 36 57
0.035464 -0.019216 2.068331 15 36 57
0.035603 -0.017749 2.076443 16 37 58
0.035655 -0.016231 2.079454 17 38 59
0.035441 -0.014598 2.066996 17 38 59
0.035633 -0.013134 2.078208 18 39 60
0.035571 -0.011570 2.074572 16 37 58
0.035702 -0.010066 2.082227 15 36 57
0.035685 -0.008515 2.081244 14 35 56
0.035680 -0.006968 2.080940 14 35 56
0.035843 -0.005447 2.090432 13 34 55
0.035668 -0.003876 2.080201 12 33 54
0.035593 -0.002326 2.075857 12 33 54
0.035700 -0.000786 2.082095 10 32 53
0.035362 0.000753 2.062381 8 31 52
0.035312 0.002282 2.059469 7 32 52
0.035384 0.003819 2.063678 7 32 52
0.035582 0.005382 2.075212 8 33 53
0.035631 0.006933 2.078053 9 34 54
0.035660 0.008483 2.079734 9 34 54
0.035767 0.010058 2.086018 12 35 57
0.034227 0.014073 1.996185 11 33 56
0.034237 0.015561 1.996763 12 32 57
0.034345 0.017097 2.003055 13 33 58
0.034667 0.020261 2.021853 13 33 58
0.034749 0.021815 2.026630 13 33 58
