ply
format ascii 1.0
element vertex 1393
property float x
property float y
property float z
property uchar red
property uchar green
property uchar blue
end_header
0.216813 0.109769 1.932024 0 0 2
0.216447 0.111017 1.928763 0 0 1
0.216279 0.112362 1.927265 0 0 2
0.215764 0.113522 1.922672 0 1 1
0.215729 0.114932 1.922363 0 2 0
0.215521 0.116248 1.920514 0 2 0
0.215040 0.117411 1.916223 0 2 0
0.214330 0.118442 1.909896 1 1 1
0.213863 0.119600 1.905735 1 1 1
0.214308 0.121267 1.909700 1 1 1
0.214230 0.122641 1.909005 1 1 1
0.215040 0.124528 1.916223 0 0 0
0.215323 0.126117 1.918743 0 0 0
0.215806 0.127829 1.923054 0 0 0
0.215445 0.129041 1.919837 0 0 0
0.214877 0.130123 1.914772 0 0 0
0.214251 0.131162 1.909192 0 0 0
0.214330 0.132628 1.909896 0 0 0
0.214744 0.134306 1.913582 0 0 0
0.214130 0.135339 1.908111 0 0 0
0.214667 0.137100 1.912899 0 0 0
0.215090 0.138793 1.916667 0 0 0
0.214563 0.139873 1.911972 0 0 0
0.215227 0.141731 1.917889 0 0 0
0.215098 0.143070 1.916743 0 0 0
0.214970 0.145830 1.915599 0 0 0
0.215858 0.153576 1.923512 0 0 0
0.215751 0.154928 1.922561 0 0 0
0.216014 0.156547 1.924905 0 0 0
0.215139 0.157337 1.917109 0 0 0
0.214625 0.158381 1.912523 0 0 0
0.214363 0.159607 1.910195 0 0 0
0.214367 0.161029 1.910226 0 0 0
0.214398 0.162471 1.910501 0 0 0
0.214406 0.163896 1.910578 0 0 0
0.214442 0.165343 1.910895 0 0 0
0.214507 0.166813 1.911473 0 0 0
0.214487 0.168217 1.911301 0 0 0
0.214427 0.169589 1.910764 0 0 0
0.214290 0.186501 1.909539 0 0 0
0.219461 0.196812 1.955624 0 0 1
0.220931 0.202517 1.968720 0 0 4
0.221087 0.204123 1.970108 0 0 4
0.393122 0.375968 3.503113 0 0 0
0.207386 0.205200 1.848015 0 0 0
0.205889 0.205082 1.834682 0 0 0
0.204515 0.206420 1.822436 0 0 0
0.273010 -0.354553 2.416803 28 36 51
0.272492 -0.352087 2.412212 25 34 50
0.256603 -0.326496 2.271560 18 31 45
0.255434 -0.323329 2.261209 25 38 50
0.256545 -0.323048 2.271043 32 45 55
0.256096 -0.320798 2.267065 33 46 55
0.255605 -0.318503 2.262721 26 38 47
0.255006 -0.316080 2.257421 16 28 36
0.254306 -0.313540 2.251225 9 22 29
0.254646 -0.312284 2.254230 6 18 26
0.254782 -0.310777 2.255441 2 14 23
0.256531 -0.311223 2.270917 0 11 20
0.256333 -0.309297 2.269164 0 9 19
0.256676 -0.308024 2.272204 0 10 19
0.256884 -0.306584 2.274045 1 10 20
0.256733 -0.304715 2.272705 1 10 20
0.256714 -0.303005 2.272542 0 9 18
0.255151 -0.299483 2.258706 0 10 16
0.253537 -0.295921 2.244414 0 10 14
0.252896 -0.293510 2.238739 0 9 13
0.253316 -0.292332 2.242458 0 8 12
0.251360 -0.288422 2.225143 0 7 12
0.252667 -0.288260 2.236713 0 6 11
0.252808 -0.286759 2.237962 0 6 9
0.253629 -0.286022 2.245230 0 5 8
0.252900 -0.283538 2.238780 0 4 8
0.254178 -0.283299 2.250089 0 4 8
0.254392 -0.281865 2.251987 0 3 8
0.254539 -0.280354 2.253288 0 3 8
0.254817 -0.278984 2.255746 0 2 7
0.255739 -0.278313 2.263910 1 2 7
0.255307 -0.276164 2.260086 1 2 7
0.253759 -0.272821 2.246380 1 2 7
0.259281 -0.275348 2.295264 0 2 7
0.256128 -0.270315 2.267350 0 2 7
0.257615 -0.270191 2.280517 0 2 7
0.256419 -0.267250 2.269928 0 2 7
0.255993 -0.265123 2.266155 0 2 7
0.255713 -0.263152 2.263680 0 2 8
0.255174 -0.260919 2.258903 0 2 9
0.254320 -0.258374 2.251351 0 2 9
0.253792 -0.256168 2.246672 0 2 9
0.252075 -0.249463 2.231476 0 2 6
0.251785 -0.247521 2.228910 1 2 4
0.251565 -0.245650 2.226960 1 2 2
0.250979 -0.243428 2.221773 1 2 2
0.250155 -0.240984 2.214477 1 2 3
0.259878 -0.245224 2.300549 1 2 7
0.259850 -0.243489 2.300303 1 1 7
0.259003 -0.240992 2.292800 1 1 9
0.257776 -0.238155 2.281940 1 1 8
0.256955 -0.235707 2.274675 1 2 7
0.256830 -0.233904 2.273568 0 1 6
0.258275 -0.233522 2.286356 0 1 5
0.256220 -0.229979 2.268164 0 1 4
0.250691 -0.221719 2.219222 0 1 3
0.249646 -0.219154 2.209970 0 1 5
0.251026 -0.218715 2.222192 0 1 5
0.250481 -0.216592 2.217359 0 1 5
0.251664 -0.214306 2.227836 0 0 4
0.253167 -0.213921 2.241137 0 0 3
0.253894 -0.212867 2.247579 0 0 2
0.250632 -0.208484 2.218703 0 1 2
0.257845 -0.212788 2.282552 1 3 2
0.258655 -0.211756 2.289721 1 2 2
0.252415 -0.204987 2.234483 1 2 4
0.251853 -0.202875 2.229513 1 2 4
0.250709 -0.200305 2.219380 0 1 5
0.249797 -0.197934 2.211311 0 1 5
0.249187 -0.195812 2.205904 0 0 6
0.249129 -0.194128 2.205394 0 0 6
0.248524 -0.192023 2.200037 0 1 6
0.250832 -0.192157 2.220473 0 1 5
0.250239 -0.190057 2.215219 0 1 5
0.252796 -0.187013 2.237860 0 4 5
0.250911 -0.183968 2.221169 0 3 5
0.249900 -0.181584 2.212222 0 2 4
0.249564 -0.179699 2.209248 0 1 3
0.250820 -0.178954 2.220364 0 1 3
0.251445 -0.177746 2.225893 0 4 4
0.250873 -0.175693 2.220837 0 7 6
0.250947 -0.174094 2.221488 3 17 15
0.250204 -0.171934 2.214914 10 27 24
0.249761 -0.169987 2.210988 20 38 35
0.250379 -0.168762 2.216462 22 41 37
0.249896 -0.166793 2.212187 16 35 32
0.251794 -0.166404 2.228986 10 29 26
0.251744 -0.164715 2.228544 11 28 25
0.251316 -0.162783 2.224754 14 28 28
0.251596 -0.161310 2.227234 10 24 27
0.252096 -0.159973 2.231658 10 24 29
0.253035 -0.158905 2.239969 10 24 27
0.254449 -0.158120 2.252490 6 20 23
0.254222 -0.156307 2.250479 3 15 17
0.251337 -0.152881 2.224945 0 11 13
0.252949 -0.152198 2.239211 0 11 13
0.252299 -0.146830 2.233455 8 23 24
0.253480 -0.145851 2.243911 18 35 37
0.252348 -0.143540 2.233888 21 40 43
0.252546 -0.141992 2.235644 20 41 45
0.251562 -0.139785 2.226928 18 41 46
0.251575 -0.138138 2.227050 16 41 45
0.251754 -0.134926 2.228632 14 38 45
0.250562 -0.126049 2.218080 12 27 35
0.249604 -0.123926 2.209596 9 22 29
0.248976 -0.120340 2.204043 7 18 20
0.249352 -0.118882 2.207366 3 13 15
0.248247 -0.115091 2.197591 0 4 7
0.249133 -0.113863 2.205429 0 4 5
0.250332 -0.112765 2.216040 0 2 3
0.249507 -0.110753 2.208737 0 0 1
0.251317 -0.109904 2.224764 0 0 0
0.251644 -0.108392 2.227659 0 0 0
0.250236 -0.106141 2.215197 0 0 0
0.243472 -0.100070 2.155319 0 0 0
0.243397 -0.096838 2.154655 0 0 0
0.242002 -0.094692 2.142303 0 0 1
0.251064 -0.096587 2.222526 1 0 3
0.244006 -0.092267 2.160047 0 0 4
0.248832 -0.085911 2.202762 0 1 6
0.250219 -0.084745 2.215046 0 1 5
0.251691 -0.081934 2.228078 0 1 6
0.251744 -0.080296 2.228544 1 2 7
0.252245 -0.078797 2.232976 1 2 7
0.247122 -0.075571 2.187628 1 2 7
0.246679 -0.073814 2.183702 1 2 7
0.245593 -0.070259 2.174089 1 2 7
0.245205 -0.068536 2.170657 1 2 7
0.244937 -0.066851 2.168287 1 2 7
0.245109 -0.065286 2.169811 1 2 7
0.245258 -0.062100 2.171125 1 2 7
0.243609 -0.058479 2.156525 1 2 7
0.243870 -0.056938 2.158836 1 2 7
0.243800 -0.055319 2.158216 1 2 7
0.243675 -0.053688 2.157115 0 2 7
0.232201 -0.049633 2.055540 0 2 7
0.257747 -0.051704 2.281686 0 3 6
0.254595 -0.046050 2.253785 0 7 9
0.251791 -0.043887 2.228960 0 8 10
0.250550 -0.042024 2.217977 0 9 10
0.249107 -0.040143 2.205198 0 10 12
0.237425 -0.035139 2.101783 0 11 16
0.236760 -0.033483 2.095898 0 12 19
0.238046 -0.032100 2.107281 0 12 22
0.236238 -0.030303 2.091277 0 13 26
0.233814 -0.028455 2.069817 1 14 28
0.237968 -0.025831 2.106593 0 12 29
0.237684 -0.024237 2.104080 0 11 29
0.233616 -0.020750 2.068070 0 11 29
0.233327 -0.019190 2.065506 0 12 29
0.232963 -0.017628 2.062288 0 12 28
0.233247 -0.016116 2.064802 0 12 28
0.231435 -0.012948 2.048764 0 12 26
0.232138 -0.011461 2.054986 0 12 26
0.226908 -0.008218 2.008686 0 12 25
0.226552 -0.006716 2.005535 0 12 24
0.227237 -0.002254 2.011600 0 11 20
0.226090 -0.000756 2.001439 0 9 18
0.226120 0.000731 2.001713 0 9 18
0.226084 0.002218 2.001389 0 9 18
0.225061 0.003687 1.992335 0 9 17
0.224713 0.005159 1.989253 0 9 17
0.224258 0.006623 1.985224 0 9 16
0.223381 0.008066 1.977459 0 9 16
0.222944 0.009516 1.973596 0 8 14
0.223155 0.010993 1.975463 0 7 13
0.223577 0.012484 1.979200 0 7 13
0.222665 0.013897 1.971122 0 7 12
0.222986 0.015383 1.973963 0 8 13
0.223158 0.016862 1.975485 0 9 13
0.222554 0.018280 1.970140 0 10 13
0.222245 0.019716 1.967409 0 10 14
0.221945 0.021149 1.964754 0 9 16
0.222059 0.022620 1.965758 0 6 17
0.222304 0.024106 1.967928 0 6 20
0.222524 0.025593 1.969875 0 6 22
0.222873 0.027099 1.972966 0 6 22
0.222489 0.028515 1.969562 0 6 22
0.222533 0.029984 1.969954 0 8 22
0.222283 0.031412 1.967739 0 8 21
0.222192 0.032860 1.966936 0 8 20
0.222672 0.034395 1.971182 0 8 18
0.222677 0.035860 1.971230 0 8 17
0.223216 0.037414 1.976000 0 8 16
0.223206 0.038881 1.975916 0 8 16
0.223206 0.040348 1.975916 0 8 17
0.221664 0.041527 1.962260 0 8 17
0.220481 0.042755 1.951794 0 8 17
0.220320 0.044173 1.950369 0 8 16
0.220555 0.045670 1.952444 0 8 15
0.221861 0.047399 1.964007 0 7 14
0.220877 0.048641 1.955300 0 6 12
0.220980 0.050117 1.956209 0 5 11
0.221122 0.051603 1.957462 0 5 9
0.220496 0.052907 1.951923 0 5 8
0.221351 0.054567 1.959496 0 4 7
0.221553 0.056074 1.961278 0 3 6
0.221670 0.057561 1.962318 1 2 4
0.220877 0.058808 1.955300 0 2 3
0.220975 0.060287 1.956168 0 2 2
0.219151 0.061230 1.940018 0 2 2
0.219314 0.062718 1.941463 0 3 2
0.218959 0.064056 1.938318 0 3 1
0.218744 0.065431 1.936414 0 3 0
0.218142 0.066685 1.931085 0 3 0
0.218414 0.068205 1.933489 0 1 1
0.218998 0.069827 1.938661 0 2 1
0.219653 0.071480 1.944463 0 2 1
0.219246 0.072789 1.940854 0 2 1
0.219129 0.074191 1.939821 0 2 1
0.219349 0.075708 1.941773 0 2 1
0.218601 0.076887 1.935147 0 2 1
0.218880 0.078425 1.937622 0 2 1
0.218744 0.079814 1.936414 0 2 1
0.218926 0.081320 1.938028 0 2 1
0.218159 0.082470 1.931233 0 2 1
0.218529 0.084047 1.934514 0 2 1
0.218821 0.085598 1.937095 0 2 1
0.218370 0.086857 1.933105 0 2 1
0.218744 0.088444 1.936414 0 2 1
0.219269 0.090098 1.941057 0 2 1
0.219412 0.091599 1.942323 0 2 0
0.219456 0.093061 1.942718 0 2 0
0.219503 0.094524 1.943130 0 2 0
0.218956 0.095728 1.938287 0 2 0
0.219254 0.097300 1.940932 0 2 0
0.219346 0.098783 1.941742 0 2 0
0.219360 0.100232 1.941867 0 1 1
0.219510 0.101744 1.943192 0 1 1
0.219506 0.103185 1.943156 0 0 1
0.219471 0.104612 1.942854 0 0 1
0.219349 0.105996 1.941773 0 0 1
0.219380 0.107453 1.942042 0 0 1
0.219108 0.108761 1.939634 0 0 1
0.218695 0.109994 1.935979 0 0 1
0.218314 0.111238 1.932605 0 0 1
0.217940 0.112481 1.929299 0 0 0
0.217508 0.113688 1.925474 1 1 1
0.217251 0.114982 1.923197 1 1 1
0.217089 0.116323 1.921760 1 1 1
0.216942 0.117671 1.920462 1 1 1
0.216651 0.118938 1.917889 1 1 1
0.216557 0.120310 1.917056 1 1 1
0.215686 0.121244 1.909340 1 1 1
0.215641 0.122637 1.908945 1 1 1
0.216218 0.124387 1.914050 0 0 0
0.216707 0.126093 1.918386 0 0 0
0.216385 0.127329 1.915534 0 0 0
0.216123 0.128596 1.913212 0 0 0
0.216090 0.129997 1.912922 0 0 0
0.215846 0.131269 1.910756 0 0 0
0.215689 0.132592 1.909365 0 0 0
0.215581 0.133943 1.908414 0 0 0
0.215319 0.135196 1.906091 0 0 0
0.215466 0.136705 1.907391 0 0 0
0.215620 0.138221 1.908759 0 0 0
0.215585 0.139615 1.908446 0 0 0
0.215519 0.140990 1.907864 0 0 0
0.215337 0.142287 1.906256 0 0 0
0.215198 0.143610 1.905025 0 0 0
0.214993 0.144887 1.903206 0 0 0
0.214207 0.145765 1.896248 0 0 0
0.213907 0.146968 1.893599 0 0 1
0.214378 0.148701 1.897761 0 0 1
0.215446 0.150859 1.907218 0 0 1
0.216047 0.152700 1.912541 0 0 0
0.216360 0.154344 1.915313 0 0 0
0.216356 0.155763 1.915272 0 0 0
0.216238 0.157100 1.914227 0 0 0
0.216171 0.158474 1.913640 0 0 0
0.216123 0.159859 1.913207 0 0 0
0.216815 0.161797 1.919339 0 0 0
0.217202 0.163514 1.922765 0 0 0
0.217314 0.165027 1.923754 0 0 0
0.217397 0.166520 1.924493 0 0 0
0.217470 0.168005 1.925139 0 0 0
0.217328 0.169324 1.923877 0 0 0
0.213862 0.169436 1.893192 0 0 0
0.213638 0.170664 1.891215 0 0 0
0.213124 0.171654 1.886659 0 0 0
0.213310 0.173207 1.888311 0 0 0
0.213455 0.174728 1.889595 0 0 0
0.213524 0.176189 1.890207 0 0 0
0.213412 0.177499 1.889213 0 0 0
0.213147 0.178680 1.886865 0 0 0
0.213428 0.180319 1.889351 0 0 2
0.213671 0.181930 1.891508 0 0 1
0.214164 0.183757 1.895866 0 0 0
0.214878 0.185783 1.902190 0 0 0
0.215377 0.187631 1.906610 0 0 0
0.215794 0.189413 1.910298 0 0 0
0.217588 0.192418 1.926182 0 0 0
0.218986 0.195094 1.938554 0 0 0
0.219898 0.197353 1.946633 0 0 2
0.222024 0.202181 1.965449 0 0 2
0.222098 0.203708 1.966104 0 0 2
0.221709 0.204810 1.962663 0 0 3
0.221220 0.205812 1.958332 0 0 3
0.219357 0.206964 1.941844 0 0 2
0.219105 0.208167 1.939609 0 0 0
0.219122 0.209624 1.939760 0 0 0
0.219186 0.211126 1.940326 0 0 0
0.219204 0.212585 1.940489 0 0 0
0.207994 0.204449 1.841252 0 0 0
0.207732 0.205557 1.838929 0 0 0
0.207869 0.207059 1.840140 0 0 0
0.283728 -0.399425 2.495270 170 169 174
0.265052 -0.359282 2.331022 128 132 142
0.266742 -0.354604 2.345891 86 93 101
0.272284 -0.349521 2.394629 42 50 67
0.260311 -0.329050 2.289329 14 24 39
0.257427 -0.323723 2.263966 13 23 35
0.257406 -0.322015 2.263781 18 28 39
0.256983 -0.319808 2.260065 25 35 44
0.256483 -0.317509 2.255660 23 33 41
0.256190 -0.315473 2.253084 14 25 32
0.255775 -0.313291 2.249437 11 22 28
0.256106 -0.312024 2.252349 9 20 27
0.257666 -0.312242 2.266071 3 12 21
0.257712 -0.310614 2.266473 0 8 18
0.258561 -0.309947 2.273936 0 8 18
0.258260 -0.307900 2.271295 0 9 19
0.258293 -0.306252 2.271582 0 9 18
0.258609 -0.304937 2.274362 1 10 19
0.258210 -0.302780 2.270854 1 10 18
0.257353 -0.300094 2.263315 0 9 15
0.255991 -0.296833 2.251335 0 10 13
0.254871 -0.293870 2.241488 0 9 11
0.253843 -0.291026 2.232443 0 9 11
0.254416 -0.290022 2.237488 0 7 10
0.254897 -0.287240 2.241715 0 6 9
0.256374 -0.287230 2.254709 0 6 9
0.254775 -0.283774 2.240641 0 4 8
0.254548 -0.281858 2.238643 0 4 8
0.255452 -0.281190 2.246592 0 3 8
0.254891 -0.278908 2.241666 0 3 8
0.255397 -0.276124 2.246111 1 2 7
0.255455 -0.274519 2.246625 1 2 7
0.259064 -0.275012 2.278362 0 2 7
0.259442 -0.273719 2.281686 0 2 7
0.259408 -0.271989 2.281388 0 2 7
0.259540 -0.270432 2.282552 0 2 7
0.257488 -0.266612 2.264504 0 2 7
0.258266 -0.264043 2.271346 0 2 8
0.257677 -0.261758 2.266166 0 2 9
0.255309 -0.257684 2.245342 0 2 9
0.255354 -0.256061 2.245733 0 2 9
0.255344 -0.254383 2.245643 0 2 9
0.253668 -0.242771 2.230906 1 2 4
0.266400 -0.253216 2.342878 1 2 5
0.266001 -0.251100 2.339373 1 2 6
0.263630 -0.247139 2.318518 1 2 7
0.262351 -0.244227 2.307272 1 1 7
0.261058 -0.241317 2.295897 1 1 9
0.259836 -0.238491 2.285154 1 1 8
0.258540 -0.235612 2.273750 1 2 7
0.258410 -0.233806 2.272611 0 1 6
0.259032 -0.232677 2.278085 0 1 5
0.261176 -0.232896 2.296935 0 1 4
0.259755 -0.229933 2.284444 0 1 3
0.250375 -0.218358 2.201947 0 1 5
0.250296 -0.216654 2.201253 0 1 5
0.251008 -0.212351 2.207510 0 0 4
0.253433 -0.212747 2.228839 0 0 3
0.255166 -0.212536 2.244085 0 0 2
0.258787 -0.212171 2.275930 1 3 2
0.253701 -0.204686 2.231201 1 2 4
0.253490 -0.202859 2.229337 1 2 4
0.252877 -0.200718 2.223952 1 2 6
0.251403 -0.197905 2.210988 0 1 7
0.251039 -0.195979 2.207783 0 0 8
0.251008 -0.194315 2.207510 0 0 8
0.250629 -0.192384 2.204176 0 1 6
0.251504 -0.191413 2.211871 0 1 6
0.252917 -0.190837 2.224305 0 1 6
0.252917 -0.185880 2.224305 0 2 5
0.252497 -0.183922 2.220609 0 3 6
0.252345 -0.182163 2.219273 0 2 5
0.251127 -0.179643 2.208563 0 1 4
0.252497 -0.178974 2.220609 0 2 5
0.251946 -0.176937 2.215765 0 6 8
0.252032 -0.175351 2.216518 0 9 10
0.251970 -0.173662 2.215976 12 25 25
0.251337 -0.171584 2.210408 16 34 32
0.251013 -0.169723 2.207553 21 40 38
0.251952 -0.168712 2.215818 20 40 38
0.252699 -0.167562 2.222383 15 34 32
0.252886 -0.166034 2.224031 11 28 26
0.253258 -0.164624 2.227302 12 27 26
0.253372 -0.163042 2.228301 14 28 29
0.252581 -0.160884 2.221348 10 24 27
0.253538 -0.159837 2.229765 10 24 29
0.254670 -0.158887 2.239722 10 24 27
0.255496 -0.157733 2.246979 6 20 23
0.255755 -0.156223 2.249260 3 15 17
0.255147 -0.154184 2.243911 1 12 14
0.254863 -0.152348 2.241421 0 11 13
0.258550 -0.152863 2.273844 0 11 13
0.257224 -0.150399 2.262181 1 15 17
0.255417 -0.147674 2.246288 11 26 29
0.254063 -0.145231 2.234381 20 37 41
0.255223 -0.144227 2.244584 22 40 44
0.253314 -0.141493 2.227790 20 41 45
0.255827 -0.134541 2.249892 15 35 48
0.255640 -0.129434 2.248251 15 30 39
0.250241 -0.125065 2.200764 13 27 36
0.249458 -0.123044 2.193879 9 22 30
0.249438 -0.118146 2.193707 4 15 17
0.250761 -0.113859 2.205342 0 4 5
0.250095 -0.111923 2.199486 0 2 3
0.251461 -0.109249 2.211498 0 0 0
0.251558 -0.107648 2.212352 0 0 0
0.250264 -0.105459 2.200971 0 0 0
0.249683 -0.103583 2.195863 1 1 1
0.249918 -0.102048 2.197924 0 0 0
0.244964 -0.098425 2.154359 0 0 0
0.245338 -0.095370 2.157644 0 0 1
0.245441 -0.087394 2.158554 0 0 8
0.250024 -0.085759 2.198863 0 1 6
0.250570 -0.084309 2.203659 0 1 5
0.253198 -0.081886 2.226776 0 1 6
0.255199 -0.080866 2.244372 1 2 7
0.255496 -0.079291 2.246979 1 2 7
0.248492 -0.064131 2.185386 1 2 7
0.249868 -0.062854 2.197486 1 2 7
0.243455 -0.056470 2.141092 1 2 7
0.244102 -0.055026 2.146775 1 2 7
0.243398 -0.053277 2.140587 0 2 7
0.258697 -0.051556 2.275138 0 3 6
0.257868 -0.049706 2.267845 0 4 7
0.249523 -0.043208 2.194453 0 8 10
0.250197 -0.041690 2.200380 0 9 10
0.247514 -0.039626 2.176786 0 10 12
0.240571 -0.036943 2.115720 0 10 13
0.239063 -0.033588 2.102458 0 11 18
0.238971 -0.032014 2.101654 0 11 21
0.238105 -0.030343 2.094039 0 12 24
0.238181 -0.027241 2.094705 0 11 27
0.240265 -0.025910 2.113036 0 10 26
0.239806 -0.024294 2.108999 0 10 26
0.238265 -0.022581 2.095440 0 10 26
0.240660 -0.021236 2.116509 0 10 26
0.241446 -0.019728 2.123416 0 10 26
0.237824 -0.014772 2.091568 0 11 26
0.229965 -0.009777 2.022450 0 12 26
0.226247 -0.008141 1.989747 0 12 25
0.227634 -0.002243 2.001944 0 10 21
0.226241 -0.000751 1.989702 0 9 18
0.226589 0.000728 1.992758 0 9 18
0.227536 0.002217 2.001090 0 9 18
0.226107 0.003680 1.988518 0 9 18
0.225596 0.005146 1.984027 0 9 18
0.224963 0.006601 1.978456 0 9 17
0.224520 0.008054 1.974558 0 9 16
0.224476 0.009519 1.974177 0 8 15
0.224222 0.010973 1.971944 0 8 15
0.224820 0.012471 1.977199 0 8 15
0.224520 0.013921 1.974558 0 9 14
0.223991 0.015351 1.969908 0 10 14
0.224315 0.016839 1.972756 0 10 14
0.224012 0.018279 1.970096 0 11 15
0.224032 0.019745 1.970274 0 11 16
0.223619 0.021169 1.966635 0 11 18
0.223570 0.022625 1.966211 0 10 21
0.224137 0.024146 1.971193 0 10 23
0.224127 0.025609 1.971107 0 10 24
0.223916 0.027048 1.969248 0 9 24
0.223835 0.028500 1.968541 0 10 24
0.224392 0.030037 1.973437 0 10 24
0.223994 0.031447 1.969939 0 11 23
0.223948 0.032903 1.969529 0 10 21
0.223742 0.034335 1.967718 0 9 19
0.223663 0.035783 1.967024 0 9 19
0.224655 0.037410 1.975745 0 10 18
0.223541 0.038684 1.965953 0 10 18
0.223121 0.040069 1.962260 0 10 19
0.222592 0.041428 1.957605 1 11 20
0.221936 0.042756 1.951839 1 11 20
0.221168 0.044053 1.945085 0 11 19
0.221434 0.045552 1.947425 0 11 17
0.222524 0.047230 1.957005 0 9 16
0.222749 0.048733 1.958988 0 8 15
0.222266 0.050079 1.954740 0 7 14
0.222213 0.051519 1.954270 1 6 12
0.222609 0.053065 1.957755 1 6 10
0.222776 0.054560 1.959220 1 5 8
0.222648 0.055983 1.958095 1 3 6
0.222216 0.057326 1.954297 0 1 3
0.222276 0.058793 1.954824 0 1 3
0.221072 0.059919 1.944239 0 1 3
0.220182 0.061116 1.936414 0 2 3
0.219955 0.062490 1.934412 0 2 1
0.219464 0.063784 1.930095 0 2 1
0.219446 0.065212 1.929942 0 2 1
0.219598 0.066692 1.931275 0 1 1
0.220041 0.068264 1.935168 0 1 1
0.220487 0.069842 1.939090 0 1 1
0.221056 0.071467 1.944096 0 1 1
0.220491 0.072724 1.939129 0 1 1
0.220664 0.074223 1.940647 0 1 1
0.220584 0.075637 1.939945 0 1 1
0.219989 0.076870 1.934715 0 1 1
0.220277 0.078410 1.937246 0 1 1
0.220624 0.079974 1.940297 0 1 1
0.219736 0.081088 1.932485 0 1 1
0.219581 0.082465 1.931129 0 2 1
0.220322 0.084182 1.937639 0 2 1
0.220456 0.085674 1.938820 0 2 1
0.220282 0.087045 1.937295 0 2 1
0.220370 0.088519 1.938060 0 2 1
0.220533 0.090026 1.939502 0 2 0
0.220393 0.091408 1.938263 0 2 0
0.220674 0.092966 1.940740 0 2 0
0.220974 0.094536 1.943374 0 2 0
0.221251 0.096100 1.945811 0 2 0
0.220833 0.097361 1.942134 0 2 0
0.220802 0.098790 1.941867 0 2 0
0.220937 0.100293 1.943049 0 2 1
0.221036 0.101782 1.943925 0 1 0
0.221057 0.103236 1.944107 0 1 0
0.221146 0.104722 1.944886 0 0 0
0.221385 0.106281 1.946993 0 0 0
0.220958 0.107520 1.943240 0 0 0
0.220829 0.108899 1.942099 0 0 0
0.220698 0.110277 1.940953 0 0 0
0.220501 0.111618 1.939213 0 0 0
0.220182 0.112895 1.936414 0 0 0
0.219457 0.113957 1.930037 0 0 1
0.218774 0.115031 1.924025 0 0 1
0.218599 0.116367 1.922487 0 0 1
0.218163 0.117560 1.918654 0 0 1
0.218451 0.119143 1.921188 0 0 1
0.217010 0.119774 1.908514 0 0 1
0.216760 0.121052 1.906316 0 0 1
0.216977 0.122591 1.908225 0 0 1
0.216905 0.123967 1.907588 0 0 0
0.217116 0.125506 1.909444 0 0 0
0.217227 0.126989 1.910422 0 0 0
0.217299 0.128451 1.911055 0 0 0
0.217176 0.129796 1.909972 0 0 0
0.217140 0.131193 1.909656 0 0 0
0.216784 0.132394 1.906523 0 0 0
0.216271 0.133494 1.902017 0 0 0
0.216522 0.135064 1.904227 0 0 0
0.216736 0.136613 1.906107 0 0 0
0.217052 0.138229 1.908881 0 0 0
0.216990 0.139608 1.908340 0 0 0
0.216694 0.140833 1.905735 0 0 0
0.216420 0.142068 1.903323 0 0 0
0.216379 0.143455 1.902968 0 0 0
0.216107 0.144686 1.900574 0 0 0
0.216112 0.146101 1.900616 0 0 1
0.215426 0.147045 1.894587 0 0 2
0.216792 0.149393 1.906598 0 0 2
0.216850 0.150850 1.907109 0 0 2
0.217353 0.152619 1.911529 0 0 2
0.217525 0.154161 1.913045 0 0 2
0.217871 0.155830 1.916087 0 0 2
0.217261 0.156813 1.910721 0 0 2
0.217302 0.158262 1.911084 0 0 0
0.217273 0.159660 1.910827 0 0 0
0.217410 0.161181 1.912031 0 0 0
0.217573 0.162723 1.913466 0 0 0
0.217608 0.164170 1.913770 0 0 0
0.217631 0.165610 1.913977 0 0 0
0.217680 0.167069 1.914408 0 0 0
0.217590 0.168421 1.913612 0 0 0
0.217438 0.169724 1.912274 0 0 0
0.216890 0.170713 1.907462 0 0 0
0.216917 0.172151 1.907698 0 0 2
0.216811 0.173484 1.906767 0 0 2
0.216529 0.174672 1.904284 0 0 1
0.216606 0.176149 1.904963 0 0 1
0.216636 0.177589 1.905227 0 0 1
0.216694 0.179052 1.905735 0 0 0
0.216059 0.182762 1.900155 0 0 0
0.216534 0.184577 1.904327 0 0 0
0.216960 0.186358 1.908076 0 0 0
0.217061 0.187863 1.908966 0 0 0
0.217192 0.189395 1.910114 0 0 0
0.217812 0.191358 1.915567 0 0 0
0.217999 0.192946 1.917210 0 0 0
0.218410 0.194737 1.920830 0 0 1
0.223958 0.202610 1.969620 0 0 2
0.223884 0.204005 1.968971 0 0 2
0.219022 0.203867 1.926211 0 0 1
0.218897 0.205181 1.925112 0 0 1
0.218515 0.206250 1.921752 0 0 0
0.218586 0.207745 1.922375 0 0 0
0.218645 0.209229 1.922890 0 0 0
0.218636 0.210649 1.922814 0 0 0
0.218573 0.212016 1.922261 0 0 0
0.283547 -0.394740 2.477497 162 161 166
0.279589 -0.385601 2.442912 148 148 152
0.266620 -0.360793 2.329597 139 143 150
0.269286 -0.359157 2.352888 126 131 139
0.268744 -0.354947 2.348155 110 116 122
0.274773 -0.348643 2.400829 53 60 75
0.261981 -0.329012 2.289067 30 39 51
0.259329 -0.322315 2.265888 6 15 24
0.257978 -0.318962 2.254088 8 18 25
0.257702 -0.316948 2.251677 13 23 29
0.257898 -0.315515 2.253384 14 24 30
0.257935 -0.313887 2.253713 14 24 30
0.258421 -0.312801 2.257956 10 19 25
0.258610 -0.311352 2.259612 2 10 16
0.259839 -0.311144 2.270344 0 6 14
0.260393 -0.310118 2.275188 0 7 16
0.260487 -0.308539 2.276005 0 7 16
0.260041 -0.306323 2.272108 0 7 16
0.260105 -0.304711 2.272672 0 8 16
0.260628 -0.303632 2.277243 1 9 16
0.260774 -0.302109 2.278513 0 9 13
0.260266 -0.299833 2.274082 0 10 13
0.259699 -0.297494 2.269126 0 10 12
0.254927 -0.288718 2.227427 0 7 10
0.255452 -0.282682 2.232020 0 4 8
0.255343 -0.280904 2.231065 0 3 8
0.255325 -0.279226 2.230906 0 3 8
0.256276 -0.278603 2.239211 0 3 8
0.255081 -0.275648 2.228772 0 2 7
0.255831 -0.274799 2.235328 1 2 7
0.257876 -0.275322 2.253193 1 2 7
0.258586 -0.274402 2.259400 1 2 7
0.258703 -0.272847 2.260419 0 2 7
0.262498 -0.275146 2.293584 0 3 8
0.260854 -0.271730 2.279216 0 3 8
0.262646 -0.271891 2.294870 0 3 8
0.259414 -0.266863 2.266638 0 3 8
0.260508 -0.266297 2.276191 0 3 8
0.258121 -0.262182 2.255333 0 3 9
0.257469 -0.259849 2.249641 0 3 10
0.257876 -0.258586 2.253193 0 2 9
0.256957 -0.255996 2.245162 0 2 9
0.257126 -0.254497 2.246646 0 2 9
0.266637 -0.251797 2.329745 1 2 5
0.266472 -0.249912 2.328304 1 2 6
0.265051 -0.246859 2.315888 1 2 7
0.262903 -0.243152 2.297123 1 1 7
0.261511 -0.240167 2.284957 1 1 9
0.261457 -0.238421 2.284482 1 1 8
0.261261 -0.236546 2.282768 1 2 7
0.260564 -0.234225 2.276686 0 1 6
0.262131 -0.233932 2.290375 0 1 5
0.261061 -0.231282 2.281020 0 1 4
0.262819 -0.231135 2.296387 0 1 3
0.263070 -0.229648 2.298581 0 1 3
0.249948 -0.214948 2.183921 0 1 5
0.255958 -0.218456 2.236436 0 1 5
0.255436 -0.216353 2.231879 0 0 4
0.255257 -0.212888 2.230315 0 0 3
0.256993 -0.212668 2.245481 0 0 2
0.261907 -0.211635 2.288414 0 2 2
0.256197 -0.205358 2.238526 0 2 4
0.254555 -0.202390 2.224175 0 2 4
0.254031 -0.200325 2.219600 0 2 6
0.254125 -0.198750 2.220423 0 1 7
0.252219 -0.195622 2.203766 0 1 9
0.252532 -0.192587 2.206501 1 1 7
0.253535 -0.191706 2.215266 1 1 7
0.254901 -0.191085 2.227202 0 1 7
0.255375 -0.189783 2.231341 0 1 7
0.255118 -0.187936 2.229097 0 2 5
0.254774 -0.186029 2.226089 0 3 6
0.253545 -0.183486 2.215351 0 3 6
0.253516 -0.181821 2.215105 0 3 6
0.253389 -0.180084 2.213988 0 3 6
0.253445 -0.178479 2.214477 0 7 9
0.253500 -0.176873 2.214957 3 13 14
0.252573 -0.174587 2.206860 4 18 18
0.252053 -0.172592 2.202314 19 35 34
0.251326 -0.170463 2.195966 19 38 36
0.252478 -0.169606 2.206030 18 38 36
0.253888 -0.168905 2.218346 17 37 35
0.254038 -0.167356 2.219657 14 33 31
0.255165 -0.166442 2.229504 13 29 28
0.254938 -0.164640 2.227525 13 27 27
0.254724 -0.162849 2.225652 13 26 27
0.256276 -0.162178 2.239211 10 24 27
0.255932 -0.160299 2.236214 10 24 29
0.255966 -0.158660 2.236511 10 24 27
0.255799 -0.156896 2.235051 6 20 23
0.257554 -0.156301 2.250383 3 15 17
0.257630 -0.154674 2.251043 1 12 14
0.255586 -0.151789 2.233191 1 12 14
0.258562 -0.151878 2.259188 0 12 14
0.257715 -0.149708 2.251787 3 17 20
0.255859 -0.146969 2.235570 11 29 31
0.256980 -0.145945 2.245363 21 39 43
0.255136 -0.143242 2.229252 22 42 45
0.254122 -0.141024 2.220397 18 42 45
0.256056 -0.140435 2.237289 18 42 46
0.255110 -0.136605 2.229026 16 41 47
0.255836 -0.135333 2.235370 15 38 48
0.255070 -0.128307 2.228680 14 31 41
0.254425 -0.126331 2.223043 13 28 37
0.252469 -0.123721 2.205949 10 23 31
0.253280 -0.122475 2.213039 6 19 25
0.253901 -0.121128 2.218466 10 21 26
0.253008 -0.114133 2.210662 0 3 4
0.251855 -0.111979 2.200587 0 1 3
0.252412 -0.110588 2.205455 0 0 0
0.253501 -0.109420 2.214967 0 0 0
0.252242 -0.107240 2.203965 0 0 0
0.252747 -0.105814 2.208379 0 0 0
0.251684 -0.103736 2.199093 1 1 1
0.259048 -0.101727 2.263439 0 0 0
0.254513 -0.096643 2.223812 1 0 3
0.251418 -0.093836 2.196770 0 0 4
0.254055 -0.093171 2.219808 0 1 5
0.253134 -0.084619 2.211762 0 1 5
0.254219 -0.081682 2.221246 0 1 6
0.255771 -0.080521 2.234807 1 2 7
0.255818 -0.078876 2.235217 1 2 7
0.249641 -0.075351 2.181244 1 2 7
0.254420 -0.071840 2.222996 1 2 7
0.252870 -0.069761 2.209453 1 2 7
0.250676 -0.067529 2.190284 1 2 7
0.249483 -0.065588 2.179864 1 2 7
0.249418 -0.063953 2.179295 1 2 7
0.249508 -0.062356 2.180076 1 2 7
0.242720 -0.055934 2.120774 1 2 7
0.242502 -0.054310 2.118866 1 2 7
0.242816 -0.052804 2.121605 1 2 7
0.258402 -0.052840 2.257793 0 2 7
0.260273 -0.051533 2.274137 0 2 7
0.257929 -0.049395 2.253662 0 4 8
0.239553 -0.036548 2.093096 0 9 13
0.241079 -0.035216 2.106427 0 10 15
0.237580 -0.033163 2.075857 0 10 18
0.239303 -0.031851 2.090914 0 9 19
0.239222 -0.030287 2.090208 0 10 21
0.239388 -0.027201 2.091660 0 9 23
0.241126 -0.025834 2.106844 0 9 24
0.240599 -0.024216 2.102242 0 9 25
0.240987 -0.022691 2.105627 0 9 24
0.240907 -0.021120 2.104930 0 9 24
0.240846 -0.019551 2.104393 0 9 24
0.238642 -0.017824 2.085142 0 9 24
0.236578 -0.014599 2.067101 0 10 25
0.233765 -0.012908 2.042522 0 12 26
0.233070 -0.011357 2.036450 0 12 26
0.227237 -0.008123 1.985487 0 12 26
0.229886 -0.005234 2.008630 0 12 25
0.229502 -0.003736 2.005281 0 12 24
0.227818 -0.000752 1.990563 0 10 19
0.229063 0.000731 2.001439 0 9 19
0.229513 0.002222 2.005370 0 9 19
0.227565 0.003680 1.988356 0 9 19
0.226948 0.005143 1.982964 0 9 18
0.226372 0.006599 1.977930 0 9 18
0.226358 0.008068 1.977805 0 9 18
0.225933 0.009519 1.974090 0 9 18
0.225843 0.010981 1.973305 0 10 18
0.225838 0.012446 1.973263 0 10 19
0.225842 0.013912 1.973297 0 11 18
0.225863 0.015379 1.973479 0 12 17
0.225442 0.016814 1.969803 0 12 17
0.225211 0.018258 1.967787 0 12 18
0.225455 0.019741 1.969913 1 13 19
0.225631 0.021221 1.971452 1 13 22
0.225508 0.022673 1.970379 1 14 25
0.225704 0.024157 1.972096 1 14 27
0.225339 0.025581 1.968903 1 14 27
0.225548 0.027068 1.970728 1 14 27
0.225171 0.028484 1.967431 0 13 27
0.225413 0.029978 1.969552 0 13 26
0.225474 0.031449 1.970081 0 13 25
0.225217 0.032875 1.967834 0 12 23
0.224645 0.034249 1.962842 0 11 20
0.223782 0.035570 1.955300 0 12 20
0.224371 0.037120 1.960448 0 13 20
0.223658 0.038453 1.954211 0 13 20
0.223452 0.039868 1.952415 0 13 21
0.222610 0.041163 1.945056 1 14 22
0.221966 0.042484 1.939436 2 14 22
0.222061 0.043944 1.940259 2 13 21
0.222506 0.045476 1.944147 1 12 18
0.222913 0.047006 1.947702 1 11 17
0.223160 0.048506 1.949867 0 9 16
0.223029 0.049925 1.948721 0 8 14
0.223260 0.051426 1.950734 0 6 12
0.223287 0.052881 1.950976 1 6 11
0.223611 0.054409 1.953806 1 4 9
0.223043 0.055718 1.948838 0 3 6
0.223193 0.057204 1.950149 0 1 3
0.222561 0.058487 1.944632 0 1 3
0.221274 0.061021 1.933386 0 1 2
0.220634 0.062276 1.927794 0 1 1
0.220725 0.063734 1.928590 0 1 1
0.220938 0.065230 1.930448 0 1 1
0.220897 0.066651 1.930089 0 1 1
0.220972 0.068108 1.930746 1 1 1
0.221588 0.069736 1.936131 1 1 1
0.222315 0.071408 1.942484 1 1 1
0.221328 0.072527 1.933855 1 1 1
0.221657 0.074073 1.936731 1 1 1
0.220987 0.075283 1.930877 1 1 1
0.220917 0.076693 1.930270 1 1 1
0.221098 0.078191 1.931845 1 1 1
0.221166 0.079651 1.932443 1 1 1
0.221239 0.081113 1.933080 0 1 1
0.220743 0.082363 1.928743 0 2 1
0.220925 0.083865 1.930339 0 2 1
0.221350 0.085463 1.934046 0 2 1
0.221199 0.086840 1.932730 0 2 1
0.221353 0.088337 1.934079 0 2 1
0.221621 0.089882 1.936414 0 2 1
0.221399 0.091229 1.934473 0 2 1
0.221436 0.092682 1.934799 0 2 1
0.221842 0.094292 1.938351 0 2 1
0.221883 0.095749 1.938707 0 2 1
0.222119 0.097292 1.940766 0 2 1
0.221582 0.098495 1.936080 0 2 1
0.222039 0.100139 1.940071 0 2 1
0.222434 0.101761 1.943525 0 1 0
0.222458 0.103216 1.943729 0 1 0
0.222567 0.104711 1.944679 0 1 0
0.222467 0.106108 1.943811 0 0 0
0.222434 0.107535 1.943517 0 0 0
0.222157 0.108843 1.941102 0 0 0
0.222062 0.110238 1.940273 0 0 0
0.222068 0.111682 1.940319 0 0 0
0.221621 0.112895 1.936414 0 0 0
0.221437 0.114239 1.934813 0 0 2
0.221300 0.115604 1.933613 0 0 2
0.221426 0.117107 1.934715 0 0 2
0.220631 0.118119 1.927769 0 0 2
0.220132 0.119280 1.923410 0 0 2
0.219772 0.120511 1.920260 0 0 2
0.219124 0.121578 1.914602 0 0 2
0.218517 0.122660 1.909294 0 0 2
0.218610 0.124130 1.910106 0 0 2
0.218547 0.125513 1.909562 0 0 2
0.218875 0.127122 1.912422 0 0 2
0.219053 0.128647 1.913983 0 0 2
0.219022 0.130050 1.913705 0 0 2
0.218876 0.131384 1.912433 0 0 2
0.218856 0.132793 1.912261 0 0 2
0.218580 0.134044 1.909850 0 0 2
0.218002 0.135104 1.904792 0 1 1
0.218320 0.136718 1.907575 0 1 0
0.218629 0.138330 1.910275 0 1 0
0.218651 0.139763 1.910465 0 1 0
0.218326 0.140972 1.907624 0 1 0
0.217751 0.142014 1.902600 0 1 0
0.217823 0.143475 1.903235 0 0 1
0.218340 0.145233 1.907750 0 0 1
0.218307 0.146628 1.907462 0 0 2
0.218747 0.148343 1.911307 0 0 2
0.220142 0.153574 1.923490 0 0 2
0.220203 0.155046 1.924025 0 0 2
0.220263 0.156518 1.924556 0 0 2
0.219501 0.157401 1.917889 0 0 2
0.219291 0.158674 1.916057 0 0 1
0.219277 0.160087 1.915940 0 0 0
0.219699 0.161821 1.919622 0 0 0
0.220064 0.163518 1.922812 0 0 0
0.220140 0.165003 1.923480 0 0 0
0.220106 0.166406 1.923179 0 0 0
0.220106 0.167834 1.923176 0 0 0
0.220051 0.169220 1.922697 0 0 0
0.219991 0.170602 1.922172 0 0 0
0.219776 0.176141 1.920299 0 0 2
0.217349 0.177017 1.899088 0 0 1
0.217327 0.178409 1.898898 0 0 0
0.216974 0.179527 1.895810 0 0 0
0.216858 0.180839 1.894800 1 0 0
0.216834 0.182226 1.894587 0 0 0
0.217390 0.184104 1.899447 0 0 0
0.218347 0.186332 1.907811 0 0 0
0.218419 0.187811 1.908439 0 0 0
0.218471 0.189273 1.908891 0 0 0
0.218863 0.191034 1.912322 0 0 0
0.218683 0.192296 1.910749 0 0 0
0.218047 0.193151 1.905187 0 0 0
0.219127 0.202641 1.914628 2 0 1
0.218604 0.203576 1.910058 1 0 0
0.217905 0.204339 1.903948 0 0 0
0.218032 0.205873 1.905058 0 0 0
0.218043 0.207299 1.905154 0 0 0
0.217863 0.208542 1.903581 0 0 0
0.279440 -0.384712 2.425867 166 163 170
0.278061 -0.381021 2.413899 163 161 166
0.267414 -0.361259 2.321470 156 157 162
0.276007 -0.347951 2.396069 73 79 93
0.274404 -0.344160 2.382146 80 86 100
0.261344 -0.326096 2.268775 71 77 89
0.261838 -0.325024 2.273063 46 53 63
0.261697 -0.323161 2.271836 19 26 34
0.260465 -0.319960 2.261143 6 13 19
0.259671 -0.317311 2.254253 7 14 20
0.259752 -0.315734 2.254953 12 19 24
0.260247 -0.314658 2.259250 14 22 27
0.261582 -0.314585 2.270837 8 15 21
0.261576 -0.312891 2.270786 1 6 12
0.261962 -0.311664 2.274137 0 3 10
0.262315 -0.310392 2.277200 0 5 12
0.262021 -0.308355 2.274652 0 5 12
0.262193 -0.306866 2.276139 0 3 11
0.262360 -0.305370 2.277589 0 4 12
0.262776 -0.304161 2.281209 0 8 13
0.262977 -0.302698 2.282953 0 9 13
0.262547 -0.300509 2.279216 0 10 12
0.262317 -0.298555 2.277224 0 10 12
0.261655 -0.296115 2.271476 0 9 11
0.261250 -0.293971 2.267958 0 7 10
0.261225 -0.292259 2.267743 0 6 10
0.261167 -0.290510 2.267236 1 6 10
0.261716 -0.289433 2.272002 0 5 9
0.261366 -0.287360 2.268961 0 4 8
0.259704 -0.283859 2.254539 0 3 8
0.259811 -0.282300 2.255464 0 3 8
0.258627 -0.279346 2.245182 0 2 7
0.258842 -0.277910 2.247054 0 2 7
0.260743 -0.278269 2.263557 1 2 7
0.262239 -0.278174 2.276541 1 2 7
0.260503 -0.274654 2.261473 0 2 7
0.262108 -0.274656 2.275408 0 3 7
0.264264 -0.275210 2.294119 0 3 8
0.263314 -0.272523 2.285872 0 4 8
0.264968 -0.272526 2.300230 0 4 8
0.264719 -0.270564 2.298070 0 4 8
0.262953 -0.267063 2.282742 0 4 8
0.259985 -0.262372 2.256972 0 4 9
0.260264 -0.260976 2.259400 0 4 10
0.259854 -0.258889 2.255841 0 2 10
0.259520 -0.255209 2.252937 0 2 9
0.261411 -0.255383 2.269354 0 2 8
0.262541 -0.254795 2.279164 0 2 7
0.262554 -0.253114 2.279276 1 2 6
0.265501 -0.252531 2.304858 1 2 3
0.264951 -0.250300 2.300086 1 2 4
0.266487 -0.250032 2.313416 1 2 5
0.265877 -0.247746 2.308124 1 2 6
0.264978 -0.245199 2.300319 1 2 7
0.263644 -0.242265 2.288741 1 1 7
0.262748 -0.239748 2.280965 1 1 9
0.263387 -0.238632 2.286505 1 1 8
0.263498 -0.237033 2.287472 1 2 7
0.263940 -0.235729 2.291310 0 1 6
0.263456 -0.233598 2.287109 0 1 5
0.262949 -0.231453 2.282705 0 1 4
0.262760 -0.229593 2.281068 0 1 3
0.264141 -0.229096 2.293054 0 1 3
0.263381 -0.226738 2.286457 0 1 5
0.255796 -0.216910 2.220609 0 1 5
0.255754 -0.215225 2.220248 0 0 4
0.256506 -0.212550 2.226776 0 0 3
0.258504 -0.212539 2.244116 0 0 2
0.255871 -0.208724 2.221264 0 1 2
0.262121 -0.210442 2.275520 0 3 2
0.256710 -0.202787 2.228544 0 2 6
0.255351 -0.200067 2.216744 0 2 7
0.254491 -0.197753 2.209285 0 2 7
0.256096 -0.197349 2.223218 0 2 9
0.255960 -0.195593 2.222029 0 1 9
0.254697 -0.192986 2.211069 0 1 9
0.256485 -0.192687 2.226591 0 1 9
0.256114 -0.190756 2.223369 0 1 9
0.256620 -0.189479 2.227765 0 1 8
0.256255 -0.187557 2.224595 0 2 7
0.255516 -0.185368 2.218176 0 4 8
0.254465 -0.182965 2.209055 0 4 8
0.254972 -0.181686 2.213459 0 5 9
0.254850 -0.179955 2.212397 0 8 11
0.255139 -0.178514 2.214906 4 14 16
0.254105 -0.176152 2.205927 11 22 24
0.253649 -0.174200 2.201968 13 29 29
0.253225 -0.172276 2.198289 24 42 42
0.253353 -0.170730 2.199398 19 39 38
0.254673 -0.169977 2.210859 14 34 33
0.255827 -0.169098 2.220877 12 32 31
0.255687 -0.167357 2.219664 13 32 31
0.256581 -0.166287 2.227427 15 32 32
0.256523 -0.164596 2.226925 14 28 29
0.256210 -0.162743 2.224202 12 24 26
0.256710 -0.161405 2.228544 10 23 26
0.257939 -0.160514 2.239211 10 24 27
0.257286 -0.158449 2.233541 10 24 27
0.259427 -0.158095 2.252129 6 20 23
0.259302 -0.156346 2.251043 3 14 17
0.257939 -0.153861 2.239211 1 12 14
0.259630 -0.153196 2.253896 1 12 14
0.259234 -0.151291 2.250456 0 12 14
0.257819 -0.148803 2.238170 5 19 22
0.258502 -0.147530 2.244102 16 31 34
0.257173 -0.145113 2.232562 23 41 45
0.256674 -0.143177 2.228231 23 42 47
0.257197 -0.141810 2.232776 20 40 47
0.256926 -0.140004 2.230419 19 41 47
0.255207 -0.134130 2.215497 18 38 51
0.255090 -0.132424 2.214477 17 36 51
0.254701 -0.127295 2.211108 16 31 42
0.253285 -0.124954 2.198807 14 28 38
0.253393 -0.123374 2.199751 10 23 31
0.252924 -0.121514 2.195681 6 19 25
0.252697 -0.119776 2.193707 11 23 28
0.253762 -0.118644 2.202951 7 17 20
0.252855 -0.114959 2.195080 0 3 6
0.252796 -0.113302 2.194565 0 3 4
0.252727 -0.111642 2.193971 0 1 3
0.252709 -0.110004 2.193808 0 0 0
0.253251 -0.108608 2.198519 1 0 0
0.253279 -0.106986 2.198762 0 0 0
0.253517 -0.105452 2.200824 0 0 0
0.253490 -0.102172 2.200587 0 0 0
0.259237 -0.101145 2.250479 0 0 0
0.253341 -0.095577 2.199294 1 0 3
0.251787 -0.093368 2.185806 0 0 5
0.253591 -0.092402 2.201470 0 1 5
0.253490 -0.090730 2.200587 0 0 7
0.250532 -0.084825 2.174908 0 1 6
0.251668 -0.081964 2.184775 0 1 5
0.254028 -0.081095 2.205260 0 1 6
0.255860 -0.080030 2.221169 1 2 7
0.255885 -0.078387 2.221378 1 2 7
0.251029 -0.075281 2.179230 1 2 7
0.253285 -0.074324 2.198807 1 2 7
0.256132 -0.073508 2.223526 1 2 7
0.254007 -0.071261 2.205076 1 2 7
0.253858 -0.069582 2.203790 1 2 7
0.250349 -0.065392 2.173323 1 2 7
0.249792 -0.063635 2.168488 1 2 7
0.249936 -0.062061 2.169739 1 2 7
0.242353 -0.055490 2.103913 1 2 7
0.240996 -0.053625 2.092133 1 2 7
0.240853 -0.052040 2.090884 1 1 7
0.259255 -0.052673 2.250638 0 1 7
0.260951 -0.051334 2.265357 0 2 8
0.259387 -0.047682 2.251787 0 5 9
0.242744 -0.041492 2.107306 0 7 11
0.242349 -0.039862 2.103876 0 8 12
0.241271 -0.038129 2.094514 0 9 13
0.239234 -0.036264 2.076834 0 9 15
0.240517 -0.034908 2.087967 0 9 17
0.238466 -0.033072 2.070162 0 8 18
0.238755 -0.031573 2.072678 0 8 18
0.239897 -0.030177 2.082587 0 8 19
0.239812 -0.028620 2.081850 0 9 21
0.240063 -0.027102 2.084031 0 9 21
0.240874 -0.025640 2.091069 0 9 22
0.242400 -0.024240 2.104320 0 9 23
0.240996 -0.022545 2.092133 0 9 23
0.240217 -0.020924 2.085361 0 9 23
0.240230 -0.019376 2.085476 0 9 23
0.238934 -0.017731 2.074229 0 9 23
0.238528 -0.016162 2.070705 0 9 23
0.236211 -0.014482 2.050593 0 10 24
0.235060 -0.012896 2.040596 0 12 25
0.233813 -0.011320 2.029773 0 12 26
0.227604 -0.008084 1.975873 0 12 26
0.229004 -0.006657 1.988020 0 12 26
0.229911 -0.005201 1.995901 0 12 26
0.229886 -0.003718 1.995681 0 12 24
0.229875 -0.002236 1.995585 0 11 22
0.229715 -0.000753 1.994200 0 11 20
0.230090 0.000730 1.997451 0 11 20
0.230112 0.002213 1.997639 0 11 20
0.228938 0.003678 1.987449 0 11 20
0.228318 0.005141 1.982067 0 11 19
0.227530 0.006590 1.975229 0 11 19
0.227076 0.008041 1.971286 0 11 19
0.227321 0.009515 1.973415 0 11 20
0.227252 0.010978 1.972812 0 12 20
0.227037 0.012432 1.970947 0 12 21
0.226996 0.013893 1.970593 0 13 21
0.227220 0.015372 1.972540 0 14 21
0.227313 0.016844 1.973344 0 15 21
0.226380 0.018234 1.965246 1 15 20
0.226571 0.019711 1.966905 1 15 22
0.227070 0.021218 1.971230 1 16 25
0.227074 0.022683 1.971273 1 17 29
0.226656 0.024103 1.967637 1 17 30
0.226548 0.025552 1.966706 1 17 30
0.226528 0.027010 1.966532 1 17 29
0.226134 0.028422 1.963108 0 16 29
0.226061 0.029870 1.962478 0 16 28
0.225756 0.031285 1.959823 0 16 26
0.225655 0.032727 1.958953 0 15 25
0.225374 0.034139 1.956515 0 14 23
0.224740 0.035492 1.951004 0 15 23
0.224396 0.036885 1.948024 0 15 22
0.223894 0.038246 1.943660 0 15 22
0.223400 0.039602 1.939372 1 16 23
0.222832 0.040938 1.934447 3 16 24
0.222687 0.042347 1.933182 3 16 25
0.223087 0.043862 1.936661 2 15 23
0.223156 0.045314 1.937255 2 13 19
0.223672 0.046861 1.941733 1 12 18
0.223676 0.048305 1.941773 1 10 17
0.224577 0.049947 1.949596 0 8 14
0.224713 0.051426 1.950770 0 6 12
0.224338 0.052787 1.947516 0 5 10
0.224043 0.054162 1.944953 0 4 8
0.224043 0.055607 1.944953 0 2 7
0.223481 0.056909 1.940081 0 1 5
0.223279 0.058297 1.938325 0 1 4
0.222728 0.059589 1.933541 0 1 3
0.222213 0.060885 1.929074 0 1 3
0.222296 0.063774 1.929792 0 1 3
0.222276 0.065201 1.929617 0 1 2
0.222005 0.066553 1.927262 0 1 2
0.222445 0.068120 1.931085 1 1 1
0.225815 0.070608 1.960343 1 1 1
0.225811 0.072063 1.960303 1 1 1
0.225583 0.073445 1.958328 1 1 1
0.225690 0.074935 1.959254 1 1 1
0.224879 0.076115 1.952213 1 1 1
0.224841 0.077552 1.951883 1 1 1
0.224189 0.078773 1.946222 1 1 1
0.223657 0.080028 1.941601 1 2 1
0.222956 0.081215 1.935524 0 2 1
0.222976 0.082660 1.935695 0 2 1
0.222559 0.083941 1.932074 0 2 1
0.222959 0.085529 1.935545 0 2 1
0.222816 0.086911 1.934305 0 2 1
0.223289 0.088535 1.938411 0 2 1
0.223424 0.090029 1.939581 0 2 1
0.223261 0.091403 1.938169 0 2 2
0.223097 0.092775 1.936748 0 2 2
0.223349 0.094320 1.938935 0 2 2
0.223992 0.096035 1.944510 0 2 2
0.223946 0.097460 1.944118 0 2 2
0.224029 0.098941 1.944835 0 2 2
0.223745 0.100258 1.942374 0 2 2
0.223610 0.101640 1.941202 0 2 2
0.223684 0.103115 1.941838 0 2 2
0.223618 0.104527 1.941264 0 1 2
0.223739 0.106026 1.942320 1 1 1
0.223221 0.107220 1.937818 1 1 1
0.222956 0.108530 1.935524 1 1 1
0.222545 0.109765 1.931952 1 1 1
0.222928 0.111392 1.935281 0 1 1
0.222905 0.112818 1.935079 0 1 1
0.222872 0.114238 1.934789 0 1 3
0.222813 0.115644 1.934279 0 1 3
0.222498 0.116916 1.931547 0 1 3
0.220866 0.117482 1.917373 0 1 3
0.220624 0.118776 1.915272 0 1 3
0.220611 0.120191 1.915161 0 1 3
0.221160 0.121917 1.919930 0 1 3
0.219943 0.122664 1.909365 0 0 2
0.219680 0.123934 1.907078 0 1 3
0.219914 0.125484 1.909109 0 1 3
0.220083 0.126999 1.910578 0 1 3
0.220171 0.128470 1.911340 0 1 3
0.220012 0.129796 1.909960 0 1 3
0.219943 0.131173 1.909365 0 1 3
0.220036 0.132648 1.910174 0 1 3
0.220156 0.134139 1.911209 0 1 3
0.219976 0.135448 1.909651 0 2 2
0.219619 0.136645 1.906552 0 2 1
0.219664 0.138089 1.906944 0 2 1
0.219963 0.139695 1.909539 0 2 1
0.219076 0.140545 1.901836 0 2 1
0.218659 0.141687 1.898217 0 2 1
0.218492 0.142988 1.896770 0 1 2
0.218980 0.144719 1.901003 0 1 3
0.219426 0.146428 1.904873 0 1 3
0.219560 0.147934 1.906037 0 1 3
0.220332 0.149875 1.912743 0 1 3
0.221332 0.153409 1.921424 1 1 3
0.221184 0.154733 1.920139 1 1 3
0.221148 0.156134 1.919823 1 1 3
0.220833 0.157335 1.917092 1 1 3
0.220831 0.158757 1.917068 0 0 1
0.220471 0.159921 1.913950 0 0 0
0.221057 0.161771 1.919037 0 0 0
0.221558 0.163567 1.923386 0 0 0
0.221622 0.165043 1.923941 0 0 0
0.221689 0.166522 1.924518 0 0 0
0.221739 0.167989 1.924953 0 0 0
0.221512 0.169246 1.922984 0 0 0
0.221227 0.170455 1.920514 0 0 0
0.219842 0.170805 1.908484 0 0 2
0.219961 0.172315 1.909517 0 0 2
0.219972 0.173743 1.909617 0 0 2
0.219969 0.175158 1.909586 0 0 2
0.219873 0.176500 1.908759 0 0 2
0.219113 0.177303 1.902160 0 0 1
0.218978 0.178605 1.900984 0 0 0
0.218725 0.179810 1.898793 0 0 0
0.218880 0.181348 1.900135 0 0 1
0.218174 0.182170 1.894005 0 0 1
0.218832 0.184130 1.899716 0 0 1
0.219065 0.185739 1.901741 0 0 1
0.219209 0.187275 1.902995 0 0 1
0.219239 0.188714 1.903249 0 0 1
0.219351 0.190225 1.904227 0 0 1
0.218870 0.191219 1.900049 0 0 1
0.218254 0.200532 1.894699 1 0 1
0.217916 0.201627 1.891771 2 0 1
0.217330 0.202486 1.886680 0 0 0
0.217314 0.203873 1.886544 0 0 0
0.217502 0.205451 1.888173 0 0 0
0.217277 0.206640 1.886223 0 0 0
0.217152 0.207921 1.885134 0 0 0
0.217422 0.217993 1.887478 0 0 0
0.269380 -0.356406 2.323557 158 159 164
0.270036 -0.355543 2.329211 152 153 158
0.276829 -0.357392 2.387801 143 147 150
0.274450 -0.343771 2.367285 84 88 100
0.273770 -0.341165 2.361417 105 110 122
0.263322 -0.326458 2.271295 109 115 125
0.261667 -0.322731 2.257026 85 91 99
0.262120 -0.321609 2.260929 47 53 60
0.261516 -0.319193 2.255718 18 25 29
0.261380 -0.317353 2.254552 8 15 18
0.261663 -0.316019 2.256987 13 20 23
0.261678 -0.314361 2.257118 15 22 25
0.262534 -0.313708 2.264504 7 13 18
0.263894 -0.313642 2.276232 0 4 10
0.263883 -0.311939 2.276141 0 1 7
0.264248 -0.310677 2.279289 0 3 9
0.264449 -0.309219 2.281020 0 3 9
0.264769 -0.307896 2.283777 0 2 8
0.264479 -0.305865 2.281278 0 3 8
0.264570 -0.304275 2.282067 0 6 10
0.264583 -0.302595 2.282176 1 9 12
0.264697 -0.301030 2.283160 1 11 14
0.264127 -0.298689 2.278243 1 11 14
0.263633 -0.296441 2.273978 0 9 12
0.263262 -0.294337 2.270780 0 7 10
0.262945 -0.292298 2.268047 0 7 10
0.263041 -0.290719 2.268873 1 6 10
0.263199 -0.289208 2.270240 0 5 9
0.261202 -0.285340 2.253011 0 4 8
0.262607 -0.285192 2.265128 0 4 8
0.261690 -0.282520 2.257220 0 2 7
0.261353 -0.280482 2.254319 0 2 7
0.263603 -0.281208 2.273724 0 2 7
0.262155 -0.277983 2.261230 0 2 7
0.262435 -0.276600 2.263652 0 2 7
0.262880 -0.275383 2.267483 0 2 7
0.263659 -0.274511 2.274209 0 3 8
0.264125 -0.273304 2.278229 0 3 8
0.265806 -0.273340 2.292721 0 4 8
0.266875 -0.272730 2.301946 0 4 8
0.265085 -0.269202 2.286505 0 4 8
0.264526 -0.265245 2.281686 0 4 10
0.263454 -0.259106 2.272438 0 2 11
0.262599 -0.253218 2.265060 0 2 6
0.264240 -0.253107 2.279216 0 2 5
0.266264 -0.253340 2.296672 0 2 3
0.265534 -0.250944 2.290375 1 2 2
0.265002 -0.248744 2.285794 1 2 3
0.266485 -0.248429 2.298581 1 2 5
0.265296 -0.245620 2.288325 1 2 6
0.264526 -0.243213 2.281686 1 2 7
0.263187 -0.240295 2.270133 1 1 7
0.263384 -0.238788 2.271836 1 1 9
0.263606 -0.237301 2.273750 1 1 8
0.263689 -0.235686 2.274466 1 2 7
0.263508 -0.233836 2.272906 0 1 6
0.263422 -0.232071 2.272159 0 1 5
0.262980 -0.229997 2.268348 0 1 4
0.263037 -0.228362 2.268841 0 1 3
0.263112 -0.226742 2.269489 0 1 3
0.262937 -0.224906 2.267978 0 1 5
0.262884 -0.223176 2.267518 0 1 5
0.259768 -0.213874 2.240641 0 0 3
0.259602 -0.212074 2.239211 0 0 2
0.255826 -0.207350 2.206643 0 1 2
0.260987 -0.209861 2.251155 0 2 2
0.262991 -0.209788 2.268446 0 2 2
0.259554 -0.205383 2.238794 0 3 4
0.258852 -0.203170 2.232746 0 3 6
0.255659 -0.197387 2.205198 0 2 7
0.256134 -0.196113 2.209301 0 2 9
0.258121 -0.195981 2.226441 0 2 9
0.255584 -0.192417 2.204556 0 2 9
0.257281 -0.192046 2.219191 0 2 9
0.256876 -0.190098 2.215701 0 2 9
0.257472 -0.188889 2.220837 0 2 9
0.256924 -0.186841 2.216109 0 4 8
0.256281 -0.184732 2.210570 0 6 9
0.255629 -0.182625 2.204947 1 8 11
0.255598 -0.180965 2.204677 2 11 14
0.255465 -0.179233 2.203524 4 15 17
0.256213 -0.178117 2.209980 10 21 23
0.254896 -0.175568 2.198617 15 31 31
0.254890 -0.173931 2.198566 19 38 38
0.254601 -0.172103 2.196075 26 45 45
0.253802 -0.169937 2.189187 17 38 37
0.255605 -0.169506 2.204736 11 31 30
0.257183 -0.168905 2.218346 10 30 29
0.257394 -0.167395 2.220170 13 31 31
0.257515 -0.165823 2.221213 17 33 33
0.257825 -0.164371 2.223885 15 29 30
0.258231 -0.162975 2.227384 11 22 24
0.256371 -0.160159 2.211346 10 23 26
0.258287 -0.159701 2.227867 10 24 27
0.260951 -0.159677 2.250850 10 23 27
0.261107 -0.158099 2.252195 6 20 23
0.260218 -0.155894 2.244529 3 14 16
0.258879 -0.153433 2.232976 1 12 14
0.261173 -0.153119 2.252760 1 12 14
0.262676 -0.152317 2.265723 0 12 14
0.259908 -0.149047 2.241847 6 21 24
0.258500 -0.146583 2.229702 16 33 37
0.258841 -0.145119 2.232649 23 42 48
0.260100 -0.144158 2.243507 23 43 49
0.259083 -0.141934 2.234731 19 41 47
0.257889 -0.139628 2.224438 18 41 49
0.257610 -0.136176 2.222029 17 41 51
0.255701 -0.133529 2.205564 17 39 52
0.254912 -0.128218 2.198762 15 33 47
0.253689 -0.125977 2.188205 15 31 44
0.253622 -0.124319 2.187628 14 28 39
0.253222 -0.122500 2.184179 10 24 33
0.252354 -0.120464 2.176694 6 19 27
0.252756 -0.119036 2.180160 13 24 30
0.252656 -0.117370 2.179295 7 18 21
0.253376 -0.116081 2.185508 1 8 9
0.252286 -0.113966 2.176110 0 3 6
0.253524 -0.112901 2.186787 0 3 4
0.252813 -0.110964 2.180653 0 1 3
0.253008 -0.109429 2.182336 0 0 0
0.254284 -0.108352 2.193343 1 0 0
0.254393 -0.106768 2.194279 0 0 0
0.254007 -0.104979 2.190948 0 0 0
0.257745 -0.103221 2.223191 0 0 0
0.260789 -0.101099 2.249448 0 0 0
0.251105 -0.092518 2.165924 0 0 4
0.254266 -0.092054 2.193188 0 1 5
0.253834 -0.090271 2.189459 0 0 7
0.252444 -0.083308 2.177474 0 1 5
0.251185 -0.081283 2.166613 0 1 5
0.255145 -0.080929 2.200764 0 1 6
0.256451 -0.079701 2.212034 1 2 7
0.255818 -0.077865 2.206572 1 2 7
0.251951 -0.075074 2.173218 1 2 7
0.253066 -0.073784 2.182831 1 2 7
0.255357 -0.072816 2.202595 1 2 7
0.254804 -0.071026 2.197830 1 2 7
0.253791 -0.069118 2.189088 1 2 7
0.253202 -0.067335 2.184004 1 2 7
0.250565 -0.065029 2.161260 1 2 7
0.249784 -0.063226 2.154523 1 2 7
0.249931 -0.061662 2.155796 1 2 7
0.239882 -0.053035 2.069118 1 1 7
0.239093 -0.051329 2.062306 1 1 8
0.239008 -0.049779 2.061579 1 1 9
0.259709 -0.052427 2.240138 0 1 9
0.262252 -0.051260 2.262071 0 2 9
