ply
format ascii 1.0
element vertex 1304
property float x
property float y
property float z
property uchar red
property uchar green
property uchar blue
end_header
0.019884 0.173994 2.046005 0 7 16
0.019921 0.175840 2.049808 0 8 17
0.020048 0.181557 2.062861 0 12 21
0.019944 0.185189 2.052173 2 16 25
0.019902 0.186319 2.047841 3 17 27
0.019887 0.187701 2.046329 1 17 27
0.019869 0.189050 2.044477 1 18 27
0.019280 0.184921 1.983884 1 18 27
0.019305 0.186629 1.986388 1 18 28
0.019832 0.197785 2.040596 2 19 26
0.020100 0.203539 2.068264 2 19 26
0.020021 0.204267 2.060107 2 19 26
0.019575 0.202711 2.014235 2 19 26
0.019918 0.207786 2.049536 2 19 26
0.019808 0.208143 2.038126 2 19 26
0.019507 0.206473 2.007177 2 19 27
0.019345 0.206239 1.990533 2 19 27
0.019312 0.207358 1.987084 2 19 27
0.019495 0.215293 2.006009 3 19 26
0.019749 0.224131 2.032100 0 6 16
0.019312 0.229504 1.987140 145 160 155
0.024457 -0.250937 2.337857 157 156 163
0.024354 -0.248156 2.328054 155 155 161
0.024355 -0.246434 2.328127 153 154 159
0.024406 -0.245219 2.333020 151 152 157
0.024445 -0.243870 2.336700 148 149 154
0.024455 -0.242231 2.337625 144 145 150
0.024354 -0.232593 2.328054 145 148 155
0.024489 -0.232136 2.340890 146 149 156
0.024341 -0.229006 2.326751 143 147 156
0.024470 -0.228485 2.339105 138 142 151
0.024375 -0.225869 2.330043 130 134 143
0.024351 -0.223916 2.327732 123 127 136
0.024281 -0.221552 2.321079 117 123 131
0.023824 -0.215688 2.277366 113 122 129
0.024252 -0.217838 2.318254 112 124 130
0.024300 -0.216546 2.322860 116 127 133
0.024256 -0.214426 2.318601 121 132 138
0.024232 -0.212498 2.316357 125 137 143
0.024142 -0.209990 2.307700 131 141 148
0.024079 -0.207734 2.301697 135 145 151
0.024119 -0.206373 2.305594 138 147 154
0.024073 -0.204265 2.301130 143 150 158
0.024113 -0.202893 2.304960 145 152 160
0.024200 -0.201904 2.313253 144 149 158
0.024227 -0.200409 2.315834 141 146 155
0.024193 -0.198414 2.312624 140 145 153
0.024144 -0.196299 2.307953 141 145 154
0.024164 -0.194742 2.309819 143 146 155
0.024169 -0.193070 2.310340 145 149 156
0.024232 -0.191854 2.316374 151 158 162
0.024354 -0.191085 2.327976 159 169 169
0.024371 -0.189494 2.329664 163 173 172
0.024350 -0.187597 2.327603 169 177 177
0.024033 -0.178335 2.297374 166 167 169
0.024000 -0.176384 2.294188 166 167 169
0.024082 -0.175272 2.301964 167 168 170
0.024089 -0.173618 2.302706 163 164 166
0.024126 -0.172167 2.306183 157 160 161
0.024117 -0.170392 2.305339 153 155 157
0.024124 -0.168727 2.305987 150 151 153
0.023354 -0.158369 2.232411 154 155 154
0.023413 -0.157104 2.238021 161 162 158
0.023287 -0.154607 2.226003 162 163 158
0.023330 -0.153239 2.230153 163 164 159
0.023263 -0.151143 2.223688 165 165 161
0.023127 -0.148620 2.210721 166 167 162
0.023095 -0.146777 2.207703 167 168 163
0.023093 -0.145125 2.207510 169 169 165
0.022836 -0.141888 2.182945 172 170 167
0.022559 -0.082502 2.156417 161 180 197
0.022557 -0.080894 2.156256 151 175 195
0.022696 -0.079781 2.169544 145 173 196
0.022734 -0.078298 2.173109 139 168 193
0.022533 -0.076007 2.153916 128 157 185
0.022394 -0.073948 2.140631 120 146 176
0.022571 -0.072931 2.157571 114 139 170
0.022535 -0.071215 2.154141 103 129 160
0.022524 -0.069580 2.153085 92 117 148
0.022537 -0.068021 2.154359 80 106 136
0.022512 -0.066348 2.151970 71 96 125
0.022539 -0.064826 2.154523 65 91 118
0.022483 -0.063067 2.149128 60 85 111
0.022431 -0.061330 2.144204 54 78 103
0.022454 -0.059799 2.146404 51 75 98
0.022520 -0.058375 2.152697 50 76 97
0.022491 -0.056704 2.149959 54 81 100
0.022470 -0.055054 2.147899 57 87 105
0.022508 -0.053550 2.151548 59 90 108
0.022475 -0.051875 2.148354 60 91 109
0.022462 -0.050250 2.147142 61 92 113
0.022517 -0.048775 2.152429 66 96 118
0.022486 -0.047111 2.149452 70 99 124
0.022437 -0.045415 2.144732 75 104 131
0.022425 -0.043798 2.143580 80 109 138
0.022314 -0.041997 2.132963 85 114 144
0.022255 -0.040307 2.127393 89 116 148
0.022246 -0.038712 2.126550 91 118 149
0.022241 -0.037122 2.125989 91 117 148
0.022257 -0.035570 2.127585 87 114 143
0.022201 -0.033904 2.122206 81 106 136
0.022279 -0.032442 2.129700 76 101 130
0.022260 -0.030833 2.127882 74 99 127
0.022260 -0.029253 2.127860 73 96 125
0.022243 -0.027651 2.126245 68 90 119
0.022338 -0.026183 2.135295 61 83 112
0.022216 -0.024463 2.123673 55 81 107
0.022153 -0.022820 2.117637 48 76 100
0.021926 -0.021030 2.095962 40 68 90
0.021918 -0.019465 2.095111 37 64 86
0.021826 -0.017834 2.086323 38 65 87
0.021806 -0.016270 2.084455 48 74 96
0.022103 -0.014922 2.112885 58 84 108
0.022053 -0.013322 2.108031 56 82 108
0.022112 -0.011788 2.113659 41 67 95
0.021589 -0.009976 2.063678 24 50 80
0.021755 -0.008508 2.079527 12 35 64
0.021698 -0.006945 2.074106 3 23 50
0.021747 -0.005417 2.078792 2 20 41
0.021640 -0.003854 2.068539 5 19 35
0.021577 -0.002311 2.062529 5 15 27
0.021645 -0.000781 2.069085 2 10 18
0.021497 0.000750 2.054888 0 9 17
0.021640 0.002292 2.068539 0 12 22
0.021566 0.003815 2.061473 2 18 30
0.021552 0.005343 2.060207 9 27 39
0.021441 0.006838 2.049536 20 40 51
0.021379 0.008336 2.043647 30 51 62
0.021452 0.009888 2.050581 30 51 60
0.021419 0.011393 2.047466 21 40 48
0.021430 0.012921 2.048539 7 23 30
0.021342 0.014383 2.040113 0 13 21
0.021255 0.015834 2.031791 0 12 22
0.021239 0.017330 2.030263 0 9 21
0.021302 0.018893 2.036228 1 12 28
0.021344 0.020447 2.040326 16 33 53
0.021259 0.021875 2.032203 43 63 87
0.021006 0.023106 2.008005 60 83 109
0.021136 0.024749 2.020372 64 89 113
0.021233 0.026370 2.029668 46 71 95
0.021327 0.028002 2.038702 25 47 70
0.021285 0.029458 2.034678 17 38 60
0.021415 0.032678 2.047036 23 42 60
0.021448 0.034251 2.050182 26 45 61
0.021480 0.035828 2.053300 22 41 56
0.021458 0.037314 2.051175 13 34 46
0.021445 0.038814 2.049910 8 30 41
0.021413 0.040278 2.046920 5 28 37
0.021559 0.042082 2.060822 5 26 35
0.021449 0.043390 2.050284 7 26 34
0.021366 0.044739 2.042368 7 25 32
0.021361 0.046245 2.041886 7 23 30
0.021388 0.047822 2.044443 6 21 27
0.021324 0.049194 2.038402 6 23 27
0.021244 0.050518 2.030738 5 23 29
0.021297 0.052155 2.035766 3 21 28
0.021223 0.053481 2.028707 2 19 28
0.021229 0.055003 2.029272 1 18 29
0.021241 0.056543 2.030436 0 18 30
0.021230 0.058022 2.029409 0 19 31
0.021262 0.059618 2.032432 0 19 30
0.021281 0.061182 2.034257 0 20 31
0.021271 0.062665 2.033347 0 19 28
0.021289 0.064228 2.034996 0 16 24
0.021365 0.065976 2.042332 0 14 21
0.021331 0.067384 2.039035 0 12 19
0.021296 0.068786 2.035711 0 11 18
0.021231 0.070082 2.029442 0 10 18
0.021295 0.071805 2.035567 0 11 19
0.021254 0.073177 2.031667 1 12 19
0.021270 0.074741 2.033168 0 13 19
0.021323 0.076441 2.038237 1 13 21
0.021263 0.077736 2.032494 1 13 21
0.021218 0.079081 2.028274 1 12 21
0.021168 0.080396 2.023448 1 10 20
0.021157 0.081855 2.022363 1 8 18
0.021127 0.083241 2.019558 1 6 17
0.021124 0.084727 2.019229 0 5 16
0.021018 0.085795 2.009109 0 5 16
0.020996 0.087195 2.006976 0 5 16
0.021009 0.088742 2.008257 0 6 17
0.021185 0.090991 2.025110 0 7 17
0.021163 0.092399 2.023012 0 8 17
0.021038 0.093347 2.011045 1 8 18
0.021037 0.094834 2.010914 1 9 18
0.021068 0.096472 2.013929 0 11 20
0.021043 0.097852 2.011541 0 12 21
0.020987 0.099081 2.006173 0 12 21
0.021042 0.100833 2.011400 0 13 21
0.020974 0.101996 2.004884 2 15 23
0.020949 0.103362 2.002499 4 18 26
0.020945 0.104832 2.002166 4 20 28
0.020856 0.105865 1.993625 4 21 29
0.020846 0.107296 1.992698 4 21 31
0.020938 0.109253 2.001439 3 21 32
0.020943 0.110766 2.001908 3 21 31
0.020968 0.112391 2.004364 3 21 31
0.020984 0.113963 2.005839 3 20 29
0.021029 0.115704 2.010196 4 19 27
0.020955 0.116784 2.003114 4 18 25
0.020931 0.118137 2.000834 5 18 24
0.020936 0.119652 2.001309 4 18 24
0.020931 0.121110 2.000834 4 19 24
0.020782 0.121720 1.986537 3 19 24
0.020822 0.126390 1.990368 2 20 24
0.020892 0.135713 1.997038 8 19 25
0.020738 0.140606 1.982368 2 17 22
0.020769 0.142292 1.985347 3 18 22
0.020716 0.143401 1.980295 4 19 22
0.020807 0.145508 1.988993 3 18 21
0.020899 0.147629 1.997706 2 16 19
0.021117 0.152174 2.018621 0 11 15
0.021125 0.155225 2.019308 0 9 11
0.020783 0.154195 1.986704 0 7 10
0.020945 0.156882 2.002166 0 6 10
0.021321 0.162727 2.038126 0 5 9
0.021353 0.164485 2.041152 0 5 9
0.021252 0.168230 2.031457 0 4 8
0.021467 0.171458 2.052033 0 4 9
0.021247 0.171213 2.031041 0 6 13
0.021331 0.173401 2.039035 0 6 14
0.021419 0.175635 2.047414 0 8 16
0.021559 0.178316 2.060822 0 9 18
0.021568 0.179923 2.061706 0 10 19
0.021347 0.181113 2.040596 0 13 21
0.021340 0.182562 2.039854 0 13 22
0.021370 0.184338 2.042741 3 17 25
0.021308 0.185319 2.036854 3 17 25
0.021261 0.192461 2.032386 0 18 28
0.021201 0.194923 2.026598 1 18 26
0.021153 0.195988 2.022049 2 19 26
0.021592 0.203120 2.064005 2 19 26
0.021543 0.204190 2.059330 2 19 26
0.020990 0.201931 2.006482 2 19 26
0.021146 0.204931 2.021381 2 19 26
0.021087 0.205851 2.015682 2 19 26
0.020850 0.205020 1.993056 2 19 27
0.020899 0.206989 1.997766 2 19 27
0.020733 0.206815 1.981878 2 19 27
0.020844 0.213838 1.992451 3 19 26
0.021128 0.221254 2.019619 0 5 14
0.020667 0.228163 1.975531 145 161 153
0.026322 -0.257401 2.349306 169 169 173
0.026363 -0.254305 2.352951 150 150 158
0.026174 -0.250751 2.336128 143 142 150
0.025912 -0.246527 2.312776 140 140 146
0.025974 -0.245389 2.318254 139 140 145
0.026141 -0.245240 2.333215 137 139 145
0.026096 -0.243086 2.329181 137 139 145
0.026146 -0.241814 2.333608 137 139 145
0.026180 -0.240394 2.336646 137 139 145
0.026950 -0.243895 2.405410 137 140 148
0.026787 -0.240637 2.390793 137 141 149
0.026084 -0.230864 2.328054 140 144 153
0.025979 -0.228219 2.318758 136 140 149
0.026079 -0.227361 2.327603 125 129 139
0.026088 -0.225717 2.328480 113 117 126
0.025982 -0.223075 2.318988 104 109 119
0.026062 -0.220308 2.326149 99 109 116
0.025661 -0.215219 2.290375 99 112 119
0.025867 -0.215228 2.308724 104 117 124
0.025873 -0.213559 2.309219 109 122 128
0.025869 -0.211813 2.308886 112 125 131
0.025848 -0.209925 2.306983 113 125 132
0.025812 -0.207921 2.303766 112 124 130
0.025833 -0.206380 2.305670 110 122 128
0.025896 -0.205166 2.311279 106 116 123
0.025865 -0.203209 2.308552 102 111 118
0.025865 -0.201495 2.308564 98 108 115
0.025914 -0.200155 2.312895 95 104 111
0.025953 -0.198735 2.316366 93 101 109
0.025815 -0.195972 2.304109 93 101 109
0.025796 -0.194113 2.302358 96 103 111
0.025868 -0.192942 2.308807 98 106 113
0.025902 -0.191482 2.311882 105 115 118
0.025952 -0.190129 2.316319 112 124 124
0.025943 -0.188342 2.315506 115 126 125
0.025981 -0.186896 2.318905 120 130 129
0.025906 -0.184639 2.312212 126 134 134
0.025844 -0.182483 2.306672 131 136 136
0.025763 -0.180204 2.299450 132 136 137
0.025719 -0.178193 2.295546 132 134 136
0.025685 -0.176252 2.292470 129 130 132
0.025710 -0.174722 2.294744 125 126 128
0.025794 -0.173579 2.302196 121 123 125
0.025710 -0.171313 2.294744 117 121 122
0.025701 -0.169544 2.293869 117 120 122
0.025487 -0.164754 2.274782 122 123 125
0.025141 -0.160854 2.243953 126 127 128
0.024811 -0.157096 2.214477 128 130 128
0.024993 -0.156588 2.230669 131 133 129
0.024934 -0.154566 2.225402 134 136 131
0.024867 -0.152506 2.219492 137 139 134
0.024841 -0.150695 2.217101 141 143 138
0.024772 -0.148638 2.210988 145 147 142
0.024784 -0.147065 2.212034 149 150 145
0.024641 -0.144584 2.199294 151 152 147
0.024423 -0.141688 2.179864 153 154 149
0.025849 -0.146530 2.307089 166 164 160
0.025817 -0.144640 2.304283 173 170 167
0.024206 -0.085867 2.160489 164 180 196
0.024184 -0.084185 2.158499 160 180 199
0.024185 -0.082585 2.158594 153 177 198
0.024208 -0.081058 2.160626 143 170 193
0.024254 -0.079605 2.164766 138 167 192
0.024287 -0.078104 2.167728 130 160 187
0.024056 -0.075765 2.147073 119 148 176
0.024113 -0.074346 2.152154 110 137 166
0.024074 -0.072631 2.148713 103 130 160
0.024085 -0.071067 2.149673 93 120 150
0.024130 -0.069601 2.153728 83 110 140
0.024091 -0.067891 2.150227 73 100 130
0.024037 -0.066145 2.145387 67 94 123
0.024059 -0.064611 2.147364 64 90 118
0.023989 -0.062831 2.141080 62 88 114
0.023976 -0.061209 2.139958 59 85 109
0.024020 -0.059729 2.143898 58 84 106
0.024097 -0.058322 2.150748 59 86 107
0.024073 -0.056668 2.148597 63 90 111
0.024118 -0.055174 2.152578 67 96 116
0.024088 -0.053509 2.149905 69 100 120
0.024077 -0.051888 2.148931 70 101 121
0.024071 -0.050281 2.148452 70 102 123
0.024045 -0.048631 2.146075 74 105 127
0.024030 -0.047008 2.144730 78 110 134
0.023893 -0.045156 2.132487 83 114 141
0.023808 -0.043418 2.124951 88 118 147
0.023722 -0.041688 2.117247 93 122 153
0.023712 -0.040098 2.116364 96 124 156
0.023772 -0.038624 2.121722 97 125 156
0.023734 -0.036989 2.118373 93 122 151
0.023714 -0.035385 2.116523 86 114 142
0.023683 -0.033770 2.113817 79 106 133
0.023708 -0.032233 2.115977 73 99 125
0.023761 -0.030730 2.120774 70 95 121
0.023727 -0.029113 2.117736 68 90 117
0.023745 -0.027560 2.119279 63 83 111
0.023739 -0.025981 2.118807 55 76 103
0.023673 -0.024339 2.112921 47 70 96
0.023513 -0.022615 2.098574 37 63 87
0.023489 -0.021035 2.096484 32 59 82
0.023482 -0.019472 2.095832 34 61 83
0.023388 -0.017844 2.087502 40 67 89
0.023561 -0.016414 2.102890 51 77 100
0.023489 -0.014807 2.096504 57 83 108
0.023454 -0.013230 2.093384 49 74 101
0.023558 -0.011726 2.102609 33 57 86
0.023329 -0.008519 2.082227 11 31 60
0.023335 -0.006974 2.082718 4 21 48
0.023256 -0.005409 2.075702 3 18 40
0.023131 -0.003846 2.064505 5 18 34
0.023165 -0.002316 2.067534 5 15 27
0.023165 -0.000781 2.067522 2 12 20
0.023207 0.000756 2.071307 0 10 18
0.023098 0.002284 2.061579 2 17 26
0.023180 0.003829 2.068874 11 30 40
0.022928 0.005307 2.046394 20 40 51
0.022831 0.006798 2.037719 24 46 57
0.022954 0.008357 2.048727 26 48 58
0.022923 0.009865 2.045977 21 42 50
0.022921 0.011384 2.045812 12 30 38
0.022875 0.012878 2.041687 3 18 25
0.022676 0.014269 2.023868 0 12 19
0.022688 0.015781 2.025007 0 10 18
0.022736 0.017321 2.029258 0 9 21
0.022779 0.018864 2.033121 6 21 37
0.022754 0.020352 2.030900 28 46 68
0.022671 0.021781 2.023476 52 73 99
0.022616 0.023227 2.018558 65 88 116
0.022574 0.024680 2.014798 59 83 108
0.022647 0.026262 2.021344 40 62 86
0.022721 0.027854 2.027967 23 44 66
0.022812 0.029478 2.036056 17 36 57
0.022965 0.031197 2.049668 16 35 53
0.022923 0.032660 2.045950 17 36 52
0.022916 0.034169 2.045288 20 39 54
0.022954 0.035747 2.048690 17 36 50
0.023087 0.037485 2.060570 12 32 45
0.022994 0.038859 2.052303 8 30 41
0.023113 0.040592 2.062897 5 27 36
0.023062 0.042032 2.058354 4 25 34
0.022957 0.043362 2.048975 6 25 33
0.022831 0.044639 2.037780 7 25 32
0.022900 0.046291 2.043898 7 23 29
0.022843 0.049204 2.038816 5 20 25
0.022822 0.050672 2.036933 6 21 26
0.022803 0.052141 2.035236 5 21 27
0.022780 0.053598 2.033150 3 19 27
0.022735 0.055002 2.029219 0 17 28
0.022770 0.056595 2.032298 0 16 28
0.022797 0.058172 2.034678 0 16 29
0.022858 0.059844 2.040159 0 17 30
0.022882 0.061423 2.042256 0 20 31
0.022836 0.062814 2.038171 3 24 35
0.022876 0.064440 2.041724 6 27 35
0.022888 0.065991 2.042791 3 22 29
0.022875 0.067471 2.041658 0 14 21
0.022845 0.068897 2.038990 0 9 16
0.022815 0.070319 2.036299 0 8 15
0.022777 0.071711 2.032900 0 9 16
0.022821 0.073363 2.036845 0 9 16
0.022843 0.074949 2.038816 0 10 16
0.022757 0.076176 2.031159 1 11 18
0.022740 0.077626 2.029613 2 11 19
0.022709 0.079024 2.026824 2 10 19
0.022645 0.080304 2.021140 1 8 18
0.022656 0.081847 2.022164 0 6 16
0.022582 0.083075 2.015517 0 3 14
0.022504 0.084280 2.008560 0 3 14
0.022449 0.085564 2.003690 0 3 14
0.022464 0.087107 2.004963 0 4 14
0.022536 0.088883 2.011448 0 5 15
0.022557 0.090460 2.013282 0 7 17
0.022528 0.091838 2.010712 0 9 18
0.022497 0.093201 2.007907 1 10 19
0.022480 0.094623 2.006432 1 11 21
0.022501 0.096200 2.008245 0 12 22
0.022469 0.097553 2.005390 0 12 23
0.022448 0.098952 2.003561 0 13 23
0.022481 0.100586 2.006463 0 14 23
0.022451 0.101942 2.003830 1 15 24
0.022405 0.103217 1.999702 3 17 26
0.022365 0.104515 1.996114 3 19 29
0.022329 0.105830 1.992961 3 21 31
0.022391 0.107608 1.998487 3 20 32
0.022438 0.109319 2.002651 2 20 32
0.022416 0.110698 2.000679 2 20 31
0.022451 0.112362 2.003855 3 20 30
0.022459 0.113887 2.004502 4 20 29
0.022434 0.115251 2.002335 6 20 28
0.022416 0.116644 2.000713 8 20 27
0.022387 0.117976 1.998104 8 19 25
0.022399 0.119524 1.999171 8 21 26
0.022438 0.121218 2.002628 8 22 27
0.022339 0.122164 1.993795 6 22 27
0.022381 0.123880 1.997582 4 22 26
0.022388 0.125401 1.998175 3 21 25
0.022426 0.127103 2.001608 2 20 24
0.022455 0.128755 2.004168 3 20 24
0.022476 0.130364 2.006024 3 19 24
0.022455 0.131732 2.004168 4 18 23
0.022477 0.133354 2.006173 3 16 22
0.022423 0.134521 2.001367 4 16 22
0.022369 0.135679 1.996536 5 16 22
0.022380 0.137229 1.997511 4 16 22
0.022382 0.138723 1.997656 3 16 22
0.022279 0.139561 1.988457 3 16 22
0.022196 0.140513 1.981063 2 16 22
0.022155 0.141721 1.977386 3 16 21
0.022205 0.143515 1.981878 3 17 20
0.022296 0.145579 1.989958 2 16 19
0.022288 0.147005 1.989253 1 15 18
0.022455 0.149595 2.004168 0 13 16
0.022429 0.150914 2.001908 0 11 15
0.022384 0.152094 1.997880 0 11 15
0.022432 0.153907 2.002166 1 11 13
0.022390 0.155101 1.998385 1 8 11
0.022258 0.155660 1.986578 0 5 8
0.022607 0.161097 2.017711 0 4 8
0.022896 0.164679 2.043567 0 4 8
0.022953 0.166611 2.048659 0 4 7
0.022865 0.167486 2.040770 0 4 7
0.022786 0.168419 2.033740 0 4 7
0.022969 0.171293 2.050057 0 4 8
0.022729 0.171013 2.028673 0 6 12
0.022906 0.175377 2.044404 0 7 14
0.022935 0.177119 2.046989 0 8 16
0.022974 0.178945 2.050494 0 9 17
0.022991 0.180604 2.052033 0 11 18
0.022772 0.181904 2.032507 0 12 20
0.022750 0.184746 2.030557 2 16 24
0.022817 0.194363 2.036502 0 18 26
0.022664 0.194561 2.022834 1 18 25
0.022935 0.199929 2.047031 1 18 25
0.022989 0.201925 2.051858 1 18 25
0.022930 0.202930 2.046622 1 18 25
0.022905 0.204227 2.044390 1 18 25
0.022312 0.203372 1.991414 1 18 26
0.022281 0.204564 1.988621 2 19 26
0.022306 0.206277 1.990899 2 19 26
0.022211 0.206866 1.982368 2 19 27
0.022183 0.208083 1.979938 2 19 27
0.022192 0.209636 1.980719 2 19 27
0.022252 0.211675 1.986040 2 19 27
0.022167 0.212336 1.978456 3 18 26
0.022376 0.218792 1.997143 0 5 15
0.022131 0.226664 1.975253 139 154 147
0.021979 0.226563 1.961678 145 161 152
0.027875 -0.259109 2.333257 169 169 168
0.027865 -0.257286 2.332449 160 160 162
0.028025 -0.257019 2.345823 150 150 154
0.028085 -0.255819 2.350803 140 141 146
0.027977 -0.253102 2.341825 133 133 141
0.027524 -0.245582 2.303911 129 129 136
0.027902 -0.243748 2.335530 131 134 141
0.027873 -0.241764 2.333123 133 136 143
0.027901 -0.240271 2.335457 134 137 144
0.028202 -0.241107 2.360620 134 137 146
0.028405 -0.241073 2.377581 134 137 146
0.028312 -0.238531 2.369871 128 132 141
0.027705 -0.228245 2.319017 117 121 132
0.027795 -0.227260 2.326569 105 109 120
0.027786 -0.225458 2.325803 94 98 109
0.027631 -0.219047 2.312835 88 99 108
0.027595 -0.217042 2.309778 89 103 110
0.027457 -0.214252 2.298252 92 107 114
0.027518 -0.213017 2.303366 94 109 116
0.027592 -0.211879 2.309606 94 108 115
0.027514 -0.209568 2.303061 90 104 112
0.027491 -0.207681 2.301105 85 99 106
0.027609 -0.206854 2.310960 81 94 102
0.027597 -0.205048 2.309955 67 80 88
0.027564 -0.203091 2.307215 57 68 77
0.027591 -0.201572 2.309448 54 65 73
0.027601 -0.199933 2.310324 50 61 70
0.027625 -0.198389 2.312332 48 59 67
0.027576 -0.196324 2.308254 48 59 67
0.027546 -0.194398 2.305741 50 60 69
0.027576 -0.192893 2.308226 52 63 70
0.027694 -0.192000 2.318144 49 61 65
0.027672 -0.190122 2.316236 44 57 57
0.027694 -0.188553 2.318099 43 54 54
0.027714 -0.186968 2.319793 45 54 55
0.027647 -0.184795 2.314169 51 58 61
0.027549 -0.182428 2.305967 60 65 68
0.027584 -0.180944 2.308896 66 70 73
0.027543 -0.178960 2.305425 68 72 75
0.027411 -0.176400 2.294408 69 73 76
0.027444 -0.174909 2.297199 68 72 75
0.027573 -0.174013 2.307953 70 74 77
0.027584 -0.172373 2.308938 74 78 80
0.027592 -0.170704 2.309564 80 84 87
0.027494 -0.168391 2.301401 88 92 95
0.026670 -0.156711 2.232411 111 115 111
0.026543 -0.154315 2.221788 115 119 113
0.026445 -0.152097 2.213537 121 125 119
0.026414 -0.150280 2.210988 128 132 126
0.026456 -0.148872 2.214477 136 139 133
0.026354 -0.146660 2.205949 143 144 139
0.026389 -0.145212 2.208847 147 149 144
0.027525 -0.146333 2.303990 167 166 162
0.027576 -0.144889 2.308239 173 171 168
0.025851 -0.082785 2.163829 146 173 198
0.025807 -0.081040 2.160156 136 165 191
0.025804 -0.079428 2.159943 129 159 186
0.025709 -0.077535 2.151925 121 151 178
0.025758 -0.076083 2.156072 108 136 164
0.025667 -0.074217 2.148415 97 124 151
0.025541 -0.072266 2.137907 90 117 145
0.025568 -0.070753 2.140179 81 108 136
0.025678 -0.069459 2.149327 72 99 128
0.025664 -0.067827 2.148210 66 93 121
0.025611 -0.066094 2.143729 63 89 117
0.025480 -0.064173 2.132807 62 88 114
0.025464 -0.062549 2.131454 60 86 111
0.025637 -0.061379 2.145895 60 86 110
0.025703 -0.059939 2.151428 61 88 110
0.025694 -0.058320 2.150675 64 91 112
0.025685 -0.056703 2.149913 69 96 117
0.025682 -0.055101 2.149717 73 102 123
0.025655 -0.053448 2.147453 75 107 127
0.025649 -0.051840 2.146932 77 109 130
0.025618 -0.050185 2.144365 81 114 134
0.025451 -0.048275 2.130352 85 120 140
0.025375 -0.046554 2.124030 88 122 143
0.025295 -0.044835 2.117328 91 123 148
0.025225 -0.043141 2.111412 93 124 151
0.025259 -0.041629 2.114250 94 123 153
0.025289 -0.040107 2.116822 92 121 151
0.025300 -0.038551 2.117708 90 120 149
0.025258 -0.036917 2.114210 87 116 143
0.025273 -0.035367 2.115464 80 109 133
0.025180 -0.033672 2.107704 72 100 122
0.025265 -0.032214 2.114751 65 91 113
0.025284 -0.030667 2.116369 61 85 108
0.025295 -0.029107 2.117298 58 79 104
0.025260 -0.027497 2.114383 53 72 97
0.025235 -0.025900 2.112247 46 64 90
0.025079 -0.024181 2.099240 36 56 82
0.025066 -0.022610 2.098106 26 50 74
0.024955 -0.020958 2.088813 25 51 74
0.025033 -0.019468 2.095375 33 59 82
0.024865 -0.017791 2.081326 44 70 93
0.024955 -0.016304 2.088804 54 79 103
0.024932 -0.014739 2.086890 54 79 105
0.024878 -0.013160 2.082427 40 64 91
0.024916 -0.011631 2.085568 26 47 75
0.024714 -0.010000 2.068640 19 36 65
0.024870 -0.008517 2.081753 11 27 55
0.024841 -0.006963 2.079312 4 19 45
0.024708 -0.005389 2.068189 2 16 37
0.024678 -0.003849 2.065656 3 15 31
0.024579 -0.002305 2.057386 2 14 26
0.024682 -0.000780 2.066010 1 13 22
0.024636 0.000753 2.062147 0 16 24
0.024631 0.002284 2.061719 9 28 36
0.024563 0.003805 2.056042 22 45 55
0.024342 0.005284 2.037569 30 53 64
0.024417 0.006819 2.043776 27 50 61
0.024421 0.008338 2.044132 20 41 52
0.024466 0.009875 2.047904 12 30 41
0.024425 0.011377 2.044443 4 21 30
0.024252 0.012804 2.029996 0 15 23
0.024135 0.014243 2.020205 0 11 19
0.024217 0.015796 2.027030 0 7 16
0.024250 0.017326 2.029790 0 11 25
0.024275 0.018853 2.031902 17 33 51
0.024274 0.020362 2.031848 44 63 86
0.024084 0.021699 2.015900 61 84 111
0.024041 0.023156 2.012369 67 90 119
0.024069 0.024679 2.014696 52 73 100
0.024081 0.026188 2.015682 33 51 76
0.024169 0.027786 2.023012 22 39 62
0.024304 0.029453 2.034345 17 35 56
0.024296 0.030953 2.033656 13 31 49
0.024327 0.032506 2.036310 10 29 45
0.024442 0.034178 2.045859 12 31 45
0.024345 0.035558 2.037812 11 30 44
0.024507 0.037317 2.051333 7 28 40
0.024620 0.039021 2.060822 5 27 38
0.024533 0.040408 2.053535 4 25 34
0.024474 0.041831 2.048539 4 24 33
0.024308 0.043059 2.034678 4 24 31
0.024377 0.044697 2.040457 5 22 29
0.024359 0.046180 2.038990 5 20 26
0.024371 0.047716 2.039936 3 17 23
0.024299 0.049087 2.033941 3 16 21
0.024274 0.050545 2.031814 4 18 21
0.024251 0.052005 2.029901 5 18 24
0.024221 0.053447 2.027406 3 17 25
0.024211 0.054931 2.026590 0 14 25
0.024202 0.056413 2.025787 0 12 26
0.024202 0.057919 2.025816 0 14 28
0.024266 0.059580 2.031159 0 17 31
0.024275 0.061111 2.031902 2 24 36
0.024197 0.062420 2.025395 14 37 48
0.024182 0.063885 2.024143 22 44 53
0.024318 0.065755 2.035488 13 34 41
0.024350 0.067356 2.038171 2 17 24
0.024410 0.069041 2.043243 0 11 17
0.024272 0.070160 2.031690 1 10 16
0.024270 0.071661 2.031484 0 8 14
0.024320 0.073323 2.035711 0 7 13
0.024262 0.074654 2.030801 0 8 14
0.024199 0.075966 2.025565 0 9 16
0.024189 0.077439 2.024735 1 9 17
0.024177 0.078902 2.023693 2 8 17
0.024153 0.080327 2.021709 1 7 16
0.024099 0.081645 2.017184 1 5 15
0.023988 0.082760 2.007879 0 4 14
0.023947 0.084106 2.004424 0 3 13
0.024019 0.085854 2.010484 0 3 13
0.023977 0.087194 2.006967 0 4 14
0.023995 0.088754 2.008524 0 5 15
0.024034 0.090391 2.011748 0 6 16
0.024026 0.091853 2.011045 0 8 17
0.023993 0.093221 2.008350 0 8 19
0.023997 0.094727 2.008654 0 9 20
0.023994 0.096208 2.008421 0 13 24
0.024002 0.097730 2.009045 0 15 26
0.023971 0.099098 2.006515 0 15 25
0.024006 0.100735 2.009445 1 16 26
0.023941 0.101949 2.003963 3 18 27
0.023789 0.102779 1.991218 4 20 28
0.023776 0.104203 1.990155 4 21 31
0.023740 0.105521 1.987140 5 22 32
0.023808 0.107302 1.992804 4 22 34
0.023896 0.109184 2.000169 4 22 34
0.023905 0.110712 2.000941 4 22 33
0.023918 0.112258 2.002004 4 22 31
0.023900 0.113664 2.000568 4 22 29
0.023824 0.114783 1.994200 5 21 28
0.023813 0.116209 1.993255 6 20 26
0.023805 0.117648 1.992548 6 19 25
0.023857 0.119392 1.996958 7 20 26
0.023915 0.121165 2.001752 7 22 27
0.023796 0.122044 1.991822 5 22 26
0.023797 0.123529 1.991913 4 22 26
0.023809 0.125072 1.992934 3 21 25
0.023900 0.127035 2.000531 2 20 24
0.023918 0.128617 2.002023 2 19 24
0.023929 0.130167 2.002990 4 19 24
0.023875 0.131357 1.998460 3 17 22
0.023866 0.132788 1.997656 2 15 21
0.023928 0.134621 2.002862 2 14 20
0.023906 0.135983 2.001009 3 14 20
0.023837 0.137072 1.995226 2 14 20
0.023857 0.138675 1.996968 2 15 21
0.023702 0.139248 1.983992 2 15 21
0.023528 0.139685 1.969386 2 15 21
0.023495 0.140949 1.966612 2 15 20
0.023607 0.143091 1.976018 1 15 18
0.023850 0.146046 1.996347 1 15 18
0.023824 0.147370 1.994200 0 14 17
0.023855 0.149041 1.996746 0 13 16
0.023798 0.150167 1.991998 1 12 16
0.023849 0.153456 1.996290 2 11 14
0.023899 0.155264 2.000484 1 9 12
0.023945 0.160029 2.004332 0 4 6
0.024091 0.162497 2.016487 0 4 5
0.024416 0.166208 2.043696 0 4 5
0.024206 0.166289 2.026185 0 4 5
0.024153 0.167424 2.021719 0 4 6
0.024154 0.171932 2.021759 0 7 13
0.024038 0.178581 2.012070 0 11 17
0.024027 0.179994 2.011161 0 11 18
0.024029 0.181500 2.011296 0 15 21
0.024006 0.182821 2.009391 0 15 22
0.023928 0.188182 2.002916 0 17 25
0.024036 0.192018 2.011925 1 18 26
0.023969 0.192970 2.006295 0 17 23
0.024140 0.195852 2.020647 0 17 22
0.024206 0.197890 2.026152 0 18 22
0.024276 0.199972 2.032017 0 18 22
0.024157 0.201995 2.022049 0 18 22
0.024097 0.202989 2.016999 0 17 23
0.023803 0.203473 1.992398 1 18 25
0.023697 0.204041 1.983534 2 19 26
0.023683 0.205394 1.982368 2 19 26
0.023627 0.206376 1.977675 2 19 27
0.023534 0.207025 1.969875 2 19 27
0.023551 0.208642 1.971323 2 19 27
0.023658 0.212533 1.980295 3 18 27
0.023454 0.212155 1.963184 7 19 28
0.023734 0.217644 1.986672 0 6 18
0.023438 0.225125 1.961846 143 159 148
0.023327 0.225512 1.952580 146 162 149
0.029536 -0.261939 2.327603 165 165 163
0.029494 -0.259834 2.324240 165 165 163
0.029535 -0.258470 2.327510 160 162 161
0.029591 -0.257224 2.331885 150 151 152
0.029709 -0.256518 2.341248 136 137 140
0.029711 -0.254790 2.341349 126 127 133
0.029628 -0.252347 2.334832 124 125 133
0.029523 -0.249720 2.326523 126 126 136
0.029516 -0.244478 2.325973 127 130 137
0.029512 -0.242717 2.325648 129 132 139
0.029504 -0.240925 2.325021 128 131 139
0.029522 -0.239344 2.326446 125 128 136
0.029624 -0.238444 2.334549 122 125 134
0.029863 -0.238614 2.353327 119 123 132
0.029778 -0.236196 2.346675 112 116 126
0.029744 -0.234179 2.343931 109 113 123
0.029522 -0.230710 2.326506 104 108 119
0.029273 -0.227047 2.306846 97 101 112
0.029255 -0.225195 2.305425 87 92 103
0.029413 -0.224689 2.317874 81 86 97
0.029504 -0.223658 2.325054 79 85 97
0.029443 -0.221474 2.320267 80 87 99
0.029365 -0.219165 2.314077 75 86 95
0.029235 -0.216489 2.303891 71 85 93
0.029342 -0.215562 2.312306 71 86 94
0.029166 -0.212563 2.298455 70 84 92
0.029203 -0.211120 2.301330 65 81 88
0.029215 -0.209497 2.302285 59 75 82
0.029287 -0.208299 2.307953 53 68 75
0.029375 -0.207206 2.314898 48 63 70
0.029338 -0.205224 2.311937 38 54 61
0.029269 -0.203034 2.306567 32 47 54
0.029312 -0.201614 2.309923 30 45 52
0.029276 -0.199653 2.307089 27 42 50
0.029237 -0.197677 2.304033 25 41 48
0.029213 -0.195802 2.302116 25 40 47
0.029203 -0.194026 2.301330 26 41 48
0.029180 -0.192169 2.299561 27 42 48
0.029180 -0.190460 2.299549 22 37 40
0.029250 -0.189200 2.305005 13 27 28
0.029235 -0.187391 2.303821 8 21 21
0.029218 -0.185574 2.302500 8 19 20
0.029189 -0.183682 2.300230 14 23 24
0.029146 -0.181704 2.296816 23 29 32
0.029176 -0.180186 2.299215 30 35 38
0.029159 -0.178374 2.297875 33 38 41
0.029093 -0.176268 2.292686 34 38 41
0.029064 -0.174389 2.290375 34 38 41
0.029123 -0.173039 2.295027 39 43 46
0.029185 -0.171696 2.299879 47 51 54
0.029163 -0.169861 2.298154 58 62 65
0.029009 -0.167266 2.286022 70 74 77
0.029072 -0.165927 2.290984 83 85 89
0.028277 -0.159734 2.228323 92 94 97
0.028201 -0.156003 2.222332 103 109 104
0.028019 -0.153359 2.208035 107 114 107
0.028094 -0.152124 2.213921 113 119 113
0.028081 -0.150409 2.212883 121 126 120
0.027987 -0.148269 2.205502 129 133 128
0.028023 -0.146822 2.208379 136 139 134
0.028071 -0.145427 2.212113 141 143 138
0.028142 -0.144150 2.217743 150 151 146
0.028498 -0.144306 2.245812 160 162 157
0.029109 -0.143992 2.293949 169 169 165
0.029040 -0.141950 2.288507 173 172 168
0.027568 -0.089571 2.172482 167 186 204
0.027418 -0.082664 2.160661 138 169 198
0.027399 -0.081003 2.159166 127 158 186
0.027378 -0.077735 2.157489 110 139 166
0.027300 -0.075917 2.151367 95 123 148
0.027160 -0.073938 2.140356 83 110 134
0.027277 -0.072660 2.149577 77 104 129
0.027022 -0.070398 2.129438 69 97 123
0.027113 -0.069050 2.136657 63 90 117
0.027201 -0.067682 2.143598 59 86 112
0.026963 -0.065511 2.124841 58 84 110
0.026908 -0.063801 2.120471 58 84 109
0.027159 -0.062807 2.140265 57 83 108
0.027156 -0.061210 2.140007 58 82 107
0.027167 -0.059646 2.140905 62 86 109
0.027188 -0.058100 2.142544 67 93 114
0.027188 -0.056509 2.142550 71 99 120
0.027186 -0.054913 2.142383 76 104 126
0.027170 -0.053291 2.141159 79 109 130
0.027070 -0.051510 2.133245 82 113 133
0.026948 -0.049700 2.123617 90 122 140
0.026858 -0.047961 2.116509 97 130 147
0.026810 -0.046307 2.112765 99 131 150
0.026797 -0.044716 2.111706 99 130 152
0.026822 -0.043189 2.113739 98 127 153
0.026846 -0.041656 2.115624 95 123 151
0.026842 -0.040078 2.115289 90 117 145
0.026829 -0.038488 2.114250 85 113 139
0.026850 -0.036947 2.115924 78 106 129
0.026798 -0.035307 2.111838 68 96 116
0.026767 -0.033699 2.109369 59 86 105
0.026829 -0.032207 2.114280 51 76 94
0.026870 -0.030683 2.117507 48 70 88
0.026803 -0.029038 2.112230 45 64 84
0.026772 -0.027437 2.109764 40 57 79
0.026653 -0.025755 2.100406 34 50 73
0.026614 -0.024159 2.097307 24 43 66
0.026550 -0.022546 2.092226 18 40 63
0.026621 -0.021049 2.097842 23 48 70
0.026616 -0.019487 2.097448 37 63 85
0.026413 -0.017793 2.081496 50 75 98
0.026309 -0.016182 2.073254 57 81 105
0.026491 -0.014744 2.087647 52 74 99
0.026203 -0.009982 2.064950 18 32 60
0.026300 -0.008480 2.072540 12 25 51
0.026283 -0.006936 2.071206 5 18 41
0.026066 -0.005353 2.054104 1 13 33
0.026132 -0.003837 2.059289 0 11 27
0.026142 -0.002308 2.060107 0 12 26
0.026112 -0.000777 2.057745 0 15 26
0.026148 0.000753 2.060585 6 27 35
0.026039 0.002274 2.051959 19 44 51
0.025912 0.003779 2.041960 32 58 66
0.025903 0.005294 2.041284 34 59 69
0.025917 0.006814 2.042417 25 47 58
0.025974 0.008349 2.046898 13 33 44
0.025913 0.009847 2.042080 5 23 33
0.025867 0.011343 2.038466 2 17 26
0.025689 0.012769 2.024405 0 13 21
0.025698 0.014277 2.025087 0 9 17
0.025755 0.015817 2.029608 0 6 15
0.025749 0.017320 2.029121 5 17 30
0.025824 0.018882 2.035041 29 47 65
0.025700 0.020296 2.025295 57 77 101
0.025487 0.021620 2.008524 65 87 117
0.025505 0.023127 2.009890 62 84 116
0.025537 0.024651 2.012425 43 62 90
0.025640 0.026252 2.020580 26 42 68
0.025754 0.027876 2.029529 20 36 60
0.025763 0.029394 2.030282 19 35 57
0.025761 0.030899 2.030053 11 30 48
0.025807 0.032465 2.033718 5 24 40
0.025808 0.033976 2.033754 6 25 40
0.025900 0.035614 2.041052 7 26 40
0.025931 0.037174 2.043453 4 25 37
0.025954 0.038727 2.045310 3 24 35
0.025980 0.040286 2.047326 2 22 31
0.025837 0.041576 2.036056 1 21 28
0.025792 0.043014 2.032555 2 20 27
0.025809 0.044553 2.033853 3 19 26
0.025757 0.045971 2.029773 3 17 23
0.025742 0.047452 2.028623 2 14 19
0.025739 0.048952 2.028344 2 13 16
0.025720 0.050421 2.026856 3 14 16
0.025660 0.051806 2.022151 3 14 19
0.025623 0.053232 2.019251 1 12 20
0.025630 0.054745 2.019727 0 8 20
0.025641 0.056271 2.020664 0 10 24
0.025566 0.057602 2.014729 0 18 32
0.025632 0.059251 2.019943 4 26 40
0.025636 0.060760 2.020205 14 37 51
0.025560 0.062076 2.014235 30 53 66
0.025541 0.063525 2.012727 34 57 68
0.025530 0.064992 2.011873 17 38 46
0.025757 0.067077 2.029734 3 18 25
0.025855 0.068847 2.037517 2 14 20
0.025827 0.070283 2.035252 5 14 20
0.025889 0.071969 2.040200 1 7 13
0.025805 0.073245 2.033550 0 5 11
0.025771 0.074658 2.030908 0 7 12
0.025757 0.076123 2.029734 0 7 14
0.025719 0.077517 2.026767 0 7 15
0.025667 0.078864 2.022720 0 7 15
0.025592 0.080132 2.016801 1 6 15
0.025545 0.081480 2.013096 1 5 14
0.025605 0.083168 2.017792 1 4 13
0.025581 0.084587 2.015878 0 4 12
0.025530 0.085913 2.011858 0 4 11
0.025484 0.087250 2.008237 0 5 12
0.025493 0.088774 2.008988 0 6 15
0.025515 0.090342 2.010671 0 7 17
0.025575 0.092053 2.015427 0 9 19
0.025563 0.093508 2.014517 0 9 21
0.025496 0.094753 2.009189 0 10 23
0.025563 0.096498 2.014463 0 15 26
0.025490 0.097717 2.008770 1 18 28
0.025457 0.099077 2.006103 2 19 29
0.025438 0.100496 2.004669 3 20 30
0.025330 0.101549 1.996112 4 21 31
0.025206 0.102529 1.986359 5 23 33
0.025223 0.104075 1.987712 6 23 33
0.025182 0.105379 1.984461 6 24 34
0.025253 0.107155 1.990076 6 25 36
0.025299 0.108832 1.993716 6 25 37
0.025302 0.110325 1.993942 6 25 35
0.025285 0.111731 1.992605 6 23 33
0.025258 0.113089 1.990454 6 22 31
0.025255 0.114555 1.990240 6 20 28
0.025230 0.115918 1.988266 7 19 26
0.025222 0.117356 1.987609 7 18 24
0.025261 0.119018 1.990705 6 18 24
0.025281 0.120591 1.992273 6 20 25
0.025218 0.121765 1.987281 5 20 25
0.025235 0.123325 1.988636 5 20 25
0.025251 0.124884 1.989930 3 19 24
0.025258 0.126397 1.990487 1 19 23
0.025280 0.127984 1.992178 1 18 23
0.025260 0.129364 1.990646 3 18 23
0.025218 0.130623 1.987304 2 16 21
0.025239 0.132209 1.988944 0 13 19
0.025261 0.133804 1.990705 1 13 19
0.025222 0.135072 1.987609 2 13 19
0.025111 0.135950 1.978890 2 13 19
0.025083 0.137263 1.976638 2 13 19
0.025064 0.138628 1.975160 1 13 19
0.024972 0.139580 1.967896 0 13 19
0.024781 0.139963 1.952852 0 14 18
0.024998 0.142651 1.969939 1 15 18
0.025198 0.145270 1.985734 0 14 17
0.025189 0.146694 1.985049 0 14 17
0.025113 0.147716 1.978988 0 13 16
0.025043 0.148771 1.973479 1 12 16
0.025046 0.150257 1.973749 1 12 15
0.025199 0.152651 1.985820 1 12 14
0.025131 0.153706 1.980410 1 10 12
0.025243 0.158825 1.989253 0 4 6
0.025299 0.160659 1.993673 0 4 5
0.025618 0.164187 2.018846 0 4 4
0.025500 0.166415 2.009540 0 4 4
0.025369 0.168526 1.999171 1 6 10
0.025427 0.170402 2.003767 0 6 11
0.025779 0.174270 2.031506 0 7 12
0.025416 0.177766 2.002884 0 11 16
0.025395 0.179108 2.001263 0 11 17
0.025342 0.180213 1.997038 0 14 20
0.025296 0.181372 1.993465 0 14 21
0.025359 0.183304 1.998385 0 15 22
0.025127 0.184571 1.980131 0 16 23
0.025488 0.194683 2.008585 0 18 21
0.025595 0.196996 2.016999 0 18 21
0.025441 0.200276 2.004836 0 18 21
0.025422 0.201620 2.003397 0 18 22
0.025176 0.202614 1.983992 1 18 25
0.025072 0.203247 1.975814 2 19 26
0.025011 0.204214 1.970982 2 19 26
0.024970 0.205340 1.967749 2 19 27
0.024943 0.206583 1.965663 2 19 27
0.024964 0.211138 1.967292 3 18 27
0.024859 0.211703 1.958999 5 17 27
0.024930 0.213770 1.964622 3 10 20
0.024971 0.215579 1.967817 0 6 19
0.025175 0.218815 1.983904 3 9 25
0.026120 0.234678 2.058418 160 176 169
0.024753 0.223845 1.950688 143 160 147
0.031084 -0.263858 2.314115 168 167 165
0.031211 -0.263209 2.323557 162 162 160
0.031245 -0.261766 2.326072 163 163 161
0.031281 -0.260344 2.328805 165 166 165
0.031253 -0.258379 2.326690 162 164 165
0.031340 -0.257362 2.333134 149 152 154
0.031353 -0.255739 2.334135 132 134 138
0.031282 -0.253434 2.328884 122 124 131
0.031244 -0.251393 2.326008 125 127 136
0.031326 -0.250323 2.332140 132 134 145
0.031332 -0.245176 2.332611 128 132 138
0.031206 -0.242462 2.323202 126 130 137
0.031110 -0.239998 2.316079 121 124 133
0.031276 -0.239543 2.328376 113 116 125
0.031532 -0.239764 2.347473 103 108 116
0.031463 -0.237498 2.342320 96 102 110
0.031590 -0.236711 2.351788 95 100 110
0.031400 -0.233553 2.337668 92 98 108
0.031267 -0.230832 2.327732 88 93 104
0.030675 -0.224762 2.283628 82 88 99
0.030751 -0.223624 2.289349 77 83 94
0.031140 -0.224728 2.318279 75 81 92
0.031138 -0.222993 2.318140 75 82 93
0.030969 -0.220071 2.305571 76 84 95
0.030840 -0.217447 2.295939 71 82 92
0.031040 -0.215423 2.310814 63 77 87
0.031050 -0.213781 2.311617 59 73 82
0.030842 -0.210638 2.296078 52 67 77
0.030944 -0.209625 2.303685 45 61 70
0.031000 -0.208288 2.307828 39 55 64
0.031073 -0.207061 2.313279 35 51 60
0.031121 -0.205660 2.316844 33 49 58
0.031058 -0.203530 2.312196 32 48 57
0.030970 -0.201241 2.305653 31 48 56
0.031025 -0.199879 2.309701 30 47 55
0.030975 -0.197846 2.306008 30 47 55
0.030954 -0.196003 2.304470 30 47 55
0.030964 -0.194353 2.305205 29 46 54
0.030984 -0.192761 2.306642 29 46 54
0.031000 -0.191148 2.307854 30 47 50
0.031054 -0.189766 2.311907 29 44 44
0.031106 -0.188362 2.315759 24 38 38
0.031079 -0.186478 2.313715 24 35 36
0.031022 -0.184420 2.309469 28 37 39
0.030966 -0.182375 2.305299 35 41 44
0.030956 -0.180606 2.304575 38 43 46
0.030942 -0.178813 2.303534 36 41 44
0.031012 -0.177501 2.308724 33 38 41
0.030865 -0.173246 2.297779 37 42 45
0.030829 -0.171343 2.295142 45 50 53
0.030912 -0.170095 2.301330 55 59 62
0.030925 -0.168455 2.302274 65 69 72
0.030653 -0.165279 2.282032 76 78 82
0.029709 -0.156904 2.211762 87 92 91
0.029682 -0.155118 2.209731 92 98 93
0.029633 -0.153226 2.206122 93 100 93
0.029665 -0.151751 2.208503 96 103 96
0.029700 -0.150286 2.211085 100 106 99
0.029624 -0.148266 2.205455 104 109 103
0.029656 -0.146785 2.207826 108 112 106
0.029768 -0.145690 2.216109 111 114 109
0.029779 -0.144097 2.216926 118 120 115
0.029990 -0.143460 2.232649 126 128 123
0.029964 -0.141681 2.230750 130 131 126
0.030909 -0.141019 2.301055 166 165 161
0.028882 -0.088653 2.150210 162 182 203
0.030393 -0.088248 2.262679 138 171 203
0.028962 -0.082491 2.156127 128 161 193
0.028890 -0.080689 2.150787 116 147 177
0.029022 -0.079453 2.160609 106 136 164
0.028846 -0.077374 2.147466 96 123 149
0.028837 -0.074163 2.146849 72 98 120
0.028696 -0.070627 2.136360 64 92 113
0.028512 -0.068596 2.122614 60 88 110
0.028487 -0.066961 2.120774 57 85 107
0.028334 -0.065035 2.109406 57 84 107
0.028547 -0.063946 2.125270 58 84 107
0.028673 -0.062642 2.134640 56 81 105
0.028607 -0.060916 2.129724 58 82 105
0.028650 -0.059422 2.132891 64 89 111
0.028689 -0.057918 2.135836 71 96 118
0.028630 -0.056216 2.131454 76 102 124
0.028537 -0.054455 2.124519 80 108 129
0.028487 -0.052784 2.120774 84 113 135
0.028445 -0.051133 2.117654 87 118 139
0.028361 -0.049414 2.111414 94 126 143
0.028319 -0.047774 2.108248 99 132 147
0.028389 -0.046323 2.113483 100 132 149
0.028424 -0.044808 2.116061 100 131 151
0.028395 -0.043192 2.113893 98 127 150
0.028385 -0.041607 2.113168 93 121 146
0.028377 -0.040027 2.112587 86 114 138
0.028429 -0.038529 2.116486 80 108 130
0.028371 -0.036880 2.112134 67 95 114
0.028408 -0.035358 2.114886 52 81 97
0.028337 -0.033703 2.109616 43 71 85
0.028406 -0.032214 2.114737 36 61 74
0.028396 -0.030632 2.113997 33 55 68
0.028339 -0.029004 2.109776 32 50 66
0.028222 -0.027323 2.101018 30 44 61
0.028092 -0.025644 2.091391 25 38 57
0.028062 -0.024065 2.089098 18 34 54
0.028095 -0.022540 2.091607 17 37 58
0.028288 -0.021130 2.105922 29 51 72
0.027967 -0.019344 2.082081 46 70 92
0.027863 -0.017731 2.074306 56 81 104
0.027897 -0.016210 2.076834 58 81 105
0.027976 -0.014709 2.082718 49 69 94
0.027969 -0.013159 2.082227 27 44 70
0.027972 -0.011613 2.082401 17 31 57
0.027782 -0.009998 2.068264 17 27 53
0.027949 -0.008513 2.080703 12 22 46
0.027627 -0.006887 2.056712 5 15 37
0.027547 -0.005344 2.050792 1 9 29
0.027548 -0.003821 2.050867 0 9 26
0.027590 -0.002301 2.053980 1 14 29
0.027687 -0.000778 2.061201 4 22 34
0.027537 0.000749 2.050057 16 42 50
0.027435 0.002263 2.042477 28 58 63
0.027448 0.003782 2.043388 32 61 69
0.027453 0.005301 2.043805 28 53 63
0.027453 0.006819 2.043805 17 38 50
0.027403 0.008322 2.040056 7 25 38
0.027376 0.009827 2.038045 4 19 30
0.027291 0.011306 2.031733 4 17 26
0.027138 0.012743 2.020325 1 12 20
0.027249 0.014302 2.028644 0 7 15
0.027259 0.015815 2.029382 0 10 18
0.027289 0.017341 2.031566 14 29 41
0.027259 0.018829 2.029373 42 62 81
0.027084 0.020206 2.016296 64 85 110
0.027063 0.021687 2.014783 62 85 115
0.027010 0.023138 2.010780 52 73 106
0.027028 0.024648 2.012185 35 52 82
0.027185 0.026294 2.023848 22 36 63
0.027274 0.027889 2.030480 19 33 57
0.027263 0.029385 2.029668 19 34 55
0.027242 0.030869 2.028109 11 28 46
0.027262 0.032399 2.029608 4 21 38
0.027304 0.033959 2.032713 4 22 37
0.027331 0.035503 2.034678 4 23 37
0.027270 0.036933 2.030188 3 22 34
0.027295 0.038476 2.032068 1 21 32
0.027306 0.040002 2.032884 0 18 29
0.027314 0.041524 2.033482 0 17 27
0.027263 0.042953 2.029638 1 16 25
0.027216 0.044383 2.026129 2 15 23
0.027207 0.045873 2.025463 0 13 20
0.027186 0.047341 2.023894 0 11 16
0.027190 0.048851 2.024183 0 11 13
0.027207 0.050388 2.025501 1 11 13
0.027162 0.051806 2.022151 0 9 14
0.027113 0.053212 2.018492 0 6 14
0.027132 0.054750 2.019918 0 6 18
0.027073 0.056128 2.015521 0 14 28
0.027036 0.057546 2.012770 8 29 44
0.027077 0.059130 2.015794 19 44 59
0.027104 0.060688 2.017833 31 57 72
0.026993 0.061932 2.009540 40 66 79
0.027089 0.063651 2.016717 34 58 69
0.027258 0.065555 2.029305 11 32 41
0.027261 0.067070 2.029529 0 14 21
0.027303 0.068682 2.032615 4 16 22
0.027382 0.070395 2.038498 8 18 23
0.027289 0.071664 2.031571 2 8 12
0.027301 0.073205 2.032448 0 7 11
0.027292 0.074691 2.031801 0 8 13
0.027296 0.076211 2.032100 0 8 14
0.027226 0.077520 2.026867 0 7 14
0.027103 0.078669 2.017720 0 6 14
0.027098 0.080155 2.017381 0 6 14
0.027125 0.081735 2.019400 0 6 13
0.027123 0.083228 2.019229 0 5 13
0.027135 0.084766 2.020155 0 4 11
0.027030 0.085931 2.012279 0 4 10
0.026946 0.087156 2.006078 0 5 13
0.027073 0.089062 2.015486 0 8 16
0.027056 0.090502 2.014235 1 10 20
0.026923 0.091548 2.004372 1 13 24
0.026899 0.092953 2.002566 3 15 28
0.026924 0.094526 2.004390 3 16 30
0.026930 0.096037 2.004854 3 19 31
0.026916 0.097475 2.003797 3 21 31
0.026839 0.098682 1.998104 3 21 32
0.026795 0.100001 1.994806 5 22 33
0.026629 0.100852 1.982413 6 23 34
0.026606 0.102238 1.980728 7 24 34
0.026626 0.103788 1.982234 7 25 35
0.026608 0.105189 1.980899 6 25 35
0.026686 0.106974 1.986722 7 26 37
0.026731 0.108633 1.990076 7 27 38
0.026787 0.110339 1.994200 6 25 36
0.026783 0.111804 1.993895 6 24 33
0.026748 0.113136 1.991287 5 22 30
0.026746 0.114610 1.991191 5 20 27
0.026692 0.115851 1.987119 5 18 25
0.026711 0.117412 1.988548 5 17 23
0.026720 0.118931 1.989253 5 17 23
0.026772 0.120641 1.993098 4 18 23
0.026680 0.121702 1.986242 3 18 23
0.026731 0.123412 1.990032 2 17 22
0.026706 0.124773 1.988166 1 17 22
0.026704 0.126240 1.988020 0 17 21
0.026742 0.127902 1.990899 0 16 21
0.026714 0.129242 1.988760 1 16 21
0.026702 0.130662 1.987895 0 14 20
0.026652 0.131893 1.984200 0 12 18
0.026610 0.133156 1.981063 0 12 18
0.026559 0.134367 1.977222 1 12 18
0.026489 0.135478 1.972025 1 12 18
0.026363 0.136292 1.962648 1 12 18
0.026344 0.137648 1.961204 0 12 18
0.026276 0.138747 1.956155 0 12 18
0.026269 0.140162 1.955624 0 13 17
0.026438 0.142526 1.968214 0 14 17
0.026498 0.144318 1.972726 0 14 17
0.026460 0.145573 1.969875 0 14 17
0.026477 0.147130 1.971133 0 13 17
0.026350 0.147881 1.961678 1 12 16
0.026445 0.149876 1.968741 1 12 15
0.026497 0.151639 1.972654 1 12 14
0.026628 0.153858 1.982368 0 10 12
0.026921 0.158527 2.004168 0 6 8
0.026765 0.159088 1.992548 0 6 6
0.026640 0.159818 1.983240 0 5 5
0.026777 0.162121 1.993447 0 4 3
0.027002 0.164977 2.010196 0 4 3
0.026966 0.166247 2.007513 1 4 3
0.026632 0.167138 1.982695 0 5 9
0.026822 0.177230 1.996848 0 10 13
0.026723 0.178052 1.989468 0 10 16
0.026646 0.180485 1.983717 0 13 19
0.026572 0.181453 1.978212 0 14 19
0.026436 0.183449 1.968097 0 15 22
0.026431 0.202410 1.967682 1 18 25
0.026395 0.203598 1.965040 1 18 26
0.026406 0.205142 1.965846 1 18 26
0.026316 0.205895 1.959122 1 18 26
0.026405 0.210973 1.965758 3 18 27
0.026179 0.210618 1.948964 2 14 23
0.026591 0.218345 1.979645 6 12 30
0.025979 0.223375 1.934079 147 164 147
0.032842 -0.267611 2.316844 170 167 164
0.032830 -0.265793 2.315994 164 163 160
0.032887 -0.264532 2.320025 163 162 160
0.032921 -0.263087 2.322480 162 162 160
0.032952 -0.261600 2.324598 167 168 167
0.032905 -0.259507 2.321315 166 170 169
0.033017 -0.258663 2.329247 160 163 164
0.032977 -0.256620 2.326403 142 146 150
0.032879 -0.254131 2.319459 127 130 136
0.032943 -0.252900 2.323978 123 125 135
0.032957 -0.251286 2.325021 129 132 143
0.032937 -0.249402 2.323557 137 140 152
0.033038 -0.248435 2.330675 131 137 146
0.033055 -0.246832 2.331885 124 132 139
0.032988 -0.244606 2.327188 120 128 134
0.032736 -0.241024 2.309430 118 126 132
0.032937 -0.240773 2.323557 112 119 126
0.033038 -0.239781 2.330696 100 107 114
0.033076 -0.238327 2.333402 88 96 104
0.033179 -0.237331 2.340673 83 91 98
0.033084 -0.234914 2.333939 82 90 98
0.033084 -0.233184 2.333969 79 87 96
0.032984 -0.230745 2.326862 74 82 91
0.032384 -0.224855 2.284575 72 80 89
0.032378 -0.223115 2.284135 72 80 90
0.032604 -0.222967 2.300107 73 81 90
0.032653 -0.221588 2.303534 72 81 90
0.032586 -0.219430 2.298847 70 79 89
0.032515 -0.215540 2.293793 68 81 94
0.032742 -0.215330 2.309819 67 80 94
0.032698 -0.213327 2.306714 65 79 92
0.032821 -0.212407 2.315357 60 74 86
0.032653 -0.209611 2.303534 53 67 79
0.032622 -0.207706 2.301381 48 61 73
0.032690 -0.206422 2.306140 45 59 71
0.032721 -0.204906 2.308356 42 56 67
0.032687 -0.202978 2.305931 41 55 65
0.032695 -0.201318 2.306535 42 57 65
0.032672 -0.199462 2.304882 42 58 66
0.032635 -0.197529 2.302305 42 59 67
0.032604 -0.195633 2.300118 42 58 66
0.032610 -0.193956 2.300495 41 58 66
0.032678 -0.192649 2.305299 41 58 65
0.032697 -0.191045 2.306615 44 60 66
0.032690 -0.189297 2.306183 45 60 64
0.032667 -0.187449 2.304530 41 56 59
0.032704 -0.185946 2.307123 42 54 58
0.032688 -0.184146 2.306040 45 57 61
0.032599 -0.181933 2.299716 48 58 63
0.032614 -0.180308 2.300771 46 55 60
0.032612 -0.178588 2.300632 40 48 53
0.032503 -0.176289 2.292958 39 46 52
0.032201 -0.172962 2.271632 43 50 56
0.032374 -0.172196 2.283852 47 54 60
0.032405 -0.170662 2.286022 52 59 65
0.032472 -0.169314 2.290766 59 65 71
0.032501 -0.167764 2.292831 66 71 77
0.032511 -0.166110 2.293504 71 76 82
0.031340 -0.158485 2.210903 74 79 84
0.031174 -0.156014 2.199224 74 81 82
0.031324 -0.155122 2.209783 72 82 79
0.031344 -0.153581 2.211221 71 81 77
0.031267 -0.151564 2.205776 71 79 76
0.031240 -0.149793 2.203827 71 78 75
0.031358 -0.148719 2.212204 70 76 74
0.031302 -0.146810 2.208205 70 76 73
0.031302 -0.145171 2.208223 70 75 73
0.031541 -0.144629 2.225106 70 74 72
0.032250 -0.141118 2.275086 117 118 114
0.032510 -0.140554 2.293458 145 146 141
0.032474 -0.138694 2.290879 169 170 165
0.030451 -0.090166 2.148200 166 183 199
0.030568 -0.080903 2.156480 104 136 167
0.030574 -0.079315 2.156856 94 123 150
0.030241 -0.073697 2.133370 67 92 112
0.030259 -0.072156 2.134670 65 92 112
0.030088 -0.070172 2.122602 64 91 112
0.029902 -0.068171 2.109463 62 89 110
0.029936 -0.066680 2.111877 61 88 110
0.030162 -0.065602 2.127777 61 86 109
0.030114 -0.063920 2.124418 61 85 108
0.030194 -0.062507 2.130034 60 84 106
0.030187 -0.060912 2.129574 63 85 107
0.030185 -0.059325 2.129401 72 94 115
0.030188 -0.057750 2.129648 79 103 124
0.030085 -0.055976 2.122349 84 110 131
