ply
format ascii 1.0
element vertex 1315
property float x
property float y
property float z
property uchar red
property uchar green
property uchar blue
end_header
0.037123 -0.111841 2.488464 0 0 7
0.037080 -0.109866 2.485603 0 2 12
0.037199 -0.108367 2.493589 0 5 16
0.036938 -0.105767 2.476093 1 7 19
0.036765 -0.103441 2.464495 0 8 19
0.036868 -0.101894 2.471363 0 9 18
0.037053 -0.100561 2.483767 1 8 16
0.037010 -0.098602 2.480903 0 6 13
0.036726 -0.096017 2.461887 0 4 10
0.036092 -0.092562 2.419362 0 3 8
0.036191 -0.091015 2.426039 0 2 7
0.035994 -0.088727 2.412816 0 2 7
0.036278 -0.087619 2.431812 0 1 7
0.036564 -0.086491 2.451016 0 1 6
0.036729 -0.083223 2.462051 0 2 4
0.036620 -0.081153 2.454774 0 1 3
0.036385 -0.078820 2.438984 0 1 3
0.036826 -0.076108 2.468561 0 1 2
0.036923 -0.063440 2.475054 0 0 1
0.036849 -0.061479 2.470137 0 1 1
0.036817 -0.059591 2.467944 0 2 1
0.036827 -0.057774 2.468616 1 2 3
0.036874 -0.056013 2.471812 1 2 5
0.036846 -0.054136 2.469943 0 3 7
0.036765 -0.052186 2.464495 0 3 9
0.036888 -0.048687 2.472713 2 6 15
0.036802 -0.046741 2.466955 1 7 17
0.036565 -0.042799 2.451064 1 11 20
0.036809 -0.041252 2.467422 0 12 21
0.036822 -0.039433 2.468284 0 13 21
0.036903 -0.037683 2.473761 0 14 22
0.036931 -0.035872 2.475627 0 15 22
0.036868 -0.033975 2.471363 0 16 24
0.036954 -0.032215 2.477157 0 17 25
0.036769 -0.030222 2.464741 0 16 26
0.036682 -0.028325 2.458927 0 15 29
0.036431 -0.026317 2.442079 0 15 32
0.036602 -0.022796 2.453577 0 17 35
0.036718 -0.021040 2.461362 2 19 37
0.036519 -0.019107 2.448009 3 20 38
0.036036 -0.017060 2.415624 3 22 40
0.036068 -0.015280 2.417793 3 23 42
0.036180 -0.013526 2.425300 2 22 41
0.036486 -0.011823 2.445803 2 22 42
0.036391 -0.009981 2.439414 3 24 44
0.036427 -0.008177 2.441813 5 27 46
0.036133 -0.006312 2.422145 7 29 46
0.036068 -0.004505 2.417793 8 30 47
0.035923 -0.002698 2.408026 8 30 45
0.035702 -0.000904 2.393201 8 30 45
0.035872 0.002664 2.404632 9 30 53
0.035906 0.004455 2.406913 10 30 54
0.035973 0.006254 2.411425 11 31 55
0.035607 0.009736 2.386864 12 32 57
0.035380 0.011436 2.371660 13 33 57
0.035582 0.015044 2.385155 13 33 57
0.035635 0.016841 2.388733 12 32 57
0.035579 0.018586 2.384969 13 33 58
0.035548 0.020340 2.382936 13 33 58
0.035509 0.022085 2.380264 14 34 59
0.035048 0.025289 2.349425 15 35 60
0.034908 0.026926 2.340023 16 36 60
0.034933 0.028684 2.341650 16 38 59
0.035025 0.030504 2.347853 16 39 58
0.035408 0.032601 2.373532 16 39 57
0.035178 0.034141 2.358135 16 39 57
0.034895 0.035603 2.339105 16 39 57
0.034810 0.037250 2.333438 16 39 57
0.034783 0.038952 2.331600 17 39 59
0.034932 0.040858 2.341585 17 38 59
0.034967 0.042640 2.343931 16 36 59
0.034933 0.044338 2.341650 16 36 60
0.034774 0.045868 2.331022 16 36 60
0.034794 0.047627 2.332363 16 36 60
0.034549 0.049011 2.315921 16 36 60
0.034447 0.050582 2.309097 16 36 61
0.034583 0.052505 2.318254 16 36 61
0.034416 0.053964 2.307021 16 36 60
0.034500 0.055814 2.312668 16 38 60
0.034622 0.059459 2.320867 14 40 57
0.034418 0.060821 2.307148 14 40 57
0.034452 0.062597 2.309430 13 39 56
0.034294 0.064018 2.298872 12 38 55
0.033926 0.066710 2.274198 11 36 56
0.033718 0.067979 2.260249 13 38 58
0.033974 0.070186 2.277366 13 38 59
0.034035 0.072008 2.281502 12 37 57
0.034050 0.073735 2.282516 11 36 55
0.033995 0.075308 2.278805 10 35 53
0.034017 0.077051 2.280302 8 34 49
0.034002 0.078709 2.279276 7 33 46
0.033980 0.080351 2.277828 8 32 44
0.033996 0.082081 2.278889 10 32 46
0.033883 0.083495 2.271311 11 31 45
0.033782 0.084927 2.264504 10 28 44
0.033845 0.086773 2.268775 9 26 42
0.033838 0.088437 2.268253 9 26 42
0.033584 0.089446 2.251237 10 27 43
0.033655 0.091311 2.256010 11 29 44
0.033690 0.093085 2.258382 11 31 46
0.033633 0.094601 2.254539 9 31 45
0.033782 0.096701 2.264504 9 32 46
0.033991 0.098993 2.278543 8 32 45
0.033533 0.099329 2.247842 6 31 44
0.033609 0.101228 2.252937 5 29 43
0.033691 0.103152 2.258430 3 26 40
0.033820 0.105230 2.267065 1 23 37
0.033790 0.106818 2.265037 1 20 34
0.033149 0.106444 2.222095 1 19 31
0.033112 0.107972 2.219585 2 16 26
0.033124 0.109663 2.220443 0 13 21
0.033339 0.112033 2.234807 0 10 18
0.033138 0.114659 2.221378 0 8 15
0.033115 0.116229 2.219841 0 7 13
0.032919 0.117179 2.206677 0 7 13
0.032839 0.118529 2.201307 0 8 14
0.032695 0.119639 2.191692 0 10 14
0.032887 0.121978 2.204556 0 11 17
0.032854 0.123490 2.202314 0 14 19
0.033007 0.125710 2.212597 0 17 22
0.032887 0.126891 2.204556 0 19 26
0.032910 0.128617 2.206074 0 21 29
0.032881 0.130140 2.204123 0 22 30
0.032875 0.131755 2.203750 0 21 31
0.032884 0.133429 2.204363 0 18 29
0.032823 0.134816 2.200269 0 16 25
0.032761 0.136190 2.196075 0 14 22
0.032731 0.137695 2.194068 0 11 18
0.032790 0.139574 2.198002 0 8 12
0.032816 0.141322 2.199785 0 5 8
0.032840 0.143059 2.201384 0 3 6
0.032716 0.144150 2.193102 0 1 5
0.032795 0.146131 2.198389 0 0 4
0.032905 0.148255 2.205706 0 0 4
0.032866 0.149720 2.203148 1 0 5
0.032854 0.151299 2.202314 1 0 4
0.032737 0.152391 2.194479 1 1 3
0.032734 0.154007 2.194279 0 1 3
0.032946 0.158284 2.208478 0 0 4
0.031795 0.159090 2.131364 1 0 6
0.031850 0.160947 2.135005 1 0 6
0.031888 0.162726 2.137538 1 0 5
0.032608 0.171271 2.185806 0 1 3
0.032728 0.173531 2.193853 1 2 4
0.032830 0.175707 2.200702 1 2 4
0.032897 0.177704 2.205198 1 2 3
0.032922 0.179477 2.206860 0 2 1
0.032809 0.180496 2.199294 0 2 1
0.033474 0.187486 2.243853 0 1 4
0.033260 0.187947 2.229555 0 0 6
0.033032 0.188301 2.214244 0 0 8
0.033140 0.190567 2.221488 0 0 8
0.032525 0.188653 2.180295 0 0 7
0.032217 0.188471 2.159652 0 1 6
0.032374 0.190998 2.170131 1 2 7
0.032707 0.194591 2.192461 1 2 6
0.032826 0.196935 2.200454 0 1 5
0.032944 0.199285 2.208379 0 1 3
0.032863 0.200431 2.202951 0 1 2
0.032848 0.201974 2.201936 0 1 0
0.032805 0.203340 2.199020 0 0 0
0.032697 0.204303 2.191828 0 0 0
0.033869 0.221744 2.270390 0 0 4
0.033976 0.224132 2.277511 0 0 4
0.033852 0.224999 2.269197 0 0 4
0.033845 0.226638 2.268731 0 0 4
0.033920 0.235584 2.273750 1 0 5
0.033907 0.237181 2.272876 1 0 5
0.032380 0.236174 2.170522 1 7 6
0.032254 0.236860 2.162069 2 8 11
0.032526 0.240483 2.180358 1 10 19
0.032820 0.244290 2.200061 1 12 26
0.032553 0.243918 2.182110 0 14 32
0.032365 0.244124 2.169544 0 16 36
0.032195 0.244443 2.158132 0 18 37
0.032055 0.244974 2.148730 0 20 39
0.032079 0.246761 2.150389 1 22 43
0.032208 0.249352 2.158994 1 22 44
0.040213 -0.428194 2.567757 172 167 173
0.040167 -0.425802 2.564837 173 168 173
0.040286 -0.415597 2.572424 162 165 157
0.040313 -0.413967 2.574168 143 149 141
0.040257 -0.411482 2.570592 118 126 124
0.040038 -0.407341 2.556582 101 110 114
0.040116 -0.406231 2.561560 96 106 115
0.040091 -0.404074 2.559948 86 97 109
0.039956 -0.400824 2.551362 68 80 91
0.040021 -0.399576 2.555500 55 68 77
0.039980 -0.397267 2.552861 61 72 84
0.039791 -0.393506 2.540823 66 74 92
0.039612 -0.389855 2.529376 51 60 83
0.039607 -0.387932 2.529091 33 43 70
0.039456 -0.384575 2.519400 22 33 59
0.039676 -0.384846 2.533505 22 36 58
0.039633 -0.382547 2.530746 29 44 61
0.039641 -0.380744 2.531259 32 50 62
0.039487 -0.377394 2.521437 34 52 64
0.039310 -0.373831 2.510088 39 58 74
0.039251 -0.371412 2.506347 42 60 80
0.039268 -0.369706 2.507403 46 64 86
0.039198 -0.367189 2.502942 52 70 92
0.039177 -0.365133 2.501590 55 72 91
0.039081 -0.362388 2.495486 50 67 85
0.039026 -0.360027 2.491970 41 58 77
0.038924 -0.357244 2.485486 31 50 68
0.038943 -0.355565 2.486654 21 43 55
0.038945 -0.353735 2.486775 18 42 50
0.039101 -0.353304 2.496781 16 38 49
0.039213 -0.352457 2.503942 17 38 49
0.039297 -0.351346 2.509289 20 39 51
0.039350 -0.349950 2.512647 23 40 53
0.039333 -0.347935 2.511576 26 40 53
0.039258 -0.345411 2.506793 25 40 51
0.039243 -0.343421 2.505860 26 40 49
0.039160 -0.340836 2.500550 29 42 50
0.039091 -0.338380 2.496137 33 45 51
0.039008 -0.335813 2.490846 38 49 55
0.038921 -0.333218 2.485291 41 53 59
0.038946 -0.331585 2.486887 43 56 62
0.038826 -0.328718 2.479199 44 57 64
0.038723 -0.326010 2.472623 46 58 66
0.038635 -0.323438 2.467019 50 57 67
0.038630 -0.321564 2.466695 54 59 71
0.038708 -0.320379 2.471691 52 61 71
0.038741 -0.318810 2.473761 34 49 56
0.038776 -0.317257 2.475983 10 25 32
0.038548 -0.313566 2.461443 1 13 21
0.038618 -0.312303 2.465906 21 33 42
0.038484 -0.309393 2.457340 73 81 92
0.038388 -0.306804 2.451236 121 130 143
0.038486 -0.305761 2.457491 151 164 177
0.038393 -0.303203 2.451563 151 165 178
0.038460 -0.301907 2.455838 135 149 162
0.038670 -0.301717 2.469213 123 134 145
0.038491 -0.298495 2.457783 126 134 144
0.038596 -0.297480 2.464495 134 140 150
0.038452 -0.294548 2.455313 140 145 152
0.038444 -0.292662 2.454794 144 149 152
0.038456 -0.290932 2.455580 141 145 148
0.038422 -0.288851 2.453393 144 149 175
0.038685 -0.288996 2.470214 130 132 201
0.038930 -0.288979 2.485853 145 139 231
0.038882 -0.286776 2.482759 155 132 231
0.038750 -0.283963 2.474321 180 154 250
0.038987 -0.283852 2.489461 199 180 251
0.038866 -0.281130 2.481757 121 110 188
0.038842 -0.279114 2.480221 74 71 139
0.038524 -0.273172 2.459900 133 136 178
0.038329 -0.269976 2.447491 135 140 171
0.038627 -0.270240 2.466490 141 148 171
0.038373 -0.266645 2.450287 138 146 165
0.038386 -0.264915 2.451118 146 157 174
0.038332 -0.262724 2.447669 144 153 171
0.038284 -0.260577 2.444587 149 155 173
0.038222 -0.258345 2.440648 152 156 174
0.038141 -0.255986 2.435457 155 160 177
0.038186 -0.254481 2.438366 158 164 180
0.037902 -0.250784 2.420173 160 166 180
0.037891 -0.248916 2.419489 161 167 181
0.037946 -0.247477 2.422988 163 166 183
0.037999 -0.246023 2.426398 163 166 183
0.037721 -0.224545 2.408665 169 171 184
0.037735 -0.222835 2.409524 168 170 182
0.037694 -0.220809 2.406943 167 169 181
0.037537 -0.218104 2.396864 166 168 180
0.037487 -0.216036 2.393685 165 167 179
0.037672 -0.215319 2.405538 164 166 179
0.037579 -0.213002 2.399557 161 163 176
0.037659 -0.211672 2.404696 160 162 175
0.037721 -0.210228 2.408613 160 162 175
0.037645 -0.208019 2.403766 160 162 175
0.037462 -0.205235 2.392122 160 163 173
0.037654 -0.204500 2.404370 160 163 172
0.037740 -0.203174 2.409832 160 163 171
0.037755 -0.201466 2.410814 160 163 169
0.037827 -0.200058 2.415434 161 165 167
0.037790 -0.198071 2.413081 162 166 165
0.037868 -0.196683 2.418047 161 165 165
0.037662 -0.193823 2.404851 159 163 164
0.037553 -0.191484 2.397926 158 162 163
0.037558 -0.189729 2.398258 156 160 161
0.037838 -0.189347 2.416122 155 159 160
0.037756 -0.187146 2.410876 155 159 158
0.037901 -0.186065 2.420110 152 156 154
0.037835 -0.183948 2.415913 148 153 149
0.037651 -0.181267 2.404164 146 151 146
0.037752 -0.179963 2.410611 143 148 142
0.037847 -0.178622 2.416688 141 145 141
0.037882 -0.176991 2.418939 139 144 140
0.037889 -0.175225 2.419362 139 143 140
0.037940 -0.173661 2.422610 139 143 139
0.037931 -0.168224 2.422050 134 135 126
0.037950 -0.166508 2.423261 130 131 122
0.038210 -0.165838 2.439883 125 127 117
0.038240 -0.164155 2.441813 120 123 110
0.037927 -0.161011 2.421797 113 116 102
0.038012 -0.159571 2.427256 107 109 94
0.038359 -0.159205 2.449368 103 105 88
0.038746 -0.158975 2.474100 98 100 82
0.038998 -0.158160 2.490197 91 93 76
0.039022 -0.156404 2.491693 90 94 76
0.039048 -0.154657 2.493371 94 100 82
0.039084 -0.152946 2.495659 95 102 86
0.039014 -0.150821 2.491179 90 99 84
0.038991 -0.148885 2.489755 85 95 82
0.038880 -0.146617 2.482668 79 92 80
0.038817 -0.144539 2.478647 71 86 77
0.038884 -0.142943 2.482901 61 76 73
0.038765 -0.140669 2.475338 49 62 67
0.038863 -0.139179 2.481560 35 46 59
0.038875 -0.137379 2.482348 20 28 46
0.038453 -0.134063 2.455384 7 14 32
0.038409 -0.132089 2.452594 1 7 22
0.037687 -0.127817 2.406455 0 5 16
0.038196 -0.127733 2.438984 0 4 12
0.038295 -0.126247 2.445294 0 3 10
0.038673 -0.120157 2.469435 0 1 6
0.038357 -0.117355 2.449237 0 1 6
0.038498 -0.115962 2.458285 0 0 6
0.038682 -0.114680 2.469997 0 0 6
0.039119 -0.110410 2.497921 0 0 8
0.038925 -0.108015 2.485504 0 1 8
0.038720 -0.105610 2.472404 0 1 8
0.038488 -0.103153 2.457617 0 2 7
0.038569 -0.101542 2.462825 0 2 6
0.038835 -0.100399 2.479783 0 2 6
0.038801 -0.098470 2.477587 0 3 6
0.038383 -0.095589 2.450911 0 4 6
0.038216 -0.093360 2.440221 0 3 7
0.037889 -0.090765 2.419362 0 3 7
0.037968 -0.089154 2.424433 0 3 8
0.038086 -0.087624 2.431939 0 2 9
0.038000 -0.085624 2.426460 0 1 7
0.038209 -0.084282 2.439775 0 0 6
0.038453 -0.082997 2.455384 0 1 5
0.038256 -0.080757 2.442794 0 1 3
0.038294 -0.079021 2.445217 0 1 2
0.038289 -0.075380 2.444933 0 2 1
0.038707 -0.067023 2.471617 0 1 4
0.038801 -0.063506 2.477628 0 1 3
0.038649 -0.061423 2.467896 0 1 2
0.038639 -0.059575 2.467275 0 1 2
0.038488 -0.057517 2.457644 0 0 4
0.038525 -0.055745 2.459985 1 0 5
0.038693 -0.054153 2.470712 0 0 5
0.038599 -0.048530 2.464741 0 1 12
0.038539 -0.046625 2.460854 0 1 13
0.038362 -0.044592 2.449580 0 2 13
0.038583 -0.043019 2.463667 0 6 15
0.038451 -0.041048 2.455229 0 9 17
0.038539 -0.039314 2.460874 0 10 17
0.038912 -0.037849 2.484714 0 11 19
0.038746 -0.035850 2.474100 0 12 21
0.038726 -0.033995 2.472828 0 12 22
0.038656 -0.032100 2.468323 0 13 24
0.038451 -0.030106 2.455240 0 13 27
0.038585 -0.028381 2.463827 0 14 29
0.038488 -0.026484 2.457617 0 14 32
0.038188 -0.024466 2.438463 0 15 32
0.038260 -0.022698 2.443063 0 16 33
0.038328 -0.020920 2.447382 0 18 34
0.038274 -0.019076 2.443939 1 20 36
0.037856 -0.017072 2.417235 1 21 37
0.038207 -0.015418 2.439690 1 23 39
0.038073 -0.013558 2.431097 0 22 39
0.038274 -0.011814 2.443939 0 22 40
0.038179 -0.009974 2.437915 1 24 42
0.038042 -0.008134 2.429133 2 26 44
0.037911 -0.006308 2.420753 3 28 45
0.037688 -0.004484 2.406510 5 29 46
0.037476 -0.002681 2.393001 5 30 45
0.037276 -0.000899 2.380230 5 30 45
0.037328 0.000871 2.383533 7 30 48
0.037324 0.002641 2.383305 8 29 50
0.037382 0.004418 2.386989 9 29 51
0.037474 0.006206 2.392891 9 30 52
0.037324 0.007951 2.383270 10 31 53
0.037322 0.009721 2.383193 11 31 54
0.036970 0.011383 2.360689 12 32 55
0.037392 0.015060 2.387666 12 32 55
0.037218 0.016755 2.376526 12 32 56
0.037215 0.018519 2.376345 12 32 57
0.037206 0.020279 2.375773 13 33 57
0.037173 0.022024 2.373666 13 33 58
0.036485 0.025077 2.329693 14 34 59
0.036459 0.026788 2.328054 15 35 59
0.036478 0.028532 2.329268 15 36 56
0.037186 0.030850 2.374469 15 37 55
0.037160 0.032591 2.372830 15 37 55
0.036895 0.034108 2.355907 15 38 55
0.036467 0.035442 2.328544 15 38 56
0.036265 0.036966 2.315654 15 38 56
0.036383 0.038812 2.323190 16 37 57
0.036483 0.040649 2.329621 16 37 58
0.036576 0.044222 2.335530 15 35 59
0.036595 0.045981 2.336742 15 35 59
0.036445 0.047521 2.327188 15 35 60
0.036129 0.050535 2.306969 16 36 62
0.036233 0.052400 2.313661 16 36 62
0.036075 0.053882 2.303534 15 36 61
0.036091 0.055618 2.304552 15 39 60
0.036333 0.057714 2.319998 15 40 57
0.036303 0.059389 2.318120 14 40 55
0.036166 0.060880 2.309371 13 39 54
0.036209 0.062670 2.312128 13 39 54
0.036144 0.064271 2.307953 12 38 54
0.035665 0.065111 2.277366 12 37 55
0.035573 0.066630 2.271502 11 37 54
0.035813 0.068777 2.286789 13 38 56
0.035531 0.069921 2.268775 14 39 57
0.035717 0.071981 2.280660 13 38 56
0.035642 0.073521 2.275897 11 37 55
0.035580 0.075080 2.271907 10 36 52
0.035587 0.076783 2.272379 8 34 48
0.035483 0.078242 2.265743 7 33 46
0.035617 0.080227 2.274318 7 33 45
0.035725 0.082164 2.281177 10 33 46
0.035529 0.083399 2.268676 12 32 46
0.035549 0.085132 2.269974 11 29 45
0.035513 0.086730 2.267662 9 28 44
0.035419 0.088181 2.261666 9 27 44
0.035339 0.089657 2.256539 10 28 45
0.035426 0.091557 2.262071 12 30 47
0.035435 0.093262 2.262679 12 32 48
0.035450 0.094984 2.263652 11 32 47
0.035573 0.097000 2.271502 10 32 47
0.035519 0.098537 2.268038 8 33 46
0.035243 0.099441 2.250383 7 32 45
0.035247 0.101124 2.250638 6 29 43
0.035344 0.103080 2.256856 3 26 40
0.035304 0.104639 2.254319 1 23 37
0.034970 0.105306 2.232976 1 21 35
0.034834 0.106550 2.224305 2 20 31
0.034765 0.107986 2.219872 1 17 27
0.034738 0.109552 2.218189 0 13 22
0.034937 0.111837 2.230906 0 9 18
0.034984 0.113645 2.233865 0 8 16
0.034976 0.115277 2.233342 0 8 15
0.034757 0.116205 2.219380 0 8 14
0.034588 0.117280 2.208589 0 8 14
0.034619 0.119026 2.210539 1 9 15
0.034761 0.121164 2.219639 0 11 16
0.034498 0.123518 2.202818 1 16 22
0.034621 0.125604 2.210721 1 19 26
0.034741 0.127685 2.218346 1 21 28
0.034539 0.128582 2.205482 1 23 31
0.034542 0.130230 2.205646 1 24 32
0.034566 0.131959 2.207163 1 22 32
0.034586 0.133679 2.208494 1 19 29
0.034565 0.135235 2.207107 1 16 25
0.034448 0.136410 2.199629 0 13 22
0.034386 0.137798 2.195715 0 11 18
0.034475 0.139789 2.201384 0 7 13
0.034595 0.141917 2.209055 0 5 10
0.034450 0.144589 2.199770 0 0 5
0.034398 0.146004 2.196476 0 0 4
0.034537 0.148231 2.205342 0 0 4
0.034604 0.150158 2.209596 1 0 5
0.034680 0.152135 2.214477 1 0 4
0.034405 0.152557 2.196872 1 1 3
0.034456 0.154421 2.200181 0 1 3
0.034499 0.156249 2.202919 0 0 3
0.034494 0.157863 2.202609 0 0 4
0.033528 0.156621 2.140905 1 0 7
0.033511 0.158131 2.139809 1 0 7
0.033522 0.159773 2.140514 1 0 6
0.033348 0.160525 2.129408 1 0 6
0.033406 0.162390 2.133121 1 0 5
0.034141 0.170822 2.180076 1 2 5
0.034189 0.172679 2.183084 1 2 4
0.034432 0.175543 2.198638 1 2 4
0.034465 0.177347 2.200764 1 2 3
0.034449 0.178896 2.199708 1 2 3
0.035122 0.185721 2.242666 1 2 2
0.034836 0.185864 2.224438 0 1 4
0.034577 0.186121 2.207886 0 0 6
0.033872 0.187147 2.162886 0 0 7
0.033836 0.188553 2.160587 0 1 6
0.033861 0.190296 2.162162 1 2 7
0.034235 0.194020 2.186019 1 2 6
0.034388 0.196520 2.195820 0 1 5
0.034937 0.201318 2.230906 0 1 2
0.034535 0.200636 2.205198 0 1 2
0.034369 0.201302 2.194599 0 1 0
0.034330 0.202703 2.192126 0 0 0
0.034201 0.203561 2.183860 0 0 0
0.033717 0.203878 2.152948 2 1 0
0.035426 0.220936 2.262109 0 0 4
0.035552 0.223405 2.270124 0 0 4
0.035596 0.225373 2.272965 0 0 4
0.035452 0.226143 2.263774 0 0 4
0.035464 0.234626 2.264504 1 0 5
0.035516 0.236659 2.267875 1 0 5
0.034126 0.238723 2.179080 1 10 12
0.034511 0.244690 2.203659 1 12 26
0.034157 0.243798 2.181044 0 14 32
0.033666 0.246684 2.149717 2 21 43
0.035215 0.259704 2.248630 2 21 43
0.041948 -0.424548 2.557284 174 169 174
0.042090 -0.414548 2.565931 161 164 157
0.042144 -0.413171 2.569219 143 148 142
0.042152 -0.411338 2.569690 115 123 123
0.041763 -0.405657 2.546012 97 106 112
0.041721 -0.403354 2.543415 93 104 115
0.041763 -0.401870 2.545984 85 97 111
0.041736 -0.399723 2.544357 63 75 88
0.041718 -0.397663 2.543266 41 53 65
0.041580 -0.394458 2.534808 36 47 61
0.041331 -0.390230 2.519670 39 48 65
0.041490 -0.389847 2.529325 33 42 63
0.041313 -0.386320 2.518579 23 34 58
0.041268 -0.384028 2.515820 18 30 54
0.041336 -0.382790 2.519970 21 35 56
0.041464 -0.382096 2.527765 28 44 61
0.041366 -0.379323 2.521808 31 49 62
0.041212 -0.376041 2.512400 32 50 63
0.041057 -0.372765 2.502929 36 55 70
0.041096 -0.371261 2.505327 43 61 79
0.041081 -0.369267 2.504423 49 67 88
0.041019 -0.366850 2.500625 52 69 91
0.040964 -0.364508 2.497307 47 65 85
0.040857 -0.361701 2.490750 40 57 77
0.040751 -0.358922 2.484319 33 49 70
0.040702 -0.356643 2.481305 28 46 66
0.040836 -0.355966 2.489461 12 33 48
0.040817 -0.353956 2.488327 10 34 47
0.041031 -0.353950 2.501345 14 36 50
0.041040 -0.352168 2.501888 19 41 52
0.041122 -0.351015 2.506924 25 45 56
0.041137 -0.349277 2.507812 30 48 59
0.041107 -0.347159 2.505972 34 51 61
0.041003 -0.344429 2.499671 36 51 60
0.041032 -0.342815 2.501436 33 47 55
0.040963 -0.340381 2.497213 35 48 56
0.040945 -0.338379 2.496126 41 53 59
0.040758 -0.334990 2.484742 47 58 64
0.040650 -0.332259 2.478142 51 63 69
0.040659 -0.330495 2.478717 53 66 72
0.040539 -0.327682 2.471384 53 66 73
0.040425 -0.324925 2.464396 54 66 74
0.040318 -0.322244 2.457905 60 68 79
0.040373 -0.320854 2.461249 65 71 83
0.040516 -0.320153 2.469943 60 69 79
0.040406 -0.317455 2.463243 38 52 60
0.040468 -0.316112 2.467045 10 25 32
0.040317 -0.313103 2.457810 0 11 18
0.040269 -0.310911 2.454912 21 32 41
0.040200 -0.308555 2.450685 76 84 96
0.040297 -0.307476 2.456609 128 137 149
0.040096 -0.304131 2.444391 157 169 182
0.040191 -0.303031 2.450178 149 163 176
0.040379 -0.302621 2.461644 127 141 154
0.040424 -0.301128 2.464389 112 123 135
0.040327 -0.298577 2.458456 117 125 135
0.040282 -0.296420 2.455714 128 135 143
0.040358 -0.295151 2.460341 138 142 149
0.040212 -0.292259 2.451410 140 145 150
0.040114 -0.289737 2.445492 132 135 143
0.040362 -0.289699 2.460604 134 138 168
0.040444 -0.288452 2.465565 132 134 205
0.040700 -0.288437 2.481183 147 140 233
0.040665 -0.286345 2.479034 152 130 227
0.040454 -0.283027 2.466160 193 168 255
0.040678 -0.282754 2.479838 215 197 250
0.040761 -0.281485 2.484890 113 103 177
0.040484 -0.275906 2.468008 125 126 180
0.040303 -0.272846 2.456962 128 131 172
0.040321 -0.271146 2.458090 128 133 163
0.040276 -0.269020 2.455354 134 140 162
0.040247 -0.267000 2.453553 131 139 156
0.040198 -0.264856 2.450578 140 150 166
0.040140 -0.262658 2.447053 137 147 163
0.040065 -0.260354 2.442490 145 151 168
0.040072 -0.258586 2.442927 150 154 171
0.040025 -0.256466 2.440025 153 159 175
0.039866 -0.253643 2.430335 157 163 179
0.039880 -0.251926 2.431189 160 166 180
0.039744 -0.249270 2.422923 161 167 181
0.039656 -0.246921 2.417552 163 166 183
0.039821 -0.246143 2.427585 163 166 183
0.039655 -0.243322 2.417471 169 170 188
0.039686 -0.230933 2.419362 169 168 184
0.039638 -0.228862 2.416472 168 169 183
0.039593 -0.226805 2.413675 168 170 182
0.039568 -0.224873 2.412181 168 170 182
0.039409 -0.222186 2.402500 166 168 180
0.039325 -0.219927 2.397338 165 167 179
0.039320 -0.218122 2.397071 164 166 178
0.039469 -0.217163 2.406163 163 165 177
0.039298 -0.214439 2.395707 163 165 177
0.039284 -0.212583 2.394840 160 162 175
0.039338 -0.211097 2.398170 158 160 173
0.039404 -0.209666 2.402183 158 160 173
0.039340 -0.207545 2.398286 158 160 173
0.039275 -0.205423 2.394320 158 160 172
0.039369 -0.204132 2.400053 158 161 171
0.039475 -0.202896 2.406535 158 161 169
0.039572 -0.201601 2.412430 158 162 166
0.039620 -0.200052 2.415361 160 164 166
0.039277 -0.196540 2.394432 161 165 165
0.039648 -0.196603 2.417074 161 165 165
0.039702 -0.195071 2.420335 159 163 164
0.039606 -0.192808 2.414505 158 162 163
0.039646 -0.191206 2.416931 156 160 161
0.039345 -0.187974 2.398599 155 159 159
0.039735 -0.188037 2.422360 154 158 157
0.039907 -0.187042 2.432818 151 156 153
0.039694 -0.184249 2.419874 147 152 148
0.039464 -0.181392 2.405813 145 150 145
0.039547 -0.179983 2.410876 142 147 141
0.039719 -0.177172 2.421412 138 143 138
0.039982 -0.176532 2.437402 138 143 139
0.039977 -0.174698 2.437083 139 142 138
0.040164 -0.173700 2.448531 139 141 135
0.040105 -0.171629 2.444933 137 138 131
0.040124 -0.169892 2.446069 133 134 126
0.040089 -0.167929 2.443939 129 130 122
0.040100 -0.166158 2.444587 126 127 118
0.040089 -0.164298 2.443939 121 123 112
0.040077 -0.162436 2.443230 115 117 104
0.040179 -0.161029 2.449440 109 111 97
0.040158 -0.159124 2.448117 102 104 88
0.040322 -0.157949 2.458133 95 96 78
0.040603 -0.157212 2.475274 88 90 71
0.040879 -0.156430 2.492102 87 90 72
0.040758 -0.154120 2.484714 91 95 78
0.040788 -0.152387 2.486540 90 96 81
0.040782 -0.150520 2.486211 86 94 79
0.040688 -0.148330 2.480477 81 92 78
0.040643 -0.146326 2.477740 77 91 77
0.040550 -0.144154 2.472051 72 89 76
0.040677 -0.142762 2.479767 65 81 76
0.040556 -0.140502 2.472404 53 66 70
0.040725 -0.139243 2.482694 35 45 57
0.040678 -0.137240 2.479838 16 24 41
0.040423 -0.134550 2.464301 4 10 27
0.040040 -0.131463 2.440964 0 5 18
0.039643 -0.128363 2.416744 0 4 13
0.040028 -0.127798 2.440221 0 4 10
0.040089 -0.120731 2.443939 1 2 7
0.040335 -0.119645 2.458927 0 1 6
0.040132 -0.117225 2.446533 0 1 6
0.040530 -0.116553 2.470811 0 0 6
0.040601 -0.114919 2.475153 0 0 7
0.041596 -0.113969 2.535819 0 0 8
0.040957 -0.108508 2.496843 0 1 6
0.040659 -0.105878 2.478688 0 1 5
0.040366 -0.103287 2.460813 0 1 5
0.040493 -0.101778 2.468561 0 1 4
0.040693 -0.100439 2.480772 1 2 4
0.040648 -0.098488 2.478031 1 3 5
0.040111 -0.091738 2.445294 0 3 7
0.039707 -0.089016 2.420660 0 3 9
0.039728 -0.087263 2.421925 0 2 9
0.039846 -0.085719 2.429133 0 0 8
0.039812 -0.083843 2.427081 0 0 7
0.040190 -0.082818 2.450088 0 0 5
0.039779 -0.080170 2.425033 0 1 4
0.039995 -0.078795 2.438223 0 1 2
0.040768 -0.063704 2.485346 0 1 4
0.040500 -0.061451 2.469022 0 1 3
0.040402 -0.059472 2.462993 0 1 3
0.040378 -0.057609 2.461552 0 0 4
0.040312 -0.055690 2.457557 1 0 5
0.040484 -0.054093 2.468008 0 0 5
0.040462 -0.052232 2.466685 0 0 7
0.040575 -0.048704 2.473573 0 0 11
0.040277 -0.046522 2.455425 0 0 12
0.040430 -0.044868 2.464741 0 1 12
0.040214 -0.042807 2.451551 1 5 14
0.040259 -0.041032 2.454296 1 7 16
0.040687 -0.039626 2.480402 1 9 16
0.040711 -0.037806 2.481862 1 10 18
0.040562 -0.035831 2.472761 0 10 19
0.040462 -0.033911 2.466707 0 10 21
0.040610 -0.032196 2.475708 0 11 24
0.040232 -0.030074 2.452660 0 11 27
0.040358 -0.028341 2.460364 0 12 29
0.040437 -0.026566 2.465183 0 13 30
0.040415 -0.024721 2.463784 0 14 30
0.039892 -0.022595 2.431939 0 15 31
0.039715 -0.020696 2.421133 0 18 32
0.040335 -0.019193 2.458927 0 19 34
0.039613 -0.017055 2.414921 0 21 35
0.040130 -0.015461 2.446425 0 22 37
0.040130 -0.013644 2.446425 0 23 38
0.040486 -0.011931 2.468140 0 23 39
0.039824 -0.009933 2.427796 0 24 41
0.039754 -0.008115 2.423486 0 25 42
0.039575 -0.006287 2.412586 0 26 43
0.039306 -0.004464 2.396191 1 28 45
0.039317 -0.002685 2.396864 3 29 45
0.039094 -0.000900 2.383270 4 30 46
0.038766 0.000863 2.363273 6 30 46
0.038812 0.002622 2.366062 7 28 46
0.039006 0.004401 2.377911 7 28 47
0.039012 0.006168 2.378280 8 29 47
0.038996 0.007931 2.377285 9 30 50
0.039302 0.009773 2.395955 10 31 51
0.039527 0.013409 2.409668 11 32 52
0.039116 0.015041 2.384621 11 32 53
0.038991 0.016758 2.376980 11 32 54
0.038711 0.018391 2.359905 11 31 55
0.038786 0.020183 2.364488 11 31 55
0.038711 0.021897 2.359953 11 31 55
0.038299 0.023398 2.334832 11 31 55
0.038220 0.025080 2.330021 11 31 55
0.038209 0.026803 2.329306 11 31 55
0.038427 0.028696 2.342627 11 31 52
0.038640 0.030605 2.355615 10 31 49
0.038675 0.032383 2.357714 10 31 48
0.038380 0.033875 2.339769 10 31 48
0.038260 0.035501 2.332449 10 31 50
0.038035 0.037014 2.318692 10 31 50
0.038086 0.038789 2.321827 10 31 52
0.038185 0.040619 2.327864 10 31 54
0.038181 0.042343 2.327603 13 33 57
0.038270 0.044174 2.333020 13 33 58
0.038234 0.045865 2.330851 13 33 58
0.038127 0.047462 2.324305 13 33 60
0.038065 0.049109 2.320543 14 34 61
0.037987 0.050728 2.315773 14 33 62
0.037992 0.052455 2.316079 14 33 63
0.037627 0.053656 2.293869 13 33 61
0.038015 0.055930 2.317497 11 36 56
0.038071 0.057737 2.320925 10 38 52
0.038047 0.059423 2.319459 10 38 52
0.037978 0.061035 2.315270 10 38 52
0.038066 0.062900 2.320598 10 38 52
0.037949 0.064426 2.313502 10 38 52
0.037955 0.066155 2.313873 10 38 52
0.037461 0.066988 2.283701 10 37 52
0.037585 0.068913 2.291310 8 36 51
0.037482 0.070422 2.285035 8 36 50
0.037312 0.071792 2.274662 8 36 50
0.037244 0.073347 2.270506 8 35 50
0.037200 0.074945 2.267825 7 35 48
0.037056 0.076332 2.259036 7 34 47
0.037006 0.077906 2.256010 7 34 46
0.037117 0.079820 2.262771 7 34 46
0.037183 0.081645 2.266773 8 31 46
0.037218 0.083406 2.268888 9 30 46
0.037101 0.084824 2.261753 9 29 45
0.037023 0.086323 2.257032 9 28 46
0.036907 0.087725 2.249982 9 28 47
0.036923 0.089435 2.250944 9 29 48
0.037010 0.091321 2.256239 10 30 49
0.036943 0.092827 2.252129 10 30 49
0.037068 0.094821 2.259777 10 31 49
0.037015 0.096360 2.256516 10 31 49
0.036960 0.097892 2.253193 9 31 47
0.036867 0.099313 2.247487 8 30 46
0.036851 0.100939 2.246517 7 29 44
0.036809 0.102492 2.243985 5 27 42
0.036579 0.103509 2.229987 3 25 40
0.036558 0.105104 2.228680 3 23 38
0.036436 0.106404 2.221264 2 21 34
0.036392 0.107922 2.218561 0 18 30
0.036311 0.109325 2.213604 0 15 26
0.036498 0.111541 2.225010 0 11 22
0.036543 0.113335 2.227779 0 9 19
0.036582 0.115112 2.230153 0 9 18
0.036249 0.115705 2.209828 0 9 17
0.036173 0.117101 2.205221 0 10 17
0.036300 0.119155 2.212950 0 12 18
0.036202 0.120473 2.206976 0 13 19
0.036185 0.122055 2.205949 0 15 21
0.036042 0.123205 2.197232 0 17 24
0.036203 0.125393 2.207014 0 19 27
0.036351 0.127552 2.216040 0 22 30
0.036179 0.128586 2.205544 0 24 32
0.036192 0.130272 2.206353 1 25 33
0.036220 0.132015 2.208098 1 22 31
0.036228 0.133683 2.208563 0 19 28
0.036245 0.135387 2.209596 0 16 25
0.036134 0.136609 2.202840 0 13 22
0.035989 0.137691 2.194012 0 10 16
0.036115 0.139809 2.201699 0 7 11
0.036243 0.141945 2.209485 0 5 8
0.036399 0.144202 2.218961 0 3 6
0.036186 0.144997 2.205977 1 0 5
0.036186 0.146637 2.206002 0 0 4
0.036343 0.148916 2.215541 0 0 4
0.036094 0.149532 2.200380 1 0 5
0.036202 0.151619 2.206976 1 0 4
0.036097 0.152815 2.200587 1 0 4
0.036148 0.154665 2.203659 0 0 4
0.036250 0.158386 2.209900 0 0 4
0.034996 0.156076 2.133444 1 0 6
0.034993 0.157646 2.133257 1 0 6
0.034995 0.159239 2.133370 1 0 5
0.036058 0.173873 2.198169 1 2 5
0.036065 0.175543 2.198638 1 2 5
0.036054 0.177122 2.197968 1 2 5
0.036245 0.179700 2.209596 1 2 5
0.036484 0.182539 2.224190 1 2 4
0.036541 0.184478 2.227659 1 2 3
0.036271 0.184756 2.211177 0 1 5
0.036199 0.186027 2.206779 0 0 7
0.036590 0.191353 2.230647 0 0 8
0.035479 0.187148 2.162894 0 0 7
0.035392 0.188292 2.157604 0 1 6
0.035435 0.190124 2.160204 1 2 7
0.035880 0.194139 2.187369 1 2 6
0.036367 0.198421 2.217055 0 1 4
0.036455 0.200550 2.222396 0 1 2
0.036262 0.201129 2.210622 0 2 1
0.035960 0.201081 2.192200 0 0 0
0.035880 0.202263 2.187369 0 0 0
0.035668 0.202683 2.174446 0 0 0
0.036952 0.220014 2.252669 0 0 4
0.037108 0.222628 2.262233 0 0 4
0.037189 0.224794 2.267131 0 0 4
0.037225 0.226696 2.269310 0 0 4
0.037319 0.235722 2.275086 1 0 4
0.036013 0.238883 2.195423 0 10 7
0.036077 0.240947 2.199375 0 11 13
0.036131 0.242943 2.202660 0 11 20
0.036035 0.243925 2.196770 0 13 27
0.035749 0.243608 2.179344 1 14 32
0.036094 0.247594 2.200380 1 16 36
0.036248 0.255218 2.209783 2 18 42
0.043972 -0.425750 2.564524 174 169 174
0.044214 -0.416599 2.578624 162 164 158
0.044304 -0.415529 2.583884 140 145 141
0.044256 -0.413167 2.581116 110 118 119
0.044090 -0.409704 2.571416 94 102 110
0.043929 -0.406300 2.561996 93 102 115
0.043761 -0.402851 2.552198 83 93 110
0.043717 -0.400556 2.549660 55 67 82
0.043653 -0.398077 2.545914 28 40 55
0.043566 -0.395402 2.540878 15 25 41
0.043316 -0.391255 2.526287 12 21 38
0.043159 -0.387962 2.517093 14 24 43
0.043212 -0.386571 2.520216 15 26 47
0.043090 -0.383615 2.513112 17 29 50
0.043237 -0.383044 2.521643 23 36 56
0.043299 -0.381723 2.525299 29 45 61
0.043119 -0.378262 2.514759 31 49 63
0.043060 -0.375886 2.511364 28 46 60
0.042878 -0.372441 2.500753 25 43 59
0.042816 -0.370044 2.497117 33 51 71
0.042784 -0.367917 2.495270 39 57 79
0.042764 -0.365889 2.494079 36 54 76
0.042696 -0.363459 2.490124 27 45 67
0.042465 -0.359655 2.476665 21 38 61
0.042485 -0.357978 2.477790 22 38 61
0.042573 -0.356874 2.482914 25 43 65
0.042625 -0.355471 2.485999 19 40 59
0.042653 -0.353856 2.487626 20 43 60
0.042643 -0.351921 2.487010 25 46 63
0.042671 -0.350301 2.488626 30 50 65
0.042804 -0.349541 2.496395 34 53 65
0.042835 -0.347938 2.498199 38 55 66
0.042728 -0.345223 2.491997 42 57 66
0.042785 -0.343827 2.495299 45 60 67
0.042747 -0.341673 2.493103 47 60 68
0.042678 -0.339267 2.489037 50 63 69
0.042517 -0.336151 2.479690 56 67 75
0.042459 -0.333849 2.476282 62 72 81
0.042327 -0.330980 2.468599 65 77 85
0.042316 -0.329057 2.467930 65 78 86
0.042254 -0.326748 2.464338 64 77 85
0.042224 -0.324689 2.462604 63 74 83
0.042054 -0.321560 2.452694 67 75 86
0.042256 -0.321271 2.464452 70 77 88
0.042291 -0.319705 2.466490 60 71 80
0.042133 -0.316686 2.457283 36 50 58
0.042269 -0.315879 2.465226 10 22 29
0.042066 -0.312538 2.453372 0 10 18
0.042048 -0.310584 2.452334 25 36 45
0.042077 -0.308971 2.453993 82 91 102
0.042050 -0.306954 2.452439 133 143 156
0.041824 -0.303494 2.439267 158 171 184
0.041930 -0.302444 2.445430 144 158 171
0.041965 -0.300877 2.447459 117 131 143
0.042106 -0.300064 2.455679 101 112 124
0.042037 -0.297753 2.451669 109 117 127
0.042078 -0.296222 2.454072 122 129 138
0.041982 -0.293728 2.448482 132 136 144
0.041881 -0.291203 2.442554 135 138 145
0.041994 -0.290173 2.449174 124 127 138
0.042063 -0.288825 2.453180 127 131 165
0.042149 -0.287592 2.458209 131 133 206
0.042484 -0.288036 2.477740 149 142 235
0.042330 -0.285162 2.468786 152 131 225
0.042222 -0.282599 2.462439 201 176 255
0.042534 -0.282848 2.480660 219 200 248
0.042709 -0.282162 2.490867 98 88 158
0.042747 -0.280563 2.493103 75 72 134
0.042161 -0.273064 2.458927 126 128 169
0.042123 -0.270989 2.456667 124 128 158
0.042257 -0.270025 2.464525 129 136 156
0.042054 -0.266903 2.452660 126 133 150
0.041971 -0.264557 2.447807 137 146 162
0.041890 -0.262232 2.443084 135 143 158
0.041881 -0.260364 2.442586 144 150 166
0.041904 -0.258693 2.443939 150 154 171
0.041676 -0.255479 2.430631 155 159 176
0.041714 -0.253902 2.432818 159 164 180
0.041515 -0.250894 2.421234 162 167 183
0.041421 -0.248532 2.415752 164 169 184
0.041376 -0.246471 2.413143 165 168 184
0.041461 -0.245181 2.418098 165 167 183
0.041423 -0.243163 2.415891 169 168 185
0.041541 -0.231257 2.422751 167 166 182
0.041470 -0.229062 2.418583 165 166 179
0.041353 -0.226628 2.411797 165 166 178
0.041216 -0.224090 2.403783 165 166 178
0.041118 -0.221777 2.398086 164 166 177
0.041185 -0.220356 2.402013 163 165 176
0.041392 -0.219666 2.414036 162 164 175
0.041393 -0.217878 2.414090 162 163 175
0.041218 -0.215172 2.403890 161 163 175
0.041087 -0.212709 2.396264 158 160 173
0.041055 -0.210765 2.394400 157 159 172
0.041024 -0.208830 2.392597 157 159 172
0.041238 -0.208134 2.405091 157 159 171
0.041251 -0.206409 2.405813 157 160 170
0.041354 -0.205137 2.411865 157 160 168
0.041253 -0.202850 2.405983 157 160 166
0.041334 -0.201453 2.410654 157 161 165
0.041234 -0.199182 2.404851 159 163 165
0.041086 -0.196685 2.396191 160 164 164
0.041990 -0.199193 2.448915 160 164 163
0.041583 -0.195464 2.425215 158 162 162
0.041416 -0.192885 2.415475 157 161 162
0.041124 -0.187963 2.398458 154 158 158
0.041110 -0.186117 2.397627 153 157 156
0.041190 -0.184693 2.402265 150 155 152
0.041152 -0.182740 2.400053 146 151 146
0.041094 -0.180705 2.396705 144 149 143
0.041096 -0.178930 2.396773 141 146 140
0.041152 -0.177392 2.400053 138 143 137
0.041400 -0.174873 2.414505 137 142 137
0.041546 -0.173690 2.423017 137 142 137
0.041633 -0.172252 2.428119 137 140 134
0.041777 -0.171038 2.436514 136 137 130
0.041791 -0.165665 2.437336 127 128 119
0.041785 -0.163832 2.437008 123 125 113
0.041687 -0.161638 2.431237 117 119 106
0.042058 -0.159435 2.452910 103 105 88
0.042201 -0.158149 2.461249 93 94 77
0.042603 -0.157812 2.484714 87 89 70
0.042549 -0.155768 2.481560 85 89 70
0.042377 -0.153300 2.471496 87 92 74
0.042627 -0.152360 2.486105 85 92 76
0.042531 -0.150173 2.480477 81 90 75
0.042417 -0.147935 2.473865 78 89 75
0.042311 -0.145730 2.467648 75 90 75
0.042298 -0.143853 2.466889 73 90 77
0.042384 -0.142310 2.471921 70 86 79
0.042197 -0.139854 2.461009 56 68 71
0.042365 -0.138577 2.470833 32 42 52
0.042496 -0.137165 2.478469 11 18 33
0.041897 -0.133415 2.443514 1 6 21
0.041812 -0.131334 2.438563 0 4 15
0.041400 -0.126451 2.414505 0 4 9
0.041756 -0.118495 2.435281 0 1 6
0.041819 -0.116863 2.438984 0 1 6
0.042241 -0.116212 2.463576 0 1 6
0.043495 -0.112125 2.536711 0 0 6
0.043424 -0.110060 2.532556 0 1 5
0.041990 -0.102787 2.448915 0 1 5
0.042265 -0.101631 2.464974 0 1 4
0.042421 -0.098331 2.474100 0 3 5
0.042021 -0.095582 2.450729 0 3 5
0.041976 -0.093662 2.448117 0 2 6
0.041839 -0.091545 2.440148 0 2 7
0.041416 -0.088825 2.415475 0 3 9
0.041566 -0.087346 2.424237 0 2 9
0.041879 -0.086188 2.442451 0 0 8
0.041699 -0.084011 2.431939 0 0 7
0.041918 -0.082638 2.444767 0 0 6
0.041534 -0.080082 2.422360 0 1 5
0.041366 -0.077965 2.412542 0 1 3
0.042326 -0.063273 2.468561 0 1 5
0.042113 -0.061131 2.456138 0 1 3
0.042012 -0.059164 2.450227 0 1 3
0.041971 -0.057288 2.447832 0 0 4
0.041966 -0.055463 2.447540 1 0 5
0.041994 -0.053680 2.449164 0 0 7
0.042012 -0.051884 2.450245 0 0 7
0.041959 -0.050000 2.447103 0 0 9
0.042020 -0.048253 2.450685 0 0 10
0.042172 -0.046601 2.459569 0 1 10
0.041860 -0.044442 2.441341 0 1 11
0.041824 -0.042593 2.439267 1 4 13
0.042022 -0.040974 2.450803 0 6 14
0.042414 -0.039519 2.473664 0 8 15
0.042575 -0.037824 2.483037 0 9 17
0.042122 -0.035597 2.456609 0 9 19
0.042023 -0.033693 2.450875 0 10 21
0.041977 -0.031837 2.448163 0 10 23
0.041948 -0.029998 2.446485 0 11 26
0.041942 -0.028177 2.446148 0 11 28
0.041948 -0.026364 2.446510 0 12 29
0.041955 -0.024551 2.446922 0 13 29
0.041787 -0.022642 2.437083 0 15 30
0.041829 -0.019041 2.439518 0 19 33
0.041780 -0.017209 2.436671 0 21 34
0.041853 -0.015426 2.440964 0 22 36
0.041912 -0.013632 2.444378 0 22 37
0.041880 -0.011808 2.442535 0 23 38
0.041661 -0.009941 2.429722 0 24 40
0.041270 -0.008060 2.406968 0 25 42
0.041060 -0.004461 2.394677 1 27 44
0.040956 -0.002676 2.388614 2 29 46
0.040585 -0.000894 2.366993 3 30 47
0.040383 0.000860 2.355196 5 29 45
0.040107 0.002592 2.339105 6 28 45
0.040473 0.006122 2.360490 8 29 46
0.041723 0.009926 2.433345 9 30 49
0.040807 0.015011 2.379941 10 31 51
0.040650 0.016714 2.370783 10 31 52
0.040335 0.018332 2.352394 10 30 53
0.040310 0.020067 2.350938 10 30 53
0.040167 0.021736 2.342606 10 30 54
0.039919 0.023331 2.328172 10 30 54
0.039725 0.024938 2.316844 10 30 54
0.040340 0.030567 2.352684 9 30 48
0.040248 0.032241 2.347362 9 30 47
0.039992 0.033768 2.332417 9 30 47
0.039950 0.035463 2.329962 9 30 49
0.039712 0.036973 2.316100 9 30 49
0.039568 0.038552 2.307676 9 30 51
0.039587 0.040286 2.308807 9 30 53
0.039778 0.042204 2.319937 12 32 56
0.039714 0.043856 2.316221 12 32 57
0.039603 0.045449 2.309726 12 32 57
0.039642 0.047211 2.311986 12 32 59
0.039550 0.048815 2.306626 13 33 60
0.039492 0.050454 2.303240 13 32 61
0.039518 0.052198 2.304737 13 32 62
0.039370 0.053709 2.296113 12 33 59
0.039594 0.055730 2.309219 11 36 55
0.039651 0.057528 2.312533 10 37 51
0.039606 0.059178 2.309880 10 38 50
0.039501 0.060733 2.303793 10 38 50
0.039440 0.062348 2.300230 10 38 50
0.039545 0.064226 2.306344 10 38 50
0.039546 0.065941 2.306414 10 38 50
0.039535 0.067635 2.305741 10 38 50
0.039339 0.069004 2.294307 7 35 48
0.039107 0.070291 2.280775 7 35 47
0.039037 0.071856 2.276686 7 35 47
0.038846 0.073187 2.265549 7 35 47
0.038874 0.074925 2.267229 7 35 47
0.038903 0.076667 2.268923 7 35 47
0.038528 0.077595 2.247020 7 35 47
0.038570 0.079351 2.249473 7 34 47
0.038678 0.081248 2.255757 8 31 46
0.038838 0.083268 2.265128 8 29 46
0.038726 0.084705 2.258571 8 29 47
0.038646 0.086204 2.253896 9 29 48
0.038625 0.087830 2.252669 9 29 50
0.038468 0.089139 2.243518 8 29 51
0.038429 0.090714 2.241241 8 29 51
0.038435 0.092393 2.241596 8 29 51
0.038428 0.094040 2.241174 9 30 51
0.038603 0.096141 2.251392 10 31 50
0.038674 0.097994 2.255553 9 30 48
0.038445 0.099079 2.242183 8 29 46
0.038476 0.100827 2.244018 8 29 46
0.038090 0.101465 2.221488 7 28 45
0.038071 0.103063 2.220381 6 27 44
0.038054 0.104665 2.219380 6 27 44
0.038045 0.106289 2.218854 2 23 39
0.038032 0.107901 2.218119 0 20 36
0.038025 0.109529 2.217720 0 18 33
0.038089 0.111361 2.221412 0 16 30
0.037970 0.112658 2.214477 0 14 26
0.038013 0.114433 2.216998 0 12 24
0.037910 0.115765 2.210988 0 11 22
0.037904 0.117388 2.210622 0 12 22
0.037858 0.118887 2.207973 0 14 22
0.037820 0.120404 2.205706 0 16 23
0.037783 0.121924 2.203566 0 18 25
0.037722 0.123363 2.200048 0 19 27
0.037836 0.125373 2.206659 0 20 29
0.037761 0.126762 2.202314 0 21 32
0.037759 0.128389 2.202168 0 23 33
0.037778 0.130091 2.203288 1 24 33
0.037776 0.131722 2.203191 0 20 29
0.037817 0.133501 2.205556 0 16 25
0.037761 0.134941 2.202314 0 13 21
0.037674 0.136260 2.197208 0 9 16
0.037662 0.137850 2.196544 0 5 11
0.037671 0.139513 2.197034 0 2 8
0.037721 0.141332 2.199944 0 2 6
0.037770 0.143151 2.202798 1 1 6
0.037712 0.144567 2.199438 1 0 5
0.037765 0.146406 2.202526 0 0 4
0.037976 0.148868 2.214822 0 0 4
0.037555 0.148846 2.190284 1 0 5
0.037772 0.151343 2.202951 0 0 5
0.037758 0.152921 2.202122 0 0 5
0.037662 0.154163 2.196505 0 0 6
0.036586 0.154513 2.133752 0 0 4
0.036523 0.155831 2.130098 0 0 3
0.036499 0.157309 2.128697 0 0 3
0.036518 0.158972 2.129786 0 0 2
0.037522 0.166594 2.188345 0 0 2
0.037704 0.169036 2.198973 0 0 3
0.037749 0.172509 2.201602 1 1 7
0.037604 0.173474 2.193136 0 1 7
0.037504 0.174637 2.187296 0 2 8
0.037485 0.176174 2.186206 0 2 8
0.037820 0.179387 2.205743 0 2 7
0.037877 0.181297 2.209055 0 2 7
0.037870 0.182904 2.208643 0 2 6
0.037818 0.184291 2.205618 0 1 7
0.037947 0.188206 2.213119 0 0 8
0.037910 0.189667 2.210988 0 0 8
0.037073 0.187087 2.162192 0 0 7
0.036973 0.188180 2.156316 0 1 6
0.036910 0.189459 2.152654 0 1 6
0.037786 0.195595 2.203766 1 2 5
0.038065 0.198689 2.220051 0 1 3
0.038044 0.200225 2.218802 0 2 1
0.037783 0.200487 2.203566 0 2 1
0.037664 0.201487 2.196623 0 1 0
0.037423 0.201819 2.182569 0 0 0
0.037053 0.201431 2.161008 0 0 0
0.036752 0.201386 2.143448 0 1 0
0.038447 0.218999 2.242278 0 0 4
0.038631 0.221722 2.253027 0 0 4
0.038644 0.223473 2.253812 0 0 4
0.038671 0.225302 2.255359 0 0 4
0.038747 0.234138 2.259802 0 1 3
0.038564 0.234701 2.249107 1 0 3
0.037446 0.237631 2.183921 0 10 10
0.037427 0.239130 2.182789 0 11 15
0.037394 0.240542 2.180897 0 12 20
0.037351 0.241883 2.178384 0 13 26
0.037365 0.243589 2.179173 1 15 33
0.037301 0.244794 2.175495 2 17 36
0.037342 0.246676 2.177846 2 18 38
0.037233 0.247571 2.171502 2 17 38
0.037518 0.251089 2.188110 1 16 39
0.037610 0.253335 2.193479 0 16 39
0.046048 -0.431166 2.574113 174 169 175
0.046135 -0.430059 2.578940 173 168 174
0.045916 -0.426116 2.566727 171 166 170
0.045946 -0.424483 2.568383 169 164 168
0.046055 -0.423581 2.574498 167 162 166
0.046427 -0.425070 2.595262 166 162 164
0.046432 -0.423189 2.595552 165 164 163
0.046075 -0.414197 2.575601 133 138 135
0.046144 -0.412900 2.579451 102 109 112
0.046011 -0.409803 2.572033 91 98 108
0.045851 -0.406469 2.563061 93 101 117
0.045614 -0.402479 2.549841 79 89 107
0.045505 -0.399624 2.543725 48 59 76
0.045556 -0.398182 2.546585 23 35 52
0.045375 -0.394717 2.536478 8 17 34
0.045057 -0.390083 2.518719 3 10 27
0.045191 -0.389363 2.526186 8 18 36
0.045006 -0.385900 2.515841 12 24 43
0.045172 -0.385449 2.525128 17 30 48
0.045160 -0.383474 2.524472 23 38 55
0.044899 -0.379391 2.509867 29 45 61
0.044959 -0.378034 2.513238 30 48 61
0.045001 -0.376513 2.515549 24 43 58
0.044728 -0.372377 2.500328 15 34 49
0.044645 -0.369828 2.495659 18 37 55
0.044609 -0.367679 2.493652 19 38 58
0.044461 -0.364611 2.485367 16 34 56
0.044414 -0.362384 2.482759 11 29 52
0.044504 -0.361273 2.487806 12 31 55
0.044470 -0.359148 2.485884 20 38 62
0.044410 -0.356816 2.482507 28 47 71
0.044478 -0.355517 2.486316 41 61 86
0.044436 -0.353335 2.483964 43 64 88
0.044451 -0.351613 2.484832 45 66 86
0.044527 -0.350361 2.489048 45 66 81
0.044661 -0.349563 2.496557 44 64 75
0.044638 -0.347530 2.495270 43 62 70
0.044678 -0.345990 2.497533 45 62 69
0.044615 -0.343643 2.493966 47 63 70
0.044580 -0.341527 2.492040 60 74 80
0.044384 -0.338179 2.481058 66 79 85
0.044240 -0.335251 2.473051 71 82 90
0.044176 -0.332932 2.469477 74 84 93
0.044166 -0.331023 2.468917 74 86 94
0.044281 -0.330046 2.475343 72 85 93
0.044209 -0.327670 2.471291 69 82 90
0.044232 -0.326003 2.472574 67 79 87
0.044181 -0.323793 2.469724 67 76 86
0.044117 -0.321490 2.466129 64 72 83
0.044154 -0.319932 2.468242 51 62 71
0.044077 -0.317540 2.463908 27 41 48
0.044128 -0.316075 2.466758 5 17 24
0.043952 -0.312994 2.456951 3 11 19
0.044071 -0.312012 2.463609 30 41 50
0.043999 -0.309672 2.459555 87 97 107
0.043974 -0.307669 2.458154 136 147 158
0.043837 -0.304893 2.450511 157 169 182
0.043693 -0.302076 2.442451 139 153 166
0.043824 -0.301163 2.449782 110 123 136
0.043918 -0.299987 2.455055 94 105 117
0.043969 -0.298508 2.457887 105 112 123
0.044007 -0.296939 2.460018 119 126 134
0.043796 -0.293698 2.448232 128 132 139
0.043802 -0.291916 2.448531 129 132 141
0.043940 -0.291015 2.456284 122 125 140
0.043902 -0.288937 2.454124 125 128 167
0.043988 -0.287676 2.458927 128 129 206
0.044396 -0.288503 2.481757 149 142 236
0.044137 -0.284987 2.467275 159 137 229
0.044153 -0.283258 2.468177 207 181 255
0.044493 -0.283594 2.487201 215 198 246
0.044408 -0.281202 2.482397 92 81 148
0.044515 -0.280037 2.488431 77 73 133
0.044484 -0.277990 2.486654 124 126 175
0.044160 -0.274134 2.468561 124 126 166
0.043812 -0.270152 2.449078 121 124 155
0.043897 -0.268853 2.453834 126 132 152
0.043902 -0.267063 2.454128 123 130 146
0.043741 -0.264270 2.445156 137 145 159
0.043714 -0.262289 2.443615 135 143 157
0.043659 -0.260144 2.440525 146 151 167
0.043621 -0.258107 2.438402 152 155 172
0.043495 -0.255560 2.431399 157 160 177
0.043275 -0.252467 2.419071 163 166 183
0.043149 -0.249941 2.412039 166 169 186
0.043205 -0.248475 2.415198 166 169 186
0.043184 -0.246558 2.413992 166 168 184
0.043252 -0.245150 2.417793 166 166 182
0.043234 -0.243255 2.416803 167 165 181
0.043319 -0.232938 2.421526 170 167 183
0.043254 -0.230796 2.417931 165 162 178
0.043288 -0.229176 2.419790 162 161 174
0.043069 -0.226231 2.407572 162 162 172
0.042859 -0.223347 2.395815 161 161 171
0.042970 -0.222143 2.402036 161 161 171
0.043197 -0.221522 2.414716 161 161 171
0.043138 -0.219430 2.411438 160 160 170
0.043112 -0.217508 2.409985 161 161 172
0.043136 -0.215838 2.411329 160 160 172
0.042983 -0.213287 2.402766 157 158 170
0.042809 -0.210644 2.393016 155 157 169
0.042904 -0.209330 2.398330 155 157 169
0.042986 -0.207947 2.402929 155 157 169
0.043076 -0.206593 2.407957 155 158 168
0.043181 -0.205303 2.413813 155 158 166
0.043164 -0.203432 2.412891 155 158 164
0.042903 -0.200422 2.398313 155 159 163
0.043038 -0.199261 2.405813 157 161 162
0.043008 -0.197339 2.404164 158 162 161
0.043437 -0.197502 2.428119 158 162 161
0.043234 -0.194783 2.416769 157 161 160
0.043171 -0.192711 2.413294 155 159 158
0.043168 -0.190903 2.413099 153 157 156
0.043174 -0.189139 2.413467 152 156 155
0.042969 -0.186454 2.401969 152 156 155
0.043038 -0.184966 2.405813 149 153 150
0.042948 -0.182796 2.400789 145 150 145
0.042919 -0.180892 2.399182 143 148 142
0.043026 -0.179559 2.405194 140 145 138
0.043141 -0.178246 2.411601 137 142 136
0.043144 -0.176466 2.411757 136 141 135
0.043295 -0.175286 2.420208 136 141 136
0.043214 -0.173165 2.415685 137 140 136
0.043232 -0.171443 2.416710 137 139 133
0.043350 -0.170108 2.423261 135 137 129
0.043230 -0.167844 2.416584 133 134 126
0.043295 -0.166298 2.420208 130 131 123
0.043560 -0.160082 2.435034 114 116 102
0.044455 -0.159679 2.485053 96 97 80
0.044459 -0.157848 2.485291 90 92 73
0.044387 -0.155748 2.481245 87 90 72
0.044300 -0.153604 2.476392 86 90 74
0.044558 -0.152648 2.490805 83 89 73
0.044491 -0.150573 2.487085 79 87 72
0.044301 -0.148087 2.476415 78 88 74
0.044388 -0.146537 2.481305 75 88 73
0.044127 -0.143842 2.466707 74 90 75
0.044324 -0.142645 2.477740 72 86 78
0.044031 -0.139873 2.461342 55 67 67
0.044259 -0.138761 2.474100 27 36 44
0.044250 -0.136894 2.473573 6 13 25
0.043609 -0.133100 2.437748 0 3 15
0.043701 -0.131568 2.442912 0 3 13
0.042909 -0.127401 2.398617 0 4 11
0.043141 -0.126299 2.411601 0 4 8
0.043049 -0.124242 2.406455 0 4 7
0.042679 -0.121402 2.385772 0 4 7
0.043645 -0.116900 2.439745 0 1 6
0.043942 -0.115872 2.456363 0 1 6
0.045236 -0.115528 2.528711 0 0 6
0.045777 -0.115008 2.558937 0 0 6
0.045833 -0.113247 2.562105 0 1 6
0.045446 -0.110402 2.540419 0 1 5
0.043988 -0.103208 2.458927 0 1 5
0.044241 -0.101965 2.473083 1 2 4
0.044953 -0.101739 2.512864 1 2 4
0.043900 -0.095711 2.454027 0 3 4
0.043708 -0.093477 2.443292 0 2 5
0.043595 -0.091425 2.436949 0 2 7
0.043868 -0.088356 2.452243 0 2 9
0.043800 -0.086399 2.448416 0 0 8
0.043849 -0.084676 2.451196 0 0 7
0.043312 -0.080041 2.421133 0 1 4
0.043988 -0.061200 2.458927 0 1 3
0.043783 -0.059097 2.447465 0 1 3
0.043850 -0.055546 2.451218 1 0 5
0.043847 -0.051902 2.451084 0 0 7
0.043853 -0.050088 2.451410 0 0 9
0.044275 -0.048732 2.474998 0 0 10
0.043809 -0.046399 2.448915 0 0 10
0.043428 -0.044193 2.427662 0 1 10
0.043702 -0.042657 2.442946 1 4 12
0.044123 -0.041236 2.466490 1 6 13
0.044336 -0.039594 2.478382 0 7 14
