ply
format ascii 1.0
element vertex 1320
property float x
property float y
property float z
property uchar red
property uchar green
property uchar blue
end_header
0.515179 -0.135501 2.415990 179 171 168
0.515121 -0.133692 2.415718 179 171 168
0.514810 -0.131818 2.414259 179 171 168
0.515336 -0.130157 2.416725 179 171 168
0.516449 -0.128640 2.421946 179 171 168
0.465853 -0.114414 2.184668 179 171 168
0.465613 -0.112733 2.183542 179 171 168
0.466032 -0.111211 2.185508 179 171 168
0.465476 -0.109457 2.182902 179 171 168
0.514304 -0.115565 2.411886 179 171 168
0.515654 -0.114072 2.418217 179 171 168
0.516993 -0.112567 2.424495 179 171 168
0.522200 -0.111882 2.448915 179 171 168
0.526095 -0.110884 2.467180 179 171 168
0.522413 -0.106469 2.449912 179 171 168
0.574798 -0.083108 2.695581 178 169 172
0.574828 -0.081110 2.695721 178 169 172
0.575324 -0.079176 2.698045 178 169 172
0.575979 -0.077259 2.701118 178 169 172
0.576436 -0.075313 2.703263 178 169 172
0.576931 -0.073368 2.705583 178 169 172
0.576741 -0.071335 2.704692 178 169 172
0.576481 -0.047206 2.703473 179 171 169
0.574754 -0.043061 2.695374 179 171 169
0.573752 -0.040987 2.690673 179 171 168
0.521659 -0.006375 2.446379 1 0 12
1.340683 0.063006 6.287279 1 8 17
1.378250 0.074373 6.463458 0 5 13
0.478899 0.055869 2.245852 0 0 11
3.562474 0.626560 16.706615 1 0 5
3.564193 0.639277 16.714676 1 0 5
0.481547 0.098112 2.258269 1 0 5
0.480853 0.099646 2.255015 1 0 5
0.478984 0.107601 2.246248 0 0 6
0.479652 0.109422 2.249381 0 1 6
0.479757 0.111117 2.249872 0 1 6
0.479798 0.112797 2.250063 0 1 6
1.948973 0.471769 9.139922 0 1 5
1.932059 0.474405 9.060606 0 0 4
0.479032 0.124298 2.246475 0 1 2
0.451150 0.123349 2.115720 0 0 2
0.453989 0.125707 2.129032 0 0 1
0.453065 0.127029 2.124698 0 0 1
0.450880 0.127987 2.114452 0 0 1
0.446472 0.128291 2.093780 0 0 1
0.454711 0.140161 2.132416 0 1 2
0.457823 0.144310 2.147010 0 1 1
0.469299 0.167544 2.200830 0 0 1
0.470132 0.169479 2.204736 0 1 1
0.466353 0.172990 2.187014 0 2 1
0.467689 0.175115 2.193279 0 2 1
0.466023 0.176114 2.185468 0 2 1
0.465761 0.177638 2.184238 0 2 1
0.466322 0.185973 2.186870 0 0 7
0.455325 0.189518 2.135295 0 1 3
0.455519 0.191185 2.136207 0 1 2
0.373904 0.160838 1.753464 0 2 0
0.373766 0.162081 1.752819 0 2 0
0.373660 0.163336 1.752320 0 2 0
0.373082 0.164383 1.749608 0 2 0
0.372141 0.165265 1.745196 0 2 0
0.371799 0.166408 1.743595 0 1 1
0.371400 0.167523 1.741723 0 1 2
0.371222 0.168736 1.740885 0 0 2
0.387798 0.196532 1.818619 0 0 0
0.388955 0.199829 1.824049 0 0 0
0.460758 0.247953 2.160775 0 0 0
0.480096 0.260031 2.251463 0 0 0
0.515462 -0.138684 2.408926 179 171 168
0.513563 -0.136390 2.400053 179 171 168
0.514443 -0.134838 2.404164 179 171 168
0.515246 -0.133260 2.407914 179 171 168
0.515925 -0.131645 2.411089 179 171 168
0.516232 -0.129931 2.412524 179 171 168
0.517206 -0.128381 2.417074 179 171 168
0.463970 -0.110335 2.168287 179 171 168
0.462694 -0.108425 2.162321 179 171 168
0.511051 -0.114435 2.388309 179 171 168
0.518530 -0.112510 2.423261 179 171 168
0.522220 -0.111498 2.440506 179 171 168
0.525131 -0.110297 2.454111 179 171 168
0.571362 -0.090257 2.670166 178 169 173
0.574134 -0.088702 2.683120 178 169 173
0.571743 -0.082379 2.671945 178 169 172
0.572401 -0.080487 2.675019 178 169 172
0.574393 -0.078773 2.684329 178 169 172
0.576529 -0.077065 2.694310 178 169 172
0.577377 -0.075174 2.698274 178 169 172
0.578120 -0.073264 2.701745 178 169 172
0.577704 -0.071206 2.699802 178 169 172
0.573424 -0.042812 2.679803 179 171 169
0.572878 -0.040782 2.677249 179 171 168
0.572321 -0.038756 2.674646 178 172 167
0.572112 -0.036756 2.673669 175 171 162
0.519786 -0.022569 2.429133 163 156 163
0.562884 -0.014670 2.630545 1 7 19
0.573271 -0.004991 2.679086 0 0 12
0.343708 0.012517 1.606261 7 6 15
0.346035 0.015005 1.617135 7 11 23
1.392404 0.074876 6.507164 0 6 12
0.482281 0.054394 2.253858 1 0 12
11.317371 1.512144 52.889828 0 0 8
0.480903 0.097641 2.247418 1 0 5
0.452113 0.124752 2.112872 0 0 2
0.452958 0.128130 2.116822 0 0 2
0.447388 0.128108 2.090792 0 0 2
0.472363 0.150016 2.207510 0 1 3
0.436301 0.144621 2.038978 0 0 2
0.436946 0.146352 2.041993 0 0 2
0.437196 0.147953 2.043161 0 0 2
0.438398 0.149882 2.048779 0 0 2
0.439110 0.151649 2.052105 0 0 2
0.438471 0.152951 2.049120 0 0 2
0.472266 0.169658 2.207058 0 0 2
0.472875 0.171518 2.209900 0 1 2
0.411943 0.159426 1.925145 0 1 3
0.375327 0.163495 1.754028 0 2 0
0.374744 0.164542 1.751303 0 2 0
0.373952 0.165492 1.747600 0 2 0
0.373352 0.166523 1.744797 0 1 2
0.373070 0.167692 1.743479 0 1 2
0.372745 0.168840 1.741963 0 1 3
0.452527 0.241107 2.114808 0 0 1
0.479147 0.258617 2.239211 0 0 1
0.513881 -0.136003 2.393231 179 171 168
0.518513 -0.131848 2.414802 179 171 168
0.518166 -0.129967 2.413184 179 171 168
0.460247 -0.109071 2.143448 179 171 168
0.461743 -0.107828 2.150415 179 171 168
0.525745 -0.095495 2.448482 179 171 168
0.572456 -0.078236 2.666023 178 169 172
0.579180 -0.075148 2.697338 178 169 172
0.579851 -0.073229 2.700461 178 169 172
0.579616 -0.071194 2.699370 178 169 172
0.574153 -0.002996 2.673925 2 2 13
0.574403 -0.001010 2.675091 2 2 13
0.341969 0.012411 1.592607 11 9 17
0.340381 0.013531 1.585209 8 9 19
1.398805 0.074960 6.514466 0 6 12
60.085701 3.843471 279.829071 0 3 12
0.483611 0.054356 2.252255 1 0 13
0.481759 0.055814 2.243634 1 0 12
0.485244 0.057896 2.259863 0 0 12
3.592695 0.627503 16.731777 1 0 6
3.575616 0.636889 16.652237 1 0 6
0.504693 0.093388 2.350440 1 0 6
0.481947 0.099182 2.244508 1 0 6
0.457548 0.128981 2.130878 0 0 4
0.435052 0.145214 2.026110 0 0 2
0.434855 0.146652 2.025192 0 0 2
0.438143 0.149276 2.040503 0 0 2
0.438708 0.150987 2.043136 0 0 2
0.472253 0.169066 2.199361 0 0 2
0.472938 0.170947 2.202551 0 1 3
0.409758 0.155198 1.908313 0 1 3
0.409894 0.158085 1.908945 0 1 4
0.376296 0.155540 1.752474 0 1 5
0.376232 0.156816 1.752177 0 1 3
0.376349 0.158166 1.752721 0 1 1
0.376645 0.159593 1.754096 0 2 0
0.376914 0.161011 1.755350 0 2 0
0.376852 0.162288 1.755060 0 2 0
0.376781 0.163561 1.754730 0 2 0
0.376190 0.164606 1.751981 0 2 0
0.375320 0.165523 1.747925 0 2 0
0.374715 0.166553 1.745110 0 1 2
0.374224 0.167629 1.742825 0 1 3
0.374116 0.168875 1.742321 0 1 4
0.372954 0.169640 1.736908 0 1 4
0.373224 0.171054 1.738164 0 1 4
0.373880 0.172648 1.741220 0 1 4
0.384336 0.185453 1.789916 0 0 2
0.384526 0.190866 1.790803 0 0 2
0.384048 0.191957 1.788574 0 0 2
0.383345 0.195584 1.785302 0 0 2
0.383943 0.197217 1.788087 0 0 2
0.452834 0.238869 2.108922 0 0 2
0.452473 0.240244 2.107240 0 0 2
0.533083 -0.146111 2.474100 179 171 168
0.513685 -0.135482 2.384070 179 171 168
0.552537 -0.092396 2.564386 178 169 172
0.553669 -0.090677 2.569641 178 169 172
0.554635 -0.088923 2.574123 178 169 172
0.578024 -0.076732 2.682672 178 169 172
0.580342 -0.075039 2.693433 178 169 172
0.581321 -0.073162 2.697974 178 169 172
0.581525 -0.071183 2.698923 178 169 172
0.583739 -0.069441 2.709195 178 169 172
0.665588 -0.076884 3.089066 178 169 172
0.662712 -0.071982 3.075722 178 169 172
0.661518 -0.067292 3.070179 178 169 171
0.662401 -0.065098 3.074275 178 169 170
0.575182 -0.004973 2.669482 0 0 12
0.576802 -0.001011 2.677004 2 2 12
3.267282 0.095644 15.163817 175 168 173
0.350128 0.015077 1.624981 2 3 12
71.968185 4.835777 334.012329 0 2 13
0.485371 0.054365 2.252659 1 0 13
0.485572 0.057736 2.253595 1 1 13
10.715390 1.384902 49.731319 0 0 10
10.811172 1.434550 50.175850 0 0 9
11.019106 1.500127 51.140892 0 0 9
10.696705 1.493111 49.644592 0 0 7
0.483720 0.095868 2.244998 0 0 6
0.481200 0.097028 2.233304 0 0 6
0.481268 0.098701 2.233620 0 0 6
0.481130 0.100331 2.232976 0 0 6
0.515176 0.135846 2.390988 0 0 2
0.457699 0.128579 2.124231 0 1 5
0.372067 0.130175 1.726806 0 0 3
0.471664 0.169899 2.189046 0 1 4
0.396858 0.152529 1.841862 0 1 5
0.375170 0.154540 1.741204 0 1 5
0.375472 0.155959 1.742609 0 1 3
0.375549 0.157286 1.742963 0 1 1
0.377045 0.159212 1.749907 0 1 0
0.377549 0.160726 1.752246 0 2 0
0.377488 0.162002 1.751964 0 2 0
0.377443 0.163284 1.751756 0 2 0
0.376988 0.164386 1.749644 0 2 0
0.376325 0.165395 1.746568 0 2 0
0.375861 0.166486 1.744412 0 1 2
0.375570 0.167652 1.743060 0 1 4
0.375203 0.168781 1.741357 0 1 5
0.374483 0.169749 1.738018 0 1 5
0.374502 0.171048 1.738104 0 1 5
0.374809 0.172481 1.739530 0 1 5
0.383552 0.189726 1.780106 0 0 4
0.382671 0.190610 1.776020 0 0 4
0.381453 0.191318 1.770366 0 0 4
0.381073 0.192441 1.768601 0 0 4
0.381657 0.194051 1.771313 0 0 3
0.382026 0.195556 1.773027 0 0 3
0.534430 -0.147813 2.471828 179 171 168
0.533593 -0.145748 2.467955 179 171 168
0.533877 -0.143992 2.469269 179 171 168
0.527329 -0.133168 2.438984 179 171 168
0.527864 -0.131490 2.441459 179 171 168
0.529589 -0.130100 2.449440 179 171 168
0.760176 -0.160631 3.515940 179 171 168
0.554145 -0.088539 2.563015 178 169 172
0.580793 -0.074839 2.686266 178 169 172
0.582563 -0.073066 2.694453 178 169 172
0.582896 -0.071105 2.695992 178 169 172
0.585549 -0.069417 2.708263 178 169 172
0.664827 -0.067396 3.074936 178 169 170
0.665659 -0.065194 3.078784 178 169 170
0.569811 -0.028401 2.635469 177 169 170
0.576976 -0.008936 2.668611 6 7 26
0.527892 -0.006362 2.441589 0 0 14
0.579144 -0.001011 2.678639 2 2 12
3.189879 0.104016 14.753722 157 152 157
0.356367 0.014069 1.648256 20 18 26
0.356057 0.017726 1.646822 1 5 8
0.371020 0.052886 1.716028 0 0 8
0.506593 0.091355 2.343076 0 0 8
0.505815 0.092952 2.339479 0 0 8
0.485719 0.097602 2.246530 0 0 8
0.515824 0.135549 2.385772 0 1 4
0.460043 0.128793 2.127777 0 1 5
0.470985 0.162599 2.178384 0 0 4
0.474923 0.165590 2.196599 0 0 4
0.476621 0.167820 2.204451 0 0 4
0.478233 0.170030 2.211905 0 0 4
0.477470 0.173040 2.208379 0 1 5
0.477960 0.174859 2.210647 0 1 5
0.494633 0.186057 2.287761 0 1 5
0.474459 0.183358 2.194453 0 1 6
0.376113 0.156981 1.739585 0 1 3
0.377383 0.158807 1.745458 0 1 1
0.378739 0.160679 1.751730 0 2 0
0.378519 0.163186 1.750712 0 2 0
0.378117 0.164312 1.748854 0 2 0
0.377909 0.165520 1.747890 0 2 0
0.377732 0.166740 1.747073 0 1 2
0.377377 0.167880 1.745430 0 1 4
0.377121 0.169062 1.744247 0 1 5
0.376160 0.169923 1.739801 0 1 5
0.376087 0.171182 1.739465 0 1 5
0.376140 0.172499 1.739712 0 1 5
0.349471 0.165070 1.616362 0 0 4
0.387365 0.188292 1.791628 0 0 4
0.380872 0.189062 1.761598 0 0 4
0.380791 0.190330 1.761221 0 0 4
0.380275 0.191378 1.758837 0 0 4
0.380439 0.192767 1.759593 0 0 4
0.380497 0.194104 1.759863 0 0 4
0.595557 -0.172312 2.745118 179 171 168
0.596578 -0.170565 2.749825 179 171 168
0.596578 -0.168522 2.749825 179 171 168
0.530678 -0.146273 2.446069 179 171 168
0.530997 -0.144543 2.447540 179 171 168
0.530327 -0.140729 2.444453 179 171 168
0.525475 -0.137643 2.422090 179 171 168
0.527525 -0.136373 2.431538 179 171 168
0.528203 -0.134740 2.434664 179 171 168
0.527659 -0.132795 2.432156 179 171 168
0.527612 -0.130977 2.431939 179 171 168
0.529028 -0.129517 2.438463 179 171 168
0.528751 -0.127639 2.437187 179 171 168
0.761600 -0.160381 3.510468 179 171 168
0.543330 -0.105116 2.504388 179 171 168
0.537362 -0.078205 2.476879 178 169 172
0.670539 -0.076925 3.090737 178 169 172
0.667817 -0.067467 3.078192 178 169 170
0.668241 -0.065222 3.080145 178 169 170
0.667295 -0.053707 3.075786 179 171 169
0.572197 -0.030381 2.637445 177 171 168
0.572865 -0.028455 2.640523 175 167 166
0.441682 -0.009842 2.035859 1 3 25
0.579120 -0.001008 2.669354 1 1 10
0.356021 0.014007 1.641019 75 72 78
0.356099 0.018887 1.641377 1 4 8
0.507721 0.047788 2.340256 0 0 12
0.487418 0.054221 2.246672 1 1 13
0.480965 0.058443 2.216926 0 1 13
0.507171 0.091146 2.337720 1 1 9
0.506366 0.092735 2.334008 1 1 9
0.488044 0.096063 2.249557 1 1 9
0.489444 0.098014 2.256010 1 1 9
0.498038 0.125312 2.295620 0 1 5
0.458085 0.127806 2.111467 0 1 6
0.473682 0.159727 2.183358 0 0 5
0.471802 0.162324 2.174692 0 0 5
0.475985 0.165392 2.193971 0 0 5
0.476034 0.167039 2.194197 0 0 5
0.476776 0.168932 2.197620 0 0 5
0.477219 0.170723 2.199662 0 1 5
0.476716 0.172175 2.197345 0 1 5
0.478086 0.174307 2.203659 0 1 5
0.493084 0.184839 2.272786 0 1 5
0.493583 0.186716 2.275086 0 1 5
0.473495 0.180738 2.182498 0 1 5
0.473231 0.182258 2.181281 0 1 6
0.472562 0.183618 2.178196 0 0 6
0.374222 0.154376 1.724915 0 1 3
0.375265 0.156091 1.729722 0 1 3
0.377001 0.158103 1.737722 0 1 1
0.377881 0.159766 1.741781 0 2 1
0.377963 0.163683 1.742157 0 2 1
0.377920 0.164958 1.741960 0 1 1
0.378082 0.166323 1.742705 0 1 3
0.377858 0.167518 1.741671 0 1 4
0.377383 0.168600 1.739485 0 1 5
0.376851 0.169652 1.737031 0 1 5
0.376715 0.170881 1.736404 0 1 5
0.376848 0.172231 1.737018 0 1 5
0.375749 0.173016 1.731951 0 1 5
0.375173 0.174035 1.729295 0 0 4
0.377834 0.179150 1.741564 0 0 4
0.388767 0.188327 1.791956 0 0 4
0.379161 0.186270 1.747679 0 0 4
0.379249 0.187612 1.748086 0 0 4
0.379135 0.188853 1.747559 0 0 4
0.379039 0.190103 1.747118 0 0 4
0.379050 0.191406 1.747165 0 0 4
0.378905 0.192630 1.746499 0 0 4
0.595885 -0.169785 2.737259 179 171 168
0.595916 -0.167761 2.737401 179 171 168
0.525106 -0.137076 2.412128 179 171 168
0.526653 -0.132090 2.419235 179 171 168
0.526705 -0.130306 2.419476 179 171 168
0.527582 -0.128722 2.423502 179 171 168
0.527935 -0.127007 2.425126 179 171 168
0.763762 -0.160287 3.508420 178 170 167
0.539460 -0.105852 2.478064 178 170 167
0.541587 -0.104421 2.487835 178 170 167
0.544193 -0.090069 2.499808 178 169 170
0.543628 -0.084411 2.497213 178 169 170
0.539208 -0.080045 2.476907 178 169 171
0.538534 -0.078108 2.473812 178 169 172
0.538350 -0.076244 2.472969 178 169 172
0.672073 -0.076838 3.087236 178 169 172
0.670898 -0.067547 3.081842 178 169 170
0.670894 -0.065258 3.081820 178 169 170
0.531148 -0.040791 2.439883 179 171 169
0.574407 -0.028434 2.638598 175 166 165
0.576290 -0.026561 2.647248 177 166 167
0.484273 -0.007449 2.224558 0 2 18
0.357130 0.014003 1.640515 151 146 151
0.502825 0.043734 2.309778 7 9 21
0.473456 0.062181 2.174871 0 3 12
0.506572 0.092456 2.326992 1 1 11
0.490651 0.097921 2.253858 1 1 11
0.492097 0.099888 2.260499 1 1 11
0.519771 0.126787 2.387625 0 1 6
0.496410 0.124476 2.280310 0 1 5
0.454286 0.127864 2.086812 0 0 6
0.436732 0.145275 2.006173 1 0 6
0.475657 0.164714 2.184979 0 0 6
0.477514 0.166987 2.193510 0 1 6
0.477464 0.168598 2.193279 0 1 6
0.477947 0.170400 2.195498 0 1 6
0.478729 0.172312 2.199093 0 1 6
0.492969 0.185848 2.264504 0 1 6
0.495300 0.188416 2.275212 0 1 6
0.418514 0.166346 1.922487 0 0 8
0.419117 0.168016 1.925257 0 0 8
0.376193 0.155943 1.728081 0 1 3
0.377761 0.157881 1.735283 0 1 1
0.378505 0.159484 1.738703 0 2 1
0.379015 0.163578 1.741045 0 1 1
0.379041 0.164883 1.741164 0 1 2
0.379494 0.166375 1.743246 0 1 4
0.379506 0.167675 1.743299 0 1 5
0.377156 0.169210 1.732506 0 1 5
0.377352 0.170586 1.733407 0 1 5
0.377476 0.171930 1.733978 0 1 5
0.376133 0.172601 1.727805 0 1 5
0.376068 0.173855 1.727507 0 0 4
0.375691 0.174962 1.725777 0 0 4
0.377061 0.176887 1.732070 0 0 4
0.389454 0.188016 1.788996 0 0 4
0.389454 0.189345 1.788996 0 0 4
0.381059 0.187864 1.750434 0 0 4
0.597080 -0.167517 2.733422 179 171 168
0.597844 -0.165698 2.736920 179 171 168
1.100552 -0.282575 5.038311 179 171 168
0.527507 -0.131854 2.414921 179 171 168
0.527759 -0.130122 2.416072 179 171 168
0.529009 -0.128632 2.421797 179 171 168
0.529434 -0.126935 2.423739 179 171 168
0.933111 -0.207854 4.271767 178 170 167
0.763177 -0.159620 3.493814 178 170 167
0.535478 -0.101071 2.451410 178 170 167
0.540827 -0.091047 2.475897 178 169 169
0.541176 -0.089265 2.477497 178 169 169
0.541608 -0.083812 2.479475 178 169 170
0.540841 -0.081854 2.475963 178 169 170
0.539743 -0.079852 2.470935 178 169 171
0.539250 -0.077946 2.468678 178 169 172
0.539039 -0.076082 2.467714 178 169 172
0.588844 -0.079107 2.695721 178 169 172
0.588343 -0.077039 2.693425 178 169 172
0.587696 -0.074956 2.690462 178 169 172
0.587191 -0.072895 2.688153 178 169 172
0.586298 -0.070791 2.684062 178 169 172
0.673007 -0.076683 3.081017 178 169 172
0.673467 -0.074446 3.083120 178 169 172
0.674680 -0.067697 3.088676 178 169 170
0.673091 -0.065249 3.081399 178 169 170
0.672761 -0.062929 3.079889 178 169 170
0.533531 -0.039021 2.442498 179 171 169
0.534661 -0.037285 2.447669 179 170 169
0.578858 -0.032494 2.650005 173 165 160
0.578329 -0.030498 2.647581 176 168 164
0.577929 -0.028511 2.645751 176 166 165
0.580364 -0.026658 2.656896 176 165 164
0.581654 -0.018806 2.662804 164 158 163
0.443243 -0.009809 2.029162 7 10 28
0.536508 -0.006400 2.456125 0 3 15
0.594004 0.009073 2.719340 174 171 169
0.516731 0.037763 2.365588 0 3 16
0.493482 0.054522 2.259154 0 2 14
0.492549 0.056094 2.254882 0 2 14
0.492389 0.057750 2.254147 0 2 14
0.493936 0.059611 2.261230 0 2 14
0.493554 0.081382 2.259484 0 1 11
0.493234 0.083007 2.258020 0 1 11
0.490954 0.094309 2.247579 0 1 11
0.491747 0.096134 2.251212 0 1 11
0.491497 0.097756 2.250063 1 1 11
0.492578 0.099646 2.255015 1 1 11
0.492893 0.103062 2.256456 1 1 9
0.490813 0.107634 2.246933 0 1 6
0.496856 0.124164 2.274598 0 1 6
0.498810 0.126349 2.283542 0 1 6
0.471569 0.121052 2.158836 0 1 6
0.464453 0.123964 2.126260 0 1 6
0.465205 0.125746 2.129700 0 0 8
0.465139 0.127310 2.129401 0 0 8
0.459404 0.130427 2.103143 0 0 8
0.480271 0.149416 2.198672 0 0 7
0.435318 0.144312 1.992878 0 0 7
0.479045 0.166953 2.193062 0 0 7
0.480538 0.169107 2.199897 0 0 6
0.478975 0.170186 2.192741 0 0 6
0.480464 0.172349 2.199558 0 0 6
0.484488 0.175439 2.217977 0 0 6
0.489810 0.180698 2.242342 0 0 6
0.378394 0.157609 1.732284 0 1 1
0.380410 0.164916 1.741509 0 1 3
0.380521 0.166258 1.742020 0 1 4
0.380461 0.167525 1.741744 0 1 5
0.377881 0.172814 1.729935 0 1 5
0.378532 0.176973 1.732914 0 0 4
0.390664 0.186630 1.788454 0 0 4
0.390674 0.187963 1.788497 0 0 4
0.380600 0.188293 1.742380 0 0 4
0.598600 -0.167374 2.731094 179 171 168
1.097850 -0.280926 5.008907 179 171 168
0.529753 -0.131967 2.416983 179 171 168
0.530299 -0.130305 2.419472 179 171 168
0.531496 -0.128798 2.424936 179 171 168
0.531635 -0.127031 2.425570 179 171 168
0.533145 -0.125585 2.432461 179 171 168
0.532923 -0.123726 2.431444 178 170 167
0.533998 -0.122166 2.436349 177 169 166
0.920832 -0.204424 4.201271 177 169 166
0.765801 -0.159626 3.493946 177 169 166
0.533386 -0.100335 2.433556 177 169 166
0.531557 -0.098190 2.425215 177 169 166
0.542272 -0.083630 2.474100 178 169 170
0.541094 -0.081615 2.468723 178 169 170
0.540525 -0.079697 2.466129 178 169 170
0.539829 -0.077765 2.462955 178 169 170
0.591900 -0.081254 2.700527 178 169 172
0.592546 -0.079335 2.703473 178 169 172
0.592994 -0.077385 2.705517 178 169 172
0.593149 -0.075396 2.706226 178 169 172
0.592787 -0.073341 2.704573 178 169 172
0.592310 -0.071274 2.702396 178 169 172
0.593022 -0.069350 2.705643 178 169 172
0.675062 -0.076657 3.079950 178 169 172
0.675758 -0.074446 3.083124 178 169 172
0.676519 -0.072237 3.086600 178 169 172
0.677785 -0.067778 3.092376 178 169 170
0.676078 -0.065316 3.084586 178 169 170
0.770212 -0.066580 3.514070 179 170 169
0.767456 -0.063741 3.501494 179 171 169
0.766988 -0.061103 3.499361 179 171 169
0.581451 -0.030558 2.652853 178 169 164
0.581072 -0.028569 2.651124 178 168 165
0.586070 -0.026829 2.673925 177 165 163
0.587462 -0.024902 2.680280 177 163 162
0.584293 -0.016847 2.665820 107 103 112
0.448908 -0.009901 2.048128 0 2 18
0.447697 -0.008357 2.042605 3 7 22
0.360114 0.003041 1.643009 148 150 149
0.594200 0.009045 2.711018 172 171 168
0.358907 0.017626 1.637505 136 136 135
0.358231 0.018807 1.634420 74 75 78
0.623829 0.034865 2.846202 24 24 31
0.517112 0.041167 2.359306 0 1 12
0.360080 0.034767 1.642853 0 3 15
0.498000 0.054835 2.272108 0 3 14
0.494471 0.057798 2.256010 0 3 14
0.495387 0.059583 2.260190 0 3 14
0.495026 0.061218 2.258544 0 3 14
8.983587 1.232735 40.987350 0 2 14
0.461061 0.066392 2.103578 0 1 13
0.496974 0.083353 2.267431 0 2 11
0.494637 0.094695 2.256766 0 1 11
0.493439 0.097810 2.251300 0 1 11
0.492163 0.109232 2.245481 0 1 6
0.499029 0.124285 2.276804 0 2 7
0.499668 0.126137 2.279721 0 2 7
0.499969 0.127908 2.281093 0 2 7
0.457569 0.129466 2.087647 1 1 9
0.476702 0.141341 2.174937 0 0 8
0.475504 0.142597 2.169472 0 0 8
0.475317 0.144152 2.168622 0 0 8
0.476669 0.146177 2.174788 0 0 8
0.477269 0.147979 2.177527 0 0 8
0.476703 0.149419 2.174944 0 0 8
0.434075 0.143412 1.980455 0 0 8
0.471502 0.160571 2.151214 0 0 8
0.476881 0.164019 2.175757 0 0 8
0.478049 0.166041 2.181087 0 0 8
0.480253 0.168434 2.191139 0 0 8
0.480608 0.170187 2.192762 0 0 8
0.482408 0.172459 2.200971 0 0 8
0.484382 0.174807 2.209980 0 0 8
0.483366 0.179354 2.205342 0 0 8
0.483233 0.180942 2.204736 0 0 8
0.417463 0.157730 1.904661 0 0 7
0.415395 0.165395 1.895226 0 0 8
0.413825 0.167575 1.888066 0 1 6
0.381577 0.166154 1.740934 0 1 4
0.381314 0.167332 1.739732 0 1 5
0.381297 0.178954 1.739654 0 0 4
0.381992 0.185752 1.742825 0 0 4
0.382407 0.187251 1.744721 0 0 4
0.600373 -0.167303 2.729932 179 171 168
0.531380 -0.137309 2.416217 179 171 168
0.532141 -0.135708 2.419676 179 171 168
0.532387 -0.132175 2.420797 179 171 168
0.532298 -0.130355 2.420391 179 171 168
0.533387 -0.128820 2.425341 179 171 168
0.533200 -0.126974 2.424495 179 171 168
0.533544 -0.125254 2.426057 179 171 168
0.532390 -0.123185 2.420809 178 170 167
0.918579 -0.203235 4.176836 177 169 166
0.758128 -0.162614 3.447254 177 169 166
0.767660 -0.159473 3.490595 177 169 166
0.530326 -0.099423 2.411425 177 169 166
0.529991 -0.097570 2.409904 177 169 166
0.531003 -0.095963 2.414505 177 169 166
0.535611 -0.094987 2.435457 177 169 166
0.777989 -0.135343 3.537564 178 170 168
0.777057 -0.132556 3.533325 178 170 168
0.593201 -0.081158 2.697321 178 169 172
0.593869 -0.079244 2.700358 178 169 172
0.594716 -0.077348 2.704208 178 169 172
0.595192 -0.075400 2.706376 178 169 172
0.595104 -0.073379 2.705974 178 169 172
0.594673 -0.071317 2.704013 178 169 172
0.677329 -0.076654 3.079856 178 169 172
0.678506 -0.072204 3.085207 178 169 172
0.679595 -0.067730 3.090160 178 169 170
0.678363 -0.065316 3.084560 178 169 170
0.774011 -0.071911 3.519478 178 169 170
0.775292 -0.066793 3.525300 179 170 169
0.773384 -0.064017 3.516625 179 171 169
0.770782 -0.061198 3.504795 179 171 169
0.771542 -0.058653 3.508251 179 171 169
0.585602 -0.032650 2.662767 177 168 163
0.587186 -0.026789 2.669968 178 165 162
0.583444 -0.016766 2.652956 157 152 160
0.446565 -0.009816 2.030557 0 1 15
0.358155 0.018739 1.628554 141 141 142
0.621837 0.036736 2.827529 39 41 51
0.514176 0.040795 2.337989 7 12 23
0.359748 0.034618 1.635798 0 3 15
0.496593 0.054495 2.258038 0 5 15
0.497640 0.056291 2.262800 0 5 15
0.495876 0.057766 2.254780 0 4 15
0.495354 0.059378 2.252404 0 4 15
0.495392 0.061056 2.252577 0 4 15
0.497138 0.081420 2.260515 0 2 12
0.499040 0.083417 2.269164 0 2 11
0.496639 0.093079 2.258248 0 2 11
0.495775 0.094592 2.254319 0 2 11
0.495387 0.096191 2.252553 0 2 11
0.495286 0.097844 2.252095 0 2 11
0.495861 0.099632 2.254709 0 2 11
0.495542 0.101242 2.253258 0 2 11
0.494524 0.107715 2.248630 0 2 7
0.491842 0.108792 2.236436 0 2 7
0.493209 0.110760 2.242649 0 2 7
0.493371 0.112463 2.243387 0 2 7
0.494565 0.114405 2.248815 0 2 7
0.496833 0.123320 2.259132 0 2 9
0.498685 0.125464 2.267554 0 2 9
0.499669 0.127399 2.272026 0 2 9
0.500358 0.129265 2.275160 0 2 9
0.501894 0.131357 2.282142 0 2 9
0.487202 0.153839 2.215336 0 0 8
0.487911 0.155711 2.218561 0 0 8
0.488740 0.157626 2.222332 0 0 8
0.488313 0.159138 2.220387 0 0 9
0.482948 0.165545 2.195996 0 0 8
0.483613 0.167406 2.199020 0 0 8
0.490418 0.173074 2.229960 0 0 8
0.491042 0.174953 2.232799 0 0 8
0.491645 0.176828 2.235539 0 0 8
0.493239 0.179068 2.242790 0 0 8
0.491390 0.180056 2.234381 0 0 8
0.490861 0.186493 2.231974 0 1 6
0.369630 0.150421 1.680728 0 1 5
0.371366 0.152382 1.688624 0 1 5
0.372254 0.154004 1.692661 0 1 3
0.373386 0.158255 1.697809 0 1 3
0.371848 0.171418 1.690815 0 0 4
0.371467 0.172497 1.689083 0 0 4
0.383322 0.181886 1.742987 0 0 4
0.383431 0.183233 1.743484 0 0 4
0.382488 0.184074 1.739197 0 0 4
0.382597 0.185418 1.739690 0 0 4
0.382910 0.186864 1.741117 0 0 4
0.381834 0.187628 1.736222 0 0 4
0.540390 -0.140986 2.448915 179 171 168
0.534048 -0.137534 2.420173 179 171 168
0.534332 -0.135808 2.421460 179 171 168
0.534682 -0.132298 2.423047 179 171 168
0.534207 -0.130382 2.420894 179 171 168
0.534665 -0.128694 2.422971 179 171 168
0.534427 -0.126838 2.421892 179 171 168
0.534227 -0.124992 2.420985 179 171 168
0.531970 -0.122674 2.410759 178 170 167
0.532263 -0.120949 2.412084 177 169 166
0.915842 -0.201947 4.150370 177 169 166
0.924249 -0.200690 4.188470 177 169 166
0.758469 -0.157033 3.437196 177 169 166
0.748507 -0.149932 3.392052 177 169 166
0.772308 -0.139102 3.499913 177 169 166
0.781827 -0.135553 3.543048 178 170 168
0.777870 -0.132248 3.525118 178 170 168
0.595046 -0.079133 2.696601 178 169 172
0.595844 -0.077234 2.700222 178 169 172
0.596690 -0.075335 2.704053 178 169 172
0.596933 -0.073356 2.705152 178 169 172
0.596914 -0.071345 2.705070 178 169 172
0.679856 -0.078970 3.080942 178 169 172
0.679930 -0.076690 3.081278 178 169 172
0.680344 -0.074446 3.083155 178 169 172
0.681018 -0.072228 3.086206 178 169 172
0.682057 -0.070042 3.090918 178 169 172
0.681828 -0.067724 3.089879 178 169 170
0.680666 -0.065317 3.084613 178 169 170
0.777086 -0.071954 3.521563 178 169 170
0.776961 -0.066712 3.520998 179 170 169
0.775454 -0.063972 3.514168 179 171 169
0.773481 -0.061206 3.505227 179 171 169
0.773332 -0.058591 3.504553 179 171 169
0.774854 -0.056098 3.511450 179 171 169
0.659446 -0.041083 2.988446 183 169 169
0.716171 -0.008457 3.245513 0 5 8
0.704478 0.027250 3.192522 171 162 163
0.514900 0.035516 2.333402 7 9 25
0.518857 0.037535 2.351333 1 4 18
0.514598 0.038959 2.332034 2 6 19
0.501902 0.044756 2.274495 1 4 15
0.502213 0.046474 2.275905 1 4 16
0.359767 0.034503 1.630375 2 6 18
0.360026 0.035740 1.631549 2 7 18
0.496927 0.054348 2.251951 0 6 16
0.496516 0.055975 2.250089 0 6 16
0.497660 0.057779 2.255274 0 6 16
0.496506 0.059316 2.250044 0 6 16
0.495661 0.060883 2.246213 0 6 16
0.461311 0.065981 2.090550 0 2 15
0.496691 0.087760 2.250884 0 2 13
0.496676 0.094445 2.250814 0 2 13
0.497713 0.096317 2.255512 0 2 13
0.493053 0.107033 2.234395 0 2 7
0.491445 0.108338 2.227110 0 2 7
0.490502 0.109781 2.222836 0 2 7
0.491744 0.111715 2.228463 0 3 8
0.497667 0.124786 2.255305 0 2 9
0.500504 0.127183 2.268164 0 2 9
0.501530 0.129131 2.272810 0 2 9
0.501368 0.130777 2.272077 0 2 9
0.481284 0.127158 2.181060 0 1 9
0.481593 0.128861 2.182460 0 1 9
0.481336 0.130413 2.181298 0 1 9
0.473878 0.141153 2.147500 0 0 8
0.477522 0.143846 2.164014 0 0 8
0.480320 0.146305 2.176694 0 0 8
0.484422 0.149185 2.195280 0 0 8
0.482221 0.150131 2.185310 0 0 8
0.482148 0.151731 2.184979 0 0 8
0.486738 0.156452 2.205776 0 0 9
0.467017 0.157973 2.116405 0 0 10
0.482441 0.164814 2.186303 0 0 10
0.486738 0.167921 2.205776 0 0 10
0.491762 0.171309 2.228544 0 0 10
0.492740 0.173309 2.232976 0 0 10
0.491918 0.174675 2.229252 0 0 10
0.491124 0.176046 2.225652 0 0 10
0.492100 0.178053 2.230078 0 0 10
0.490381 0.179082 2.222288 0 0 10
0.406428 0.159367 1.841830 0 0 7
0.372327 0.168555 1.687296 0 1 5
0.383353 0.181288 1.737261 0 0 4
0.383321 0.182563 1.737116 0 0 4
0.382153 0.183294 1.731824 0 0 4
0.381910 0.184463 1.730724 0 0 4
0.382465 0.186018 1.733237 0 0 4
0.381266 0.186718 1.727805 0 0 4
0.380797 0.187771 1.725680 0 0 4
0.378413 0.191690 1.714873 0 0 4
0.378155 0.192832 1.713707 0 0 4
0.593647 -0.168302 2.681236 179 171 168
0.533901 -0.137035 2.411394 179 171 168
0.535710 -0.135702 2.419560 179 171 168
0.536205 -0.134028 2.421797 179 171 168
0.535845 -0.132141 2.420173 179 171 168
0.536205 -0.130431 2.421797 179 171 168
0.536124 -0.128612 2.421431 179 171 168
0.535030 -0.126555 2.416490 179 171 168
0.534892 -0.124728 2.415869 179 171 168
0.532418 -0.118793 2.404696 176 168 165
0.924142 -0.199993 4.173936 176 168 165
0.687122 -0.116428 3.103423 178 170 168
0.545293 -0.075932 2.462843 178 169 170
0.597339 -0.079172 2.697914 178 169 170
0.597563 -0.077197 2.698923 178 169 170
0.598318 -0.075287 2.702334 178 169 170
0.598879 -0.073349 2.704867 178 169 171
0.599139 -0.071370 2.706041 178 169 172
0.682926 -0.076769 3.084471 178 169 172
0.683022 -0.074489 3.084903 178 169 172
0.683323 -0.072229 3.086264 178 169 172
0.683566 -0.069962 3.087361 178 169 172
0.683669 -0.067679 3.087826 178 169 171
0.682657 -0.065288 3.083255 178 169 170
0.682185 -0.062955 3.081124 178 169 170
0.777840 -0.066563 3.513155 179 170 169
0.682781 -0.053847 3.083818 179 171 169
0.681865 -0.051488 3.079678 179 171 169
0.681738 -0.049191 3.079108 179 171 169
0.681904 -0.046915 3.079856 179 170 169
0.662291 -0.041122 2.991272 179 166 166
0.451469 -0.008343 2.039081 1 5 15
0.515079 0.035409 2.326384 68 72 88
0.515949 0.037200 2.330309 23 28 43
0.515495 0.038896 2.328259 3 9 21
0.515909 0.040658 2.330128 0 5 16
0.506828 0.043343 2.289115 0 5 15
0.506375 0.045003 2.287068 1 6 17
0.360621 0.036889 1.628764 0 8 17
0.497555 0.055904 2.247233 0 8 17
0.497392 0.057554 2.246496 0 8 17
0.497690 0.059258 2.247842 0 7 17
7.321682 1.166513 33.068764 0 2 14
0.500935 0.128546 2.262500 0 2 11
0.477872 0.143468 2.158336 0 0 9
0.482702 0.148157 2.180148 0 0 9
0.482049 0.149574 2.177201 0 0 9
0.481657 0.151068 2.175429 0 0 9
0.429830 0.139139 1.941349 1 1 11
0.466647 0.157318 2.107635 1 1 11
0.487469 0.167609 2.201678 1 1 11
0.492115 0.170857 2.222661 0 0 10
0.492683 0.172707 2.225231 0 0 10
0.373918 0.157417 1.688819 0 1 5
0.375008 0.159134 1.693745 0 1 5
0.375345 0.160536 1.695264 0 1 6
0.371970 0.166580 1.680024 0 1 5
0.373112 0.168343 1.685182 0 1 5
0.373221 0.169645 1.685675 0 1 5
0.373850 0.171185 1.688514 0 0 4
0.383541 0.178196 1.732284 0 0 4
0.384094 0.181030 1.734782 0 0 4
0.384094 0.182318 1.734782 0 0 4
0.383230 0.183193 1.730876 0 0 4
0.383276 0.184501 1.731087 0 0 4
0.383806 0.186044 1.733482 0 0 4
0.382859 0.186869 1.729202 0 0 4
0.382699 0.188075 1.728482 0 0 4
0.379530 0.191611 1.714168 0 0 4
0.594102 -0.167868 2.674321 178 170 167
0.602234 -0.168152 2.710928 178 170 167
0.535980 -0.135316 2.412689 177 169 166
0.537065 -0.133794 2.417570 177 169 166
0.536632 -0.131892 2.415624 177 169 166
0.535882 -0.129916 2.412246 177 169 166
0.535895 -0.128128 2.412304 177 169 166
0.533706 -0.125820 2.402449 177 169 166
0.531406 -0.118170 2.392098 175 167 165
0.685933 -0.115838 3.087694 177 169 167
0.546885 -0.075899 2.461775 177 169 168
0.596413 -0.078785 2.684724 177 168 169
0.596195 -0.076762 2.683741 177 168 169
0.596573 -0.074817 2.685445 177 168 169
0.598286 -0.073031 2.693155 177 168 170
0.599148 -0.071133 2.697036 177 168 172
0.600633 -0.069301 2.703722 177 168 173
0.683416 -0.076567 3.076365 177 167 173
0.683606 -0.074303 3.077217 177 167 173
0.683781 -0.072036 3.078006 177 168 173
0.683548 -0.069726 3.076960 177 168 172
0.683293 -0.067415 3.075809 177 168 172
0.682375 -0.065043 3.071676 177 168 171
0.681827 -0.062711 3.069213 178 169 170
0.773945 -0.068596 3.483875 178 169 170
0.682600 -0.055935 3.072691 178 170 168
0.682488 -0.053644 3.072187 178 170 168
0.682082 -0.051332 3.070357 178 170 168
0.681733 -0.049026 3.068787 178 170 168
0.664967 -0.041150 2.993316 175 164 163
0.593010 -0.028766 2.669404 172 162 158
0.454677 -0.009894 2.046704 108 106 116
0.454248 -0.008366 2.044774 14 13 23
0.586064 -0.000996 2.638137 1 6 12
0.694236 0.028996 3.125071 175 167 166
0.513248 0.036881 2.310359 92 97 110
0.515881 0.038795 2.322211 51 58 69
0.516279 0.040551 2.324006 24 29 39
0.510103 0.041772 2.296205 5 8 18
0.510828 0.043539 2.299469 0 2 13
0.508393 0.045031 2.288507 0 4 14
0.507667 0.046665 2.285239 1 6 17
0.358527 0.035353 1.613894 2 8 19
0.359801 0.036682 1.619627 0 8 18
0.360043 0.037910 1.620718 0 9 18
0.500051 0.054324 2.250955 0 9 19
0.498877 0.055865 2.245672 1 9 19
0.499139 0.057563 2.246849 1 9 19
0.499488 0.059273 2.248420 0 9 19
3.401760 0.562915 15.312858 0 2 14
0.431994 0.140816 1.944602 1 1 11
0.410227 0.151552 1.846617 0 0 9
0.409072 0.152492 1.841416 0 0 9
0.408791 0.153755 1.840154 0 0 7
0.408883 0.155157 1.840568 0 1 6
0.408606 0.156417 1.839318 0 1 6
0.408598 0.157781 1.839283 0 1 6
0.407791 0.158833 1.835653 0 0 7
0.407240 0.159980 1.833172 0 0 8
0.406949 0.161226 1.831860 0 0 7
0.374437 0.157109 1.685508 0 1 5
0.374775 0.158504 1.687032 0 0 5
0.371351 0.166989 1.671619 0 1 5
0.385784 0.178638 1.736590 0 0 4
0.384486 0.179323 1.730743 0 0 4
0.385698 0.181178 1.736203 0 0 4
0.385561 0.182402 1.735583 0 0 4
0.385132 0.183487 1.733652 0 0 4
0.385494 0.184949 1.735283 0 0 4
0.385892 0.186430 1.737073 0 0 4
0.385314 0.187439 1.734471 0 0 4
0.386091 0.189108 1.737969 0 0 4
0.385494 0.190104 1.735283 0 0 4
0.365260 0.189896 1.644200 0 0 4
0.594036 -0.167290 2.665114 178 170 167
0.601283 -0.167327 2.697626 178 170 167
0.605109 -0.166375 2.714792 178 170 167
0.783624 -0.194567 3.515689 177 169 166
0.540545 -0.132411 2.425126 177 169 166
0.733422 -0.157662 3.290459 175 167 165
0.732750 -0.155076 3.287447 175 167 165
0.731607 -0.152396 3.282317 175 167 165
0.733756 -0.147953 3.291962 175 167 165
0.735983 -0.145949 3.301950 177 169 166
0.733943 -0.130870 3.292799 177 169 166
0.785632 -0.134851 3.524697 177 169 167
0.602146 -0.077270 2.701496 177 168 167
0.602458 -0.075303 2.702898 177 168 168
0.602818 -0.073339 2.704512 177 168 168
0.603233 -0.071379 2.706376 177 168 172
0.604011 -0.069459 2.709868 177 167 174
0.685742 -0.072002 3.076549 177 167 175
0.684217 -0.069561 3.069704 177 167 174
0.683884 -0.067249 3.068213 177 167 173
0.682730 -0.064860 3.063034 177 168 171
0.772171 -0.070784 3.464308 177 168 170
0.772243 -0.068217 3.464630 177 168 169
0.771775 -0.065604 3.462531 177 169 168
0.679133 -0.053203 3.046896 177 169 167
0.675621 -0.050676 3.031139 177 169 167
0.679504 -0.048703 3.048559 177 169 167
0.783527 -0.053548 3.515255 177 169 167
0.586294 -0.032253 2.630378 175 167 164
0.587583 -0.030366 2.636160 175 167 165
0.597499 -0.026896 2.680648 175 166 163
0.455766 -0.009885 2.044774 158 152 159
0.579946 -0.000982 2.601897 6 8 23
0.366273 0.003041 1.643265 231 229 234
0.505314 0.041242 2.267065 37 40 50
0.508814 0.044919 2.282768 0 1 12
0.508091 0.046548 2.279524 0 1 14
0.502027 0.054357 2.252318 2 8 21
0.501538 0.055976 2.250126 1 8 20
0.463492 0.053274 2.079434 1 9 20
0.464170 0.054899 2.082476 1 9 20
0.463232 0.056331 2.078269 1 9 20
0.465000 0.058096 2.086199 0 8 18
0.467197 0.066155 2.096056 0 4 15
3.114097 0.575860 13.971242 0 2 12
0.486464 0.149938 2.182498 0 0 10
0.487114 0.151761 2.185411 0 0 10
0.432078 0.138934 1.938495 0 0 10
0.433183 0.140733 1.943454 0 0 10
0.406596 0.137515 1.824172 0 0 10
0.411079 0.151360 1.844286 0 0 9
0.410469 0.152503 1.841548 0 0 8
0.410337 0.153822 1.840955 0 0 6
0.410381 0.155206 1.841156 0 1 6
0.410401 0.156581 1.841244 0 1 6
0.410203 0.157873 1.840356 0 1 6
0.409567 0.158993 1.837502 0 0 7
0.408444 0.159918 1.832464 0 0 8
0.407041 0.160725 1.826172 0 0 8
0.406815 0.161991 1.825155 0 0 8
0.406448 0.163200 1.823510 0 0 6
0.391528 0.158513 1.756569 0 1 6
0.388075 0.166168 1.741079 0 1 5
0.388464 0.167629 1.742825 0 1 5
0.388887 0.169108 1.744721 0 1 5
0.388955 0.170433 1.745028 0 1 5
0.389674 0.172047 1.748253 0 1 5
0.390948 0.173912 1.753968 0 1 5
0.388633 0.178063 1.743583 0 0 4
0.388234 0.179174 1.741793 0 0 4
0.387034 0.179910 1.736410 0 0 4
0.387498 0.181416 1.738490 0 0 4
0.387528 0.182722 1.738627 0 0 4
0.387066 0.183794 1.736553 0 0 4
0.387409 0.185248 1.738091 0 0 4
0.387777 0.186716 1.739745 0 0 4
0.387584 0.187915 1.738877 0 0 4
0.387622 0.189225 1.739046 0 0 4
0.387622 0.190517 1.739046 0 0 4
0.387832 0.191912 1.739989 0 0 4
0.388334 0.196043 1.742243 0 0 4
0.364236 0.188733 1.634128 0 0 4
0.552616 -0.160615 2.471050 179 171 169
0.565511 -0.162484 2.528711 179 171 169
0.592665 -0.166349 2.650130 178 170 167
0.699776 -0.189440 3.129082 178 170 167
0.787444 -0.194866 3.521095 177 169 166
0.544960 -0.133050 2.436818 177 169 166
0.786934 -0.186899 3.518815 177 169 166
0.784228 -0.183652 3.506715 177 169 166
0.787079 -0.176477 3.519463 175 167 165
0.784991 -0.173401 3.510126 175 167 165
0.723244 -0.145349 3.234023 175 167 165
0.723605 -0.143018 3.235636 177 169 166
0.789003 -0.134979 3.528065 177 169 167
0.788810 -0.132327 3.527203 177 169 167
0.789317 -0.129790 3.529472 177 169 167
0.689795 -0.111134 3.084452 177 169 167
0.604197 -0.079283 2.701699 177 169 167
0.604605 -0.077328 2.703521 177 169 167
0.605228 -0.075398 2.706306 177 169 167
0.605541 -0.073426 2.707705 177 168 168
0.605443 -0.071403 2.707269 177 168 171
0.606016 -0.069458 2.709831 177 167 173
0.687357 -0.071932 3.073549 177 167 175
0.685012 -0.064861 3.063064 177 168 172
0.682957 -0.057861 3.053876 176 168 167
0.678841 -0.055258 3.035472 176 168 166
0.677279 -0.052881 3.028485 176 168 166
0.669858 -0.050077 2.995303 176 168 166
0.672898 -0.048069 3.008899 176 168 166
0.595983 -0.030698 2.664969 175 167 165
0.593112 -0.028580 2.652129 175 167 164
0.597866 -0.026824 2.673390 175 167 163
0.457096 -0.009881 2.043929 178 169 174
0.565616 -0.006591 2.529181 2 0 15
0.577492 0.000943 2.582283 39 40 53
0.611317 0.009120 2.733532 170 162 164
0.702610 0.031484 3.141756 171 166 162
0.508693 0.041380 2.274647 104 105 116
0.509375 0.043127 2.277698 53 54 66
0.509087 0.044793 2.276408 26 27 39
0.508645 0.046444 2.274430 11 12 25
0.508931 0.048160 2.275709 5 6 21
0.505315 0.052853 2.259542 6 7 25
0.504422 0.054435 2.255548 4 7 24
0.503387 0.055995 2.250921 2 5 22
0.465299 0.054849 2.080606 4 10 23
0.465977 0.056477 2.083640 1 9 19
0.465495 0.057965 2.081485 0 8 16
0.466124 0.059591 2.084298 0 7 14
0.466697 0.064314 2.086857 0 6 14
0.467952 0.066042 2.092470 0 4 12
0.486854 0.149559 2.176992 0 0 10
0.487165 0.151273 2.178384 0 0 10
0.487348 0.152948 2.179200 0 0 10
0.491423 0.168917 2.197421 0 0 10
0.491545 0.170591 2.197968 0 0 10
0.411803 0.156594 1.841396 0 1 6
0.411837 0.157975 1.841548 0 1 6
0.411048 0.159038 1.838022 0 0 7
0.409806 0.159918 1.832469 0 0 8
0.407746 0.160468 1.823256 0 0 8
0.407206 0.161608 1.820840 0 0 8
0.386215 0.164822 1.726978 0 1 5
0.387203 0.166530 1.731398 0 1 5
0.386400 0.167468 1.727805 0 1 5
0.385655 0.174830 1.724474 0 0 4
0.386022 0.176279 1.726115 0 0 4
0.387210 0.178108 1.731429 0 0 4
0.386672 0.179145 1.729024 0 0 4
0.387705 0.180911 1.733642 0 0 4
0.387810 0.182248 1.734110 0 0 4
0.387462 0.183371 1.732556 0 0 4
0.387736 0.184789 1.733782 0 0 4
0.387938 0.186173 1.734682 0 0 4
0.386922 0.186971 1.730142 0 0 4
0.386519 0.188060 1.728337 0 0 4
0.386330 0.189251 1.727495 0 0 4
0.386593 0.190664 1.728671 0 0 4
0.386521 0.191912 1.728350 0 0 4
0.385596 0.192733 1.724210 0 0 4
0.385540 0.193986 1.723963 0 0 4
0.385403 0.199037 1.723349 0 0 4
0.554249 -0.160556 2.470148 179 171 169
0.562392 -0.161053 2.506437 179 171 169
0.701153 -0.189185 3.124861 178 170 167
0.792222 -0.190154 3.530732 177 169 166
0.788121 -0.186561 3.512455 177 169 166
0.786242 -0.183514 3.504084 177 169 166
0.785203 -0.180672 3.499450 177 169 166
0.790134 -0.179191 3.521430 175 167 165
0.790255 -0.176602 3.521967 175 167 165
0.788342 -0.173565 3.513443 175 167 165
0.775900 -0.160552 3.457990 175 167 165
0.608213 -0.111760 2.710653 177 169 166
0.610375 -0.110136 2.720286 177 169 166
0.792920 -0.137825 3.533844 177 169 166
0.792222 -0.135082 3.530732 177 169 167
0.791797 -0.132388 3.528838 177 169 167
0.792078 -0.129813 3.530094 177 169 167
0.553206 -0.076014 2.465501 177 169 167
0.608381 -0.073526 2.711401 177 168 168
0.608066 -0.071475 2.709999 177 168 170
0.608043 -0.069459 2.709894 177 168 172
0.608153 -0.067459 2.710384 177 167 174
0.607969 -0.065426 2.709562 177 167 175
0.608000 -0.063416 2.709701 177 167 175
0.688429 -0.064968 3.068152 177 168 172
0.684483 -0.057798 3.050566 175 167 166
0.679040 -0.055091 3.026308 175 167 165
0.677715 -0.052740 3.020405 175 167 165
0.669681 -0.049898 2.984601 175 167 165
0.805221 -0.049335 3.588667 175 167 164
0.805787 -0.046702 3.591188 175 167 164
0.457896 -0.015928 2.040729 174 167 159
0.459228 -0.008374 2.046662 167 157 167
0.459062 -0.006851 2.045926 83 73 88
0.560502 -0.006509 2.498018 9 4 22
0.508789 0.042935 2.267543 143 143 153
0.506835 0.044448 2.258834 102 102 113
0.508024 0.046234 2.264133 53 52 65
0.506852 0.047805 2.258912 14 13 27
0.506537 0.049452 2.257509 1 1 16
0.506811 0.051156 2.258728 1 0 17
0.505654 0.052713 2.253572 1 1 18
0.505753 0.054398 2.254011 3 4 22
0.505122 0.056002 2.251203 3 5 22
0.467783 0.054960 2.084791 0 5 18
0.467427 0.056465 2.083202 0 6 16
0.467989 0.058082 2.085708 0 7 15
0.465112 0.059265 2.072885 0 6 12
0.469090 0.065983 2.090616 0 6 12
0.504309 0.080954 2.247579 0 1 15
0.503839 0.082546 2.245481 0 1 15
6.887402 1.151191 30.695408 0 1 13
0.521706 0.094108 2.325112 0 2 7
0.504545 0.096023 2.248630 0 2 8
0.504082 0.097604 2.246566 0 2 8
0.504395 0.099334 2.247961 0 2 9
0.503023 0.100729 2.241847 0 2 10
0.501287 0.107019 2.234107 1 1 9
0.505253 0.121247 2.251787 0 2 10
0.506055 0.123114 2.255359 0 2 11
0.505763 0.124717 2.254059 0 2 12
0.505472 0.126319 2.252760 0 2 13
0.507608 0.128533 2.262282 0 2 13
0.505389 0.129644 2.252389 0 2 11
0.492281 0.147467 2.193971 0 0 9
0.491901 0.148981 2.192280 0 0 9
0.488253 0.149493 2.176019 0 0 9
0.488159 0.151080 2.175603 0 0 9
0.488988 0.152955 2.179295 0 0 9
0.488379 0.154381 2.176580 0 0 10
0.479976 0.162847 2.139133 0 0 9
0.445885 0.155709 1.987199 0 0 10
0.444767 0.161208 1.982215 0 0 10
0.413331 0.158023 1.842112 0 1 6
0.412736 0.159162 1.839462 0 0 7
0.411581 0.160079 1.834314 0 0 8
0.409089 0.160464 1.823206 0 0 8
0.408255 0.161489 1.819491 0 0 8
0.393385 0.160815 1.753217 0 1 5
0.391167 0.166383 1.743331 0 1 5
0.390739 0.171375 1.741424 0 1 3
0.391934 0.173197 1.746753 0 1 3
0.392532 0.174760 1.749416 0 1 3
0.391783 0.175724 1.746078 0 1 3
0.388127 0.176653 1.729783 1 0 3
0.389620 0.178623 1.736439 1 0 3
0.390001 0.181380 1.738136 1 0 4
0.390136 0.182734 1.738737 1 0 4
0.389817 0.183875 1.737315 1 0 4
0.390052 0.185277 1.738365 1 0 4
0.389880 0.186486 1.737597 1 0 4
0.388352 0.187041 1.730788 0 0 4
0.387379 0.187855 1.726452 0 0 4
0.387585 0.189237 1.727367 0 0 4
0.386241 0.189859 1.721376 0 0 4
0.385075 0.191836 1.716184 0 0 4
0.384906 0.193026 1.715430 0 0 4
0.461220 0.235877 2.055540 0 0 4
0.555700 -0.160445 2.468442 179 171 169
0.604924 -0.168670 2.687097 178 170 167
0.609264 -0.167869 2.706376 178 170 167
0.610387 -0.166165 2.711367 178 170 167
0.689847 -0.171864 3.064330 177 169 166
0.692143 -0.170152 3.074527 177 169 166
0.798636 -0.191062 3.547577 177 169 166
0.794526 -0.187457 3.529320 177 169 166
0.788683 -0.183476 3.503366 177 169 166
0.787782 -0.180667 3.499361 177 169 166
0.788910 -0.178323 3.504374 175 167 165
0.789098 -0.175762 3.505208 175 167 165
0.787555 -0.172820 3.498355 175 167 165
0.788417 -0.170408 3.502183 175 167 165
0.788852 -0.167899 3.504114 175 167 165
0.786833 -0.164873 3.495146 175 167 165
0.780683 -0.161009 3.467827 175 167 165
0.785753 -0.159462 3.490348 175 167 165
0.608671 -0.109467 2.703741 177 169 166
0.610146 -0.107719 2.710294 177 169 166
0.790205 -0.136900 3.510126 177 169 166
0.790708 -0.134379 3.512360 177 169 167
0.790590 -0.131750 3.511834 177 169 167
0.790111 -0.129063 3.509706 177 169 167
0.789383 -0.126340 3.506472 177 169 167
0.790034 -0.123837 3.509363 177 169 167
0.537671 -0.077184 2.388356 177 169 167
0.538417 -0.075514 2.391672 177 169 167
0.610187 -0.077527 2.710478 177 169 167
0.611565 -0.075685 2.716599 177 169 167
0.610723 -0.073565 2.712859 177 168 168
0.609939 -0.071458 2.709376 177 168 170
0.609740 -0.069423 2.708491 177 168 172
0.609545 -0.067390 2.707625 177 167 174
0.609899 -0.065417 2.709199 177 167 174
0.610371 -0.063453 2.711293 177 167 174
0.781464 -0.070927 3.471296 175 166 168
0.686386 -0.055503 3.048955 175 167 165
0.792750 -0.053642 3.521430 175 167 165
0.799243 -0.051444 3.550271 175 167 164
0.803724 -0.049081 3.570178 175 167 164
0.805366 -0.046524 3.577469 175 167 164
0.802535 -0.043712 3.564893 175 167 165
0.459011 -0.015914 2.038945 175 168 160
0.458956 -0.014398 2.038702 176 169 162
0.460025 -0.011396 2.043453 178 169 168
0.459245 -0.006831 2.039987 131 122 135
0.509501 0.044534 2.263226 166 166 175
0.507062 0.045994 2.252389 111 110 121
0.506759 0.047638 2.251043 51 49 61
0.506999 0.049334 2.252111 16 14 29
0.507776 0.051085 2.255565 5 4 20
0.508013 0.052785 2.256615 0 0 17
0.506438 0.054292 2.249617 0 1 17
0.506619 0.055983 2.250423 4 7 22
0.468951 0.054915 2.083099 5 11 24
0.469250 0.056498 2.084427 0 6 16
0.468865 0.057999 2.082718 0 7 15
0.467936 0.059428 2.078592 0 8 15
0.507465 0.081191 2.254182 0 1 17
0.506535 0.082714 2.250052 0 1 16
7.217150 1.202327 32.058891 0 1 14
7.249352 1.231610 32.201931 0 1 13
0.473833 0.113332 2.104788 0 3 10
0.486765 0.146939 2.162231 0 2 8
0.488057 0.148940 2.167971 0 2 9
0.487751 0.150456 2.166613 0 2 9
0.488066 0.152163 2.168012 0 2 9
0.486823 0.153382 2.162488 0 1 8
0.440855 0.141808 1.958296 1 1 8
0.442452 0.143781 1.965389 1 1 8
0.474514 0.157331 2.107810 1 1 9
0.477288 0.161401 2.120133 1 1 9
0.479752 0.163817 2.131080 0 1 9
0.444735 0.154795 1.975531 0 1 9
0.444516 0.156185 1.974558 0 1 9
0.442771 0.157033 1.966810 0 1 9
0.442913 0.158545 1.967440 0 1 9
0.443759 0.160312 1.971198 0 1 9
0.443608 0.161721 1.970526 0 1 9
0.478606 0.177638 2.125989 0 1 8
0.424572 0.165988 1.885969 0 0 8
0.395631 0.162505 1.757409 0 0 6
0.497154 0.217328 2.208379 0 1 3
0.392470 0.174156 1.743367 0 1 3
0.480784 0.218104 2.135664 0 0 2
0.482698 0.220565 2.144165 0 0 2
0.391625 0.185410 1.739614 0 0 2
0.391403 0.186596 1.738627 0 0 2
0.390044 0.187236 1.732591 0 0 3
0.390424 0.188706 1.734282 0 0 4
0.408821 0.201645 1.816000 0 0 4
0.466161 0.236079 2.070705 0 0 4
0.603210 -0.169622 2.670674 178 170 168
0.604435 -0.167979 2.676098 178 170 167
0.611727 -0.165982 2.708383 178 170 167
0.612276 -0.164118 2.710812 178 170 167
0.605768 -0.160381 2.681998 178 170 167
0.683597 -0.169747 3.026580 177 169 166
0.692719 -0.169734 3.066967 177 169 166
0.693337 -0.167605 3.069704 177 169 166
0.800664 -0.190917 3.544888 177 169 166
0.797737 -0.187595 3.531929 177 169 166
0.789685 -0.183105 3.496280 177 169 166
0.781514 -0.178640 3.460100 177 169 166
0.781739 -0.176121 3.461097 175 167 165
0.781439 -0.173484 3.459769 175 167 165
0.780446 -0.170697 3.455372 175 167 165
0.780072 -0.168050 3.453720 175 167 165
0.780715 -0.165621 3.456565 175 167 165
0.781175 -0.163149 3.458601 175 167 165
0.779117 -0.160157 3.449490 175 167 165
0.780685 -0.157912 3.456432 175 167 165
0.751885 -0.139724 3.328920 177 169 166
0.792090 -0.134171 3.506928 177 169 167
0.791081 -0.131398 3.502461 177 169 167
0.788495 -0.128376 3.491009 177 169 167
0.783181 -0.124935 3.467484 177 169 167
0.783499 -0.122409 3.468889 177 169 167
0.784000 -0.119909 3.471108 177 169 167
0.601271 -0.089984 2.662090 177 169 167
0.602801 -0.088231 2.668862 177 169 167
0.604018 -0.086423 2.674251 177 169 167
0.604675 -0.084528 2.677160 177 169 167
0.610348 -0.081307 2.702274 177 169 167
0.612208 -0.079541 2.710511 177 169 167
0.613570 -0.077701 2.716540 177 169 167
0.614386 -0.075784 2.720155 177 169 167
0.613341 -0.073638 2.715528 177 168 168
0.612425 -0.071514 2.711471 177 168 170
0.611972 -0.069448 2.709467 177 168 172
0.611829 -0.067420 2.708833 177 168 173
0.612130 -0.065440 2.710166 177 168 173
0.613134 -0.063531 2.714610 177 167 174
0.614679 -0.061670 2.721450 177 167 174
0.791215 -0.071576 3.503054 175 166 168
0.608908 -0.051079 2.695899 175 166 165
0.678825 -0.054711 3.005455 175 167 165
0.679525 -0.052533 3.008552 175 167 165
0.676966 -0.050109 2.997222 175 167 165
0.678560 -0.047996 3.004281 175 167 165
0.791907 -0.053408 3.506117 175 167 165
0.794668 -0.050981 3.518340 175 167 164
0.795854 -0.048440 3.523591 175 167 164
0.798974 -0.046003 3.537407 175 167 164
0.794781 -0.043148 3.518842 175 167 165
0.792446 -0.040415 3.508503 175 167 165
0.795017 -0.037931 3.519884 175 167 165
0.461767 -0.006846 2.044443 173 164 175
0.507648 0.047565 2.247579 153 151 160
0.507360 0.049206 2.246302 106 104 116
0.509170 0.051056 2.254319 47 46 60
0.509791 0.054472 2.257068 0 0 13
0.509019 0.056063 2.253648 0 2 14
0.470817 0.054952 2.084512 3 8 20
0.470386 0.056449 2.082604 4 11 21
0.470403 0.057998 2.082678 5 14 22
0.468404 0.059292 2.073826 2 11 18
3.032644 0.413798 13.426833 1 9 16
11.360633 1.736937 50.298466 0 2 20
0.508649 0.082786 2.252009 0 2 18
0.508203 0.099426 2.250037 0 3 10
