ply
format ascii 1.0
element vertex 1353
property float x
property float y
property float z
property uchar red
property uchar green
property uchar blue
end_header
0.112184 -0.013060 2.066595 2 11 17
0.113020 -0.011611 2.081992 0 6 11
0.113131 -0.010075 2.084031 0 6 10
0.113388 -0.008546 2.088757 0 5 9
0.114010 -0.007033 2.100223 0 4 8
0.113358 -0.005442 2.088219 0 4 8
0.112981 -0.003878 2.081273 0 3 7
0.112159 -0.002315 2.066132 0 3 7
0.110400 0.000743 2.033718 1 2 7
0.110854 0.002263 2.042080 1 2 7
0.110985 0.003784 2.044507 1 2 7
0.111282 0.005317 2.049976 1 2 7
0.110019 0.008267 2.026702 1 2 7
0.110733 0.011351 2.039854 1 2 7
0.116832 0.018371 2.152214 1 2 7
0.117143 0.020022 2.157935 1 2 7
0.112330 0.037643 2.069268 1 5 4
0.107648 0.039020 1.983022 1 5 4
0.107400 0.044809 1.978456 0 3 2
0.107767 0.046437 1.985224 0 2 5
0.110972 0.075149 2.044254 0 5 5
0.110934 0.076641 2.043567 0 5 5
0.112256 0.088306 2.067908 0 2 4
0.108089 0.108692 1.991153 0 1 5
1.792995 2.072859 33.029476 0 1 6
0.108051 0.127874 1.990454 0 1 6
0.107748 0.128989 1.984876 0 1 6
0.106968 0.130982 1.970496 0 1 6
0.106250 0.151910 1.957275 1 2 7
0.105971 0.152961 1.952127 1 2 7
0.102295 0.160252 1.884410 1 2 6
0.109844 0.179593 2.023476 1 2 7
0.109538 0.180592 2.017840 1 2 7
0.108920 0.181063 2.006455 1 2 7
0.107897 0.180839 1.987609 0 2 6
0.101020 0.172077 1.860922 0 3 2
0.101443 0.174187 1.868727 0 3 2
0.098944 0.172603 1.822685 0 3 2
0.099402 0.174761 1.831117 0 1 2
0.099994 0.177172 1.842039 0 1 4
0.100051 0.178640 1.843074 0 1 5
0.101427 0.182485 1.868423 0 1 5
0.101305 0.183652 1.866178 0 1 5
0.101585 0.185550 1.871344 0 1 5
0.102070 0.187833 1.880279 0 1 4
0.101991 0.189082 1.878816 0 1 3
0.100183 0.188471 1.845504 0 1 3
0.099501 0.188550 1.832943 0 1 2
0.099479 0.189870 1.832541 0 1 1
0.099178 0.190653 1.827004 0 1 1
0.099175 0.194717 1.826936 0 1 1
0.099713 0.199867 1.836850 0 2 0
0.099952 0.204449 1.841252 0 2 0
0.099815 0.206901 1.838733 0 2 1
0.101529 0.214621 1.870304 0 1 3
0.102542 0.218166 1.888976 0 1 3
0.126990 -0.307702 2.307765 11 20 29
0.126731 -0.305362 2.303043 8 17 26
0.127075 -0.304476 2.309302 9 17 29
0.127163 -0.302972 2.310909 9 20 32
0.126854 -0.300522 2.305283 13 25 39
0.127258 -0.299761 2.312624 14 26 40
0.127176 -0.297853 2.311146 11 23 37
0.126706 -0.295040 2.302588 10 22 36
0.126903 -0.293787 2.306183 13 26 39
0.126572 -0.291312 2.300165 15 29 42
0.127026 -0.290643 2.308419 15 29 42
0.127130 -0.289163 2.310295 15 29 42
0.126758 -0.286606 2.303534 12 26 39
0.126240 -0.283730 2.294119 7 21 34
0.125951 -0.281382 2.288881 3 16 28
0.126380 -0.280634 2.296672 0 12 25
0.126125 -0.278367 2.292046 0 9 21
0.125711 -0.275755 2.284516 0 9 21
0.125106 -0.272740 2.273527 0 8 20
0.124994 -0.270807 2.271479 1 7 18
0.124881 -0.268878 2.269434 1 5 16
0.125210 -0.267896 2.275415 0 3 14
0.125914 -0.267701 2.288197 0 4 15
0.125623 -0.265389 2.282923 1 5 17
0.125772 -0.264006 2.285627 1 5 17
0.125505 -0.261751 2.280775 1 3 15
0.124661 -0.258308 2.265435 0 1 12
0.124457 -0.256205 2.261727 0 2 11
0.124224 -0.254047 2.257483 0 3 10
0.124718 -0.253376 2.266473 0 3 8
0.124610 -0.251474 2.264504 0 3 8
0.123791 -0.248150 2.249621 0 3 8
0.123666 -0.246230 2.247352 0 3 8
0.124045 -0.245310 2.254237 0 3 9
0.123902 -0.243355 2.251641 0 3 10
0.123871 -0.241623 2.251085 0 6 14
0.124007 -0.240214 2.253553 0 8 17
0.123969 -0.238467 2.252863 1 11 20
0.123828 -0.236524 2.250292 2 15 23
0.123534 -0.234295 2.244949 6 19 27
0.123232 -0.232059 2.239469 9 23 31
0.123033 -0.230024 2.235850 11 25 34
0.122704 -0.227752 2.229872 13 26 37
0.122465 -0.225655 2.225522 14 26 38
0.122419 -0.223919 2.224696 12 25 37
0.122451 -0.222324 2.225278 10 23 35
0.122439 -0.220650 2.225055 8 19 33
0.122365 -0.218865 2.223713 6 15 30
0.122387 -0.217252 2.224111 1 12 27
0.122101 -0.215096 2.218910 0 10 25
0.122157 -0.213545 2.219926 0 9 22
0.122157 -0.211896 2.219926 0 8 19
0.122185 -0.210297 2.220443 0 9 18
0.122007 -0.208342 2.217198 0 9 19
0.122388 -0.207342 2.224129 0 10 20
0.121380 -0.203996 2.205814 1 11 21
0.121064 -0.201829 2.200056 3 13 23
0.121011 -0.200108 2.199103 4 14 24
0.121164 -0.198725 2.201877 5 15 24
0.121141 -0.197053 2.201470 4 14 22
0.121225 -0.195553 2.202986 2 11 18
0.121198 -0.193873 2.202494 1 9 16
0.121751 -0.193115 2.212548 0 7 13
0.120646 -0.189733 2.192461 0 5 11
0.120314 -0.187588 2.186440 0 4 10
0.120093 -0.185622 2.182426 0 3 10
0.121014 -0.185413 2.199163 0 3 12
0.121423 -0.184400 2.206592 0 4 12
0.121574 -0.182988 2.209340 0 5 11
0.121137 -0.180694 2.201384 0 5 11
0.121149 -0.179077 2.201602 0 5 11
0.121137 -0.177424 2.201384 0 5 11
0.120865 -0.175395 2.196454 0 5 11
0.120757 -0.173609 2.194495 0 5 11
0.120544 -0.171675 2.190621 0 5 11
0.120766 -0.170360 2.194643 0 4 10
0.120702 -0.168641 2.193479 0 4 10
0.120875 -0.167252 2.196636 0 4 10
0.120526 -0.165141 2.190284 0 4 10
0.120526 -0.163514 2.190284 0 3 10
0.120353 -0.161655 2.187140 0 3 10
0.120165 -0.159781 2.183723 0 3 10
0.119958 -0.157886 2.179963 0 3 10
0.121121 -0.157783 2.201105 0 2 8
0.122055 -0.157352 2.218080 0 2 7
0.120702 -0.153978 2.193479 0 1 7
0.119976 -0.151433 2.180295 1 1 9
0.119855 -0.149662 2.178095 1 1 8
0.122932 -0.143548 2.234013 0 2 12
0.124142 -0.143286 2.256010 3 12 23
0.122901 -0.138535 2.233455 70 94 111
0.121080 -0.134849 2.200365 107 134 158
0.119611 -0.131597 2.173660 113 143 172
0.119617 -0.129989 2.173763 98 129 158
0.119488 -0.128237 2.171427 71 102 130
0.119592 -0.126734 2.173323 47 77 102
0.119389 -0.124907 2.169619 38 66 87
0.119325 -0.123229 2.168463 32 57 76
0.119443 -0.121739 2.170606 17 39 55
0.119110 -0.119792 2.164549 7 26 40
0.118431 -0.117510 2.152214 10 28 39
0.119241 -0.116705 2.166943 13 31 41
0.118659 -0.114533 2.156359 14 31 40
0.119559 -0.113788 2.172718 12 29 38
0.118817 -0.111478 2.159223 10 27 35
0.118322 -0.109416 2.150232 8 25 33
0.118290 -0.107790 2.149650 8 25 33
0.118046 -0.105974 2.145212 9 26 34
0.118468 -0.104754 2.152892 10 27 34
0.117598 -0.102397 2.137072 9 27 33
0.117333 -0.100583 2.132265 7 26 30
0.117391 -0.099048 2.133311 7 25 30
0.118129 -0.098076 2.146727 8 25 32
0.117104 -0.095645 2.128103 8 24 33
0.117010 -0.093989 2.126397 10 24 33
0.117446 -0.092754 2.134320 9 24 33
0.116605 -0.090515 2.119027 8 24 32
0.116944 -0.089200 2.125190 9 26 33
0.116883 -0.087575 2.124078 12 30 35
0.117269 -0.086282 2.131106 15 34 38
0.117186 -0.084639 2.129589 17 36 40
0.116966 -0.082901 2.125592 18 37 42
0.116231 -0.080811 2.112230 19 37 44
0.116963 -0.079742 2.125543 21 39 47
0.116961 -0.078162 2.125507 25 41 53
0.118101 -0.077329 2.146218 26 44 59
0.117151 -0.075126 2.128963 24 44 62
0.116766 -0.073303 2.121955 18 41 60
0.116982 -0.071860 2.125885 18 42 61
0.116400 -0.069931 2.115316 24 49 69
0.116487 -0.068411 2.116892 32 58 78
0.116467 -0.066827 2.116527 44 71 90
0.116536 -0.065294 2.117787 59 87 106
0.116454 -0.063676 2.116296 70 99 117
0.116385 -0.062067 2.115037 76 106 124
0.115856 -0.060221 2.105431 84 115 133
0.115906 -0.058682 2.106332 85 116 135
0.116030 -0.057179 2.108592 78 109 130
0.116087 -0.055640 2.109616 72 103 125
0.116079 -0.054070 2.109482 69 102 125
0.116120 -0.052521 2.110216 69 101 126
0.116051 -0.050923 2.108963 70 100 125
0.115946 -0.049312 2.107057 72 100 124
0.115652 -0.047626 2.101717 71 97 122
0.115598 -0.046044 2.100730 67 93 118
0.115914 -0.044605 2.106472 62 88 113
0.116125 -0.043119 2.110309 57 83 107
0.115697 -0.041398 2.102524 53 79 102
0.115705 -0.039839 2.102669 50 76 99
0.115884 -0.038336 2.105922 45 71 92
0.115597 -0.036681 2.100719 38 63 82
0.115358 -0.035048 2.096379 35 61 77
0.114975 -0.033380 2.089418 31 57 72
0.114648 -0.031737 2.083475 28 54 69
0.114758 -0.024023 2.085476 17 40 53
0.113570 -0.022241 2.063876 9 30 44
0.113845 -0.020758 2.068874 3 23 36
0.112564 -0.019005 2.045605 1 18 29
0.112485 -0.015955 2.044162 0 13 20
0.112755 -0.014472 2.049075 1 12 18
0.113071 -0.012986 2.054813 2 10 15
0.115064 -0.010108 2.091026 1 5 10
0.115644 -0.008598 2.101574 1 4 9
0.115105 -0.007005 2.091779 0 3 8
0.113663 -0.003848 2.065572 0 3 8
0.112621 -0.002293 2.046638 0 3 8
0.112005 -0.000768 2.035444 0 2 7
0.111760 0.000742 2.030978 1 2 7
0.112191 0.002259 2.038816 1 2 7
0.112470 0.003783 2.043898 1 2 7
0.111573 0.006765 2.027582 1 2 7
0.111441 0.008261 2.025192 1 2 7
0.111586 0.009778 2.027818 1 2 7
0.117769 0.016678 2.140179 1 2 7
0.117839 0.018279 2.141457 1 2 7
0.118079 0.019910 2.145822 1 2 7
0.117663 0.021428 2.138252 1 2 7
0.112726 0.037266 2.048539 1 5 6
0.109380 0.039113 1.987736 1 5 6
0.109116 0.043437 1.982929 0 3 4
0.109144 0.044922 1.983438 0 3 4
0.108893 0.046288 1.978890 0 2 6
0.112476 0.066030 2.043992 0 5 11
0.112667 0.067663 2.047466 0 5 11
0.111815 0.073188 2.031988 0 4 6
0.111879 0.074740 2.033150 0 4 5
0.112015 0.076343 2.035617 0 4 5
0.111654 0.077604 2.029062 0 4 4
0.116372 0.107588 2.114808 0 2 6
0.108840 0.106500 1.977917 0 2 5
0.109058 0.108186 1.981878 0 1 5
0.109076 0.109676 1.982215 0 1 6
0.108911 0.127152 1.979220 0 1 6
0.108774 0.128460 1.976722 0 1 6
0.108360 0.129433 1.969194 0 1 6
0.108258 0.130773 1.967348 0 1 6
0.109062 0.144994 1.981963 1 2 7
0.102084 0.155007 1.855140 1 2 6
0.102758 0.158806 1.867403 1 2 6
0.110277 0.177868 2.004044 1 2 7
0.110211 0.179250 2.002845 1 2 7
0.109546 0.179646 1.990756 1 2 7
0.102088 0.170172 1.855228 0 3 5
0.101692 0.170883 1.848015 0 3 4
0.102154 0.173039 1.856415 0 3 2
0.101882 0.173953 1.851469 0 3 2
0.100611 0.174500 1.828376 0 2 5
0.101241 0.176960 1.839834 0 1 5
0.101746 0.179215 1.848998 0 1 5
0.102185 0.181368 1.856982 1 2 6
0.101960 0.183721 1.852895 1 2 6
0.102023 0.185212 1.854038 0 1 4
0.102556 0.187563 1.863716 0 1 3
0.102257 0.188396 1.858283 0 1 3
0.102028 0.189352 1.854130 0 1 3
0.100645 0.188145 1.829004 0 1 2
0.100517 0.189261 1.826665 0 2 1
0.101966 0.201625 1.853009 0 2 0
0.102361 0.203786 1.860175 0 2 0
0.102307 0.205060 1.859196 0 2 0
0.101872 0.205564 1.851298 0 1 0
0.101976 0.207150 1.853181 0 1 1
0.103034 0.214863 1.872419 0 1 3
0.103792 0.217845 1.886190 0 1 3
0.128421 -0.307024 2.302680 14 23 31
0.128559 -0.305641 2.305148 9 18 27
0.128820 -0.304547 2.309842 9 19 29
0.129252 -0.303847 2.317588 9 19 32
0.129045 -0.301642 2.313873 11 22 36
0.128469 -0.298583 2.303534 11 23 37
0.128368 -0.296639 2.301730 10 22 36
0.128608 -0.295480 2.306029 9 22 36
0.128469 -0.293450 2.303534 12 25 38
0.128280 -0.291311 2.300153 14 27 40
0.128554 -0.290222 2.305073 14 27 40
0.128370 -0.288096 2.301770 11 24 37
0.128143 -0.285880 2.297700 8 21 34
0.127793 -0.283397 2.291422 4 17 29
0.128207 -0.282608 2.298847 1 12 24
0.128112 -0.280691 2.297135 0 9 21
0.127644 -0.277965 2.288741 0 7 18
0.127310 -0.275542 2.282752 0 7 19
0.126860 -0.272880 2.274693 0 7 18
0.126718 -0.270886 2.272143 2 9 19
0.127068 -0.269942 2.278421 1 6 17
0.127374 -0.268897 2.283914 0 4 15
0.127254 -0.266947 2.281750 0 4 15
0.127338 -0.265428 2.283261 0 4 16
0.127162 -0.263367 2.280099 1 5 17
0.127239 -0.261832 2.281485 1 4 15
0.127040 -0.259730 2.277913 0 3 13
0.126650 -0.257246 2.270917 0 3 11
0.126558 -0.255375 2.269283 0 3 10
0.126565 -0.253704 2.269405 0 3 8
0.126292 -0.251474 2.264504 0 3 8
0.126015 -0.249244 2.259542 0 3 9
0.126159 -0.247849 2.262127 0 4 9
0.125810 -0.245488 2.255867 0 4 10
0.125913 -0.244011 2.257704 0 4 12
0.125886 -0.242282 2.257220 2 10 19
0.125775 -0.240394 2.255241 2 13 22
0.125520 -0.238235 2.250671 3 16 24
0.125357 -0.236255 2.247738 5 19 28
0.124693 -0.233344 2.235837 9 23 33
0.124550 -0.231417 2.233272 11 28 36
0.124286 -0.229272 2.228544 14 30 41
0.123659 -0.226469 2.217303 17 32 43
0.124048 -0.225528 2.224268 16 31 42
0.123936 -0.223673 2.222255 15 29 42
0.124073 -0.222268 2.224716 12 26 40
0.124000 -0.220486 2.223408 9 22 36
0.124063 -0.218945 2.224529 5 17 33
0.123797 -0.216827 2.219766 1 13 29
0.123580 -0.214802 2.215876 0 10 26
0.123692 -0.213349 2.217880 0 8 23
0.123949 -0.212142 2.222493 0 9 20
0.124534 -0.211484 2.232976 0 9 18
0.124271 -0.209382 2.228261 0 9 19
0.124418 -0.207973 2.230906 0 10 20
0.123624 -0.204999 2.216664 1 11 21
0.122869 -0.202110 2.203121 3 13 23
0.122686 -0.200175 2.199839 4 14 23
0.123004 -0.199056 2.205544 5 15 24
0.123126 -0.197614 2.207732 5 14 22
0.122907 -0.195626 2.203806 2 11 18
0.123275 -0.194570 2.210408 1 9 15
0.122671 -0.191982 2.199575 0 7 13
0.122017 -0.189335 2.187859 0 5 11
0.122129 -0.187882 2.189864 0 4 10
0.123142 -0.187799 2.208021 0 3 10
0.122849 -0.185716 2.202762 0 3 12
0.122905 -0.184164 2.203766 0 4 12
0.123502 -0.183414 2.214477 0 5 11
0.122696 -0.180583 2.200028 0 5 11
0.122711 -0.178971 2.200300 0 5 11
0.123152 -0.177974 2.208205 0 5 11
0.123056 -0.176196 2.206486 0 5 11
0.122292 -0.173474 2.192786 0 5 11
0.122722 -0.172449 2.200496 0 5 11
0.122696 -0.170778 2.200022 0 4 10
0.122761 -0.169234 2.201196 0 4 10
0.122660 -0.167462 2.199389 0 4 10
0.122460 -0.165557 2.195795 0 4 10
0.122651 -0.164181 2.199217 0 4 10
0.122492 -0.162338 2.196378 0 3 10
0.122520 -0.160743 2.196872 0 3 10
0.123958 -0.160979 2.222661 0 3 10
0.123405 -0.158616 2.212731 0 3 9
0.123413 -0.156983 2.212883 0 2 7
0.122433 -0.154106 2.195303 0 1 7
0.121574 -0.151405 2.179902 1 1 9
0.121554 -0.149762 2.179545 1 1 8
0.125700 -0.151522 2.253896 0 2 7
0.126610 -0.150932 2.270203 0 1 6
0.126381 -0.148977 2.266104 0 1 7
0.126440 -0.147362 2.267153 0 1 9
0.125583 -0.144690 2.251787 0 2 12
0.126759 -0.144357 2.272876 7 17 30
0.126783 -0.142696 2.273308 41 59 76
0.125027 -0.139054 2.241820 89 112 136
0.122301 -0.134394 2.192945 115 142 171
0.121735 -0.132150 2.182789 107 137 170
0.121687 -0.130478 2.181940 88 119 151
0.121557 -0.128720 2.179609 66 97 124
0.121375 -0.126910 2.176345 42 72 95
0.121135 -0.125045 2.172030 34 62 83
0.120978 -0.123272 2.169218 29 54 73
0.120596 -0.121277 2.162364 14 36 51
0.120407 -0.119484 2.158985 5 24 38
0.120611 -0.118079 2.162635 10 28 39
0.120363 -0.116234 2.158201 15 32 42
0.121678 -0.115883 2.181771 14 31 40
0.121286 -0.113895 2.174748 12 29 37
0.119995 -0.111084 2.151595 10 27 35
0.119931 -0.109427 2.150445 8 25 33
0.119541 -0.107479 2.143448 8 25 33
0.119280 -0.105656 2.138771 9 26 34
0.119098 -0.103909 2.135507 10 27 35
0.120507 -0.103533 2.160775 9 27 33
0.118445 -0.100184 2.123810 7 26 30
0.118616 -0.098749 2.126875 7 25 30
0.119679 -0.098040 2.145929 8 25 32
0.118015 -0.095105 2.116096 8 24 32
0.118276 -0.093740 2.120774 10 24 33
0.118162 -0.092076 2.118736 10 24 33
0.117971 -0.090356 2.115304 9 24 33
0.117664 -0.088554 2.109803 10 26 34
0.118276 -0.087439 2.120774 13 31 37
0.118210 -0.085816 2.119594 16 34 39
0.118253 -0.084273 2.120366 18 37 42
0.118276 -0.082713 2.120774 19 37 44
0.118938 -0.081593 2.132648 20 37 45
0.119032 -0.080071 2.134320 22 39 48
0.118815 -0.078343 2.130432 26 42 54
0.118726 -0.076703 2.128847 27 45 61
0.118695 -0.075102 2.128278 23 44 65
0.118925 -0.073664 2.132416 19 41 64
0.118443 -0.071788 2.123769 22 46 68
0.118246 -0.070094 2.120240 34 59 81
0.118098 -0.068433 2.117573 48 74 95
0.118151 -0.066890 2.118533 61 88 109
0.117992 -0.065229 2.115687 73 101 122
0.117778 -0.063542 2.111838 80 108 129
0.117238 -0.061689 2.102162 84 113 134
0.117359 -0.060190 2.104335 87 118 138
0.117485 -0.058690 2.106593 83 114 134
0.117606 -0.057184 2.108762 73 105 127
0.117603 -0.055616 2.108710 68 101 124
0.117733 -0.054110 2.111039 67 102 125
0.117599 -0.052482 2.108632 66 99 124
0.117494 -0.050870 2.106755 67 98 122
0.117389 -0.049261 2.104869 70 97 121
0.117389 -0.047698 2.104869 69 93 117
0.116950 -0.045962 2.097006 65 89 113
0.117247 -0.044517 2.102331 59 83 107
0.117229 -0.042949 2.101997 54 78 102
0.117174 -0.041368 2.101018 50 74 98
0.117120 -0.039789 2.100039 47 71 94
0.117128 -0.038232 2.100183 42 68 89
0.117038 -0.036644 2.098574 37 63 82
0.116545 -0.034937 2.089731 34 60 76
0.116035 -0.033239 2.080583 30 56 71
0.115733 -0.031611 2.075181 28 53 68
0.116109 -0.030167 2.081908 28 52 68
0.116247 -0.028655 2.084392 30 54 69
0.115997 -0.025504 2.079912 27 50 65
0.115283 -0.023811 2.067101 12 34 48
0.115245 -0.022268 2.066420 4 24 38
0.115283 -0.020740 2.067101 0 18 32
0.114275 -0.019037 2.049037 0 18 28
0.114377 -0.017531 2.050867 0 15 23
0.114736 -0.016058 2.057298 0 11 18
0.114364 -0.014483 2.050634 0 9 15
0.114286 -0.012951 2.049237 0 8 12
0.115526 -0.011552 2.071469 0 6 10
0.116469 -0.010096 2.088372 1 5 9
0.116266 -0.008529 2.084735 1 5 8
0.115377 -0.006928 2.068797 1 3 8
0.115303 -0.005388 2.067464 1 3 8
0.114607 -0.003829 2.054986 1 3 8
0.113895 -0.002288 2.042215 1 3 8
0.113359 -0.000767 2.032615 1 2 7
0.114247 0.000748 2.048539 1 2 7
0.114286 0.002271 2.049237 1 2 7
0.113441 0.003765 2.034071 1 2 7
0.113627 0.005284 2.037409 1 2 7
0.112631 0.006738 2.019550 1 2 7
0.112874 0.008256 2.023919 1 2 7
0.112983 0.009768 2.025867 1 2 7
0.112987 0.011274 2.025940 1 2 7
0.118276 0.016527 2.120774 1 2 7
0.118276 0.018102 2.120774 1 2 7
0.110611 0.041973 1.983329 0 3 4
0.110632 0.043454 1.983717 0 3 4
0.110667 0.044942 1.984330 0 3 4
0.110437 0.046319 1.980221 0 2 6
0.114852 0.051230 2.059379 0 2 9
0.114232 0.052475 2.048270 0 2 9
0.114180 0.066137 2.047326 0 5 11
0.114308 0.067734 2.049630 0 5 11
0.113039 0.073004 2.026875 1 5 7
0.112643 0.074249 2.019770 0 4 5
0.112712 0.075795 2.021004 0 4 5
0.113016 0.077505 2.026452 0 4 5
0.115377 0.088344 2.068797 0 2 4
0.114968 0.089562 2.061458 0 1 3
0.109751 0.105962 1.967921 0 2 5
1.572947 1.770027 28.204069 0 1 6
0.109663 0.126324 1.966328 0 1 6
0.109483 0.127575 1.963115 0 1 6
0.109253 0.128763 1.958993 0 1 6
0.109215 0.130172 1.958307 0 1 6
0.109575 0.143734 1.964750 1 2 7
0.108923 0.144330 1.953059 1 2 7
0.102641 0.152410 1.840421 1 2 7
0.102704 0.153871 1.841548 1 2 6
0.110588 0.175994 1.982929 1 2 7
0.110776 0.177769 1.986297 1 2 7
0.110033 0.178041 1.972966 1 2 7
0.103578 0.170357 1.857236 0 2 4
0.102460 0.176704 1.837173 1 2 5
0.102951 0.178923 1.845989 1 2 6
0.102946 0.180285 1.845896 1 2 6
0.102670 0.181170 1.840955 1 2 6
0.102861 0.182876 1.844372 1 2 6
0.103122 0.186086 1.849046 1 2 4
0.103249 0.187690 1.851322 0 1 3
0.103291 0.189143 1.852080 0 1 3
0.102897 0.189793 1.845025 0 2 2
0.103233 0.191786 1.851033 0 2 1
0.103228 0.193153 1.850956 0 2 1
0.103140 0.194362 1.849380 0 2 1
0.103291 0.196021 1.852080 0 2 1
0.103257 0.197332 1.851469 0 2 1
0.103468 0.199113 1.855249 0 2 1
0.103359 0.200280 1.853303 0 2 1
0.102895 0.200751 1.844975 0 2 1
0.103019 0.202366 1.847204 0 1 1
0.103209 0.204114 1.850615 0 1 1
0.103169 0.205408 1.849896 0 1 2
0.102510 0.206828 1.838085 0 1 3
0.105278 0.215217 1.887718 0 1 5
0.104571 0.215164 1.875039 0 1 5
0.105081 0.217612 1.884176 0 1 5
0.129885 -0.306442 2.298313 14 23 30
0.130281 -0.305664 2.305323 8 17 25
0.130339 -0.304088 2.306357 10 19 30
0.131155 -0.304267 2.320788 10 19 33
0.131054 -0.302311 2.319005 9 20 34
0.129898 -0.297936 2.298545 9 21 35
0.130168 -0.296845 2.303330 10 22 36
0.129993 -0.294737 2.300230 10 24 37
0.130466 -0.294095 2.308597 11 25 38
0.130180 -0.291739 2.303534 13 25 39
0.130007 -0.289644 2.300483 12 24 37
0.129520 -0.286855 2.291857 8 20 32
0.129309 -0.284688 2.288122 6 17 29
0.129974 -0.284445 2.299895 3 14 26
0.129608 -0.281941 2.293422 1 10 22
0.129660 -0.280350 2.294346 0 7 19
0.129237 -0.277737 2.286858 0 5 16
0.128851 -0.275213 2.280023 0 5 16
0.128200 -0.272137 2.268497 0 5 16
0.128499 -0.271084 2.273799 0 7 17
0.128945 -0.270329 2.281686 0 7 17
0.129337 -0.269452 2.288632 0 7 17
0.129542 -0.268175 2.292246 0 6 17
0.129170 -0.265709 2.285675 1 6 17
0.128979 -0.263621 2.282296 1 6 18
0.128636 -0.261228 2.276217 1 6 17
0.128620 -0.259504 2.275930 1 6 17
0.128237 -0.257048 2.269164 0 4 13
0.128112 -0.255112 2.266943 0 4 11
0.127667 -0.252549 2.259075 0 5 9
0.127910 -0.251347 2.263368 0 5 9
0.128233 -0.250298 2.269095 0 5 11
0.127712 -0.247601 2.259863 0 6 12
0.127739 -0.245975 2.260348 0 6 12
0.127329 -0.243513 2.253096 0 6 13
0.127332 -0.241845 2.253150 3 13 22
0.127341 -0.240188 2.253305 3 16 25
0.127056 -0.237980 2.248263 5 18 27
0.126326 -0.234953 2.235343 6 20 31
0.126375 -0.233383 2.236214 7 24 34
0.126192 -0.231387 2.232976 9 26 36
0.125665 -0.228768 2.223642 11 27 39
0.125660 -0.227108 2.223565 12 28 41
0.125543 -0.225246 2.221488 10 27 40
0.125515 -0.223547 2.221002 10 24 39
0.125588 -0.222026 2.222288 9 22 38
0.125485 -0.220194 2.220459 6 20 36
0.125493 -0.218559 2.220609 3 16 33
0.125502 -0.216925 2.220767 0 13 30
0.125503 -0.215277 2.220785 0 11 28
0.125537 -0.213685 2.221378 0 10 26
0.125621 -0.212178 2.222877 0 11 23
0.126142 -0.211399 2.232088 0 13 21
0.126119 -0.209703 2.231676 0 12 21
0.126030 -0.207898 2.230099 0 11 20
0.125038 -0.204620 2.212561 0 10 20
0.124794 -0.202580 2.208237 0 9 19
0.124748 -0.200865 2.207419 0 9 18
0.124539 -0.198892 2.203722 0 8 17
0.124743 -0.197579 2.207341 0 9 17
0.124579 -0.195681 2.204428 0 8 15
0.124140 -0.193360 2.196666 0 6 13
0.123649 -0.190970 2.187979 0 4 10
0.123640 -0.189332 2.187823 0 4 10
0.124439 -0.188918 2.201947 0 4 10
0.124285 -0.187051 2.199224 0 5 12
0.124289 -0.185424 2.199294 2 6 15
0.124187 -0.183639 2.197486 2 8 15
0.124688 -0.182741 2.206353 1 8 14
0.124030 -0.180148 2.194724 0 7 13
0.123832 -0.178231 2.191204 0 6 12
0.124688 -0.177825 2.206353 0 6 12
0.124422 -0.175811 2.201654 0 6 12
0.123915 -0.173465 2.192679 0 5 11
0.124091 -0.172081 2.195795 0 5 11
0.124178 -0.170569 2.197329 0 5 11
0.124065 -0.168783 2.195333 1 6 12
0.124040 -0.167119 2.194895 1 6 12
0.123629 -0.164941 2.187628 1 6 12
0.123806 -0.163550 2.190753 0 5 11
0.123754 -0.161854 2.189832 1 4 11
0.124706 -0.161460 2.206677 0 3 10
0.125888 -0.161337 2.227600 0 3 10
0.125345 -0.158992 2.217977 0 3 9
0.125017 -0.156934 2.212187 0 3 7
0.123362 -0.153235 2.182902 0 2 7
0.122779 -0.150897 2.172582 2 2 8
0.127463 -0.148277 2.255464 0 2 8
0.127922 -0.147130 2.263591 0 1 9
0.127773 -0.145279 2.260957 1 4 16
0.128402 -0.144307 2.272087 16 27 42
0.127434 -0.141544 2.254953 54 73 93
0.123323 -0.133735 2.182202 119 148 179
0.123126 -0.131904 2.178722 104 134 170
0.123057 -0.130213 2.177501 79 109 142
0.122985 -0.128520 2.176234 59 89 116
0.122814 -0.126727 2.173205 42 70 93
0.122635 -0.124930 2.170024 27 53 73
0.122482 -0.123165 2.167323 16 39 57
0.122384 -0.121458 2.165595 9 30 46
0.122530 -0.119992 2.168175 9 27 41
0.121770 -0.117647 2.154722 12 29 41
0.122522 -0.116764 2.168033 13 29 39
0.122725 -0.115344 2.171620 12 27 36
0.122654 -0.113665 2.170366 11 27 35
0.122471 -0.111886 2.167122 9 26 34
0.121943 -0.109801 2.157789 8 25 33
0.121398 -0.107715 2.148146 8 25 33
0.121133 -0.105887 2.143448 9 26 34
0.122829 -0.105755 2.173464 9 26 34
0.121020 -0.101017 2.141457 5 24 28
0.120387 -0.098906 2.130262 5 23 28
0.121133 -0.097927 2.143448 6 23 30
0.120336 -0.095701 2.129355 9 25 32
0.120169 -0.093989 2.126397 12 26 35
0.120138 -0.092386 2.125852 12 26 35
0.120013 -0.090712 2.123641 10 25 34
0.119711 -0.088910 2.118284 10 27 35
0.120531 -0.087935 2.132807 15 32 39
0.120405 -0.086261 2.130573 15 33 40
0.121149 -0.085201 2.143735 17 35 42
0.121007 -0.083511 2.141233 19 37 45
0.121435 -0.082210 2.148791 20 37 47
0.121001 -0.080326 2.141112 22 38 49
0.121274 -0.078914 2.145951 25 42 54
0.120677 -0.076939 2.135390 26 45 62
0.120740 -0.075392 2.136496 24 45 68
0.121235 -0.074108 2.145259 23 46 70
0.121479 -0.072660 2.149577 31 56 78
0.119825 -0.070096 2.120316 47 72 95
0.119957 -0.068597 2.122645 62 89 111
0.119765 -0.066913 2.119245 74 100 123
0.119018 -0.064931 2.106026 82 110 132
0.118798 -0.063250 2.102142 85 114 136
0.119083 -0.061837 2.107187 86 117 138
0.119136 -0.060298 2.108117 87 118 139
0.119150 -0.058739 2.108360 79 111 134
0.119275 -0.057233 2.110573 69 102 125
0.119254 -0.055655 2.110200 65 100 122
0.119158 -0.054045 2.108506 66 101 124
0.119100 -0.052453 2.107487 65 99 123
0.119043 -0.050863 2.106472 65 95 118
0.119136 -0.049337 2.108109 68 93 117
0.119018 -0.047724 2.106026 66 90 114
0.118397 -0.045919 2.095037 62 86 110
0.118479 -0.044393 2.096484 56 80 104
0.118796 -0.042951 2.102095 51 75 99
0.118647 -0.041338 2.099471 46 71 94
0.118859 -0.039849 2.103209 43 68 89
0.118597 -0.038202 2.098574 41 66 85
0.118549 -0.036629 2.097729 37 63 80
0.118451 -0.035042 2.095993 34 60 76
0.116661 -0.023779 2.064316 9 30 42
0.116728 -0.022259 2.065506 2 20 32
0.117979 -0.020947 2.087647 0 16 28
0.115697 -0.019021 2.047271 1 18 27
0.116037 -0.017552 2.053284 1 15 22
0.116499 -0.016090 2.061458 0 9 15
0.115638 -0.014451 2.046216 0 6 12
0.115769 -0.012946 2.048539 0 6 11
0.118164 -0.010108 2.090914 1 6 9
0.116060 -0.005352 2.053682 2 3 8
0.115701 -0.003814 2.047326 2 3 8
0.115483 -0.002289 2.043477 2 3 8
0.116430 -0.000778 2.060234 1 2 7
0.115638 0.000747 2.046216 1 2 7
0.115132 0.002257 2.037263 1 2 7
0.114785 0.003759 2.031124 1 2 7
0.114589 0.005259 2.027663 1 2 7
0.114054 0.008232 2.018192 1 2 7
0.114378 0.009759 2.023919 1 2 7
0.114298 0.011254 2.022514 1 2 7
0.119267 0.016446 2.110428 1 2 7
0.119275 0.018015 2.110581 1 2 7
0.119189 0.019569 2.109061 1 2 7
0.117125 0.034624 2.072540 0 3 6
0.113739 0.036613 2.012618 1 5 8
0.112247 0.042034 1.986221 0 3 6
0.112258 0.043513 1.986416 0 3 6
0.112054 0.044907 1.982804 0 3 5
0.115587 0.052400 2.045323 0 2 9
0.115211 0.053743 2.038657 0 2 9
0.115503 0.064506 2.043829 0 5 11
0.115845 0.066220 2.049881 0 5 11
0.114382 0.072901 2.023997 0 4 7
0.113519 0.073843 2.008731 0 4 6
0.113567 0.075367 2.009576 1 5 7
0.116235 0.083248 2.056781 1 5 6
0.117099 0.086944 2.072064 0 2 4
0.116643 0.088139 2.064005 0 2 4
0.116073 0.089234 2.053920 0 1 3
0.115802 0.090548 2.049120 0 0 2
0.111027 0.104326 1.964635 0 1 5
0.110860 0.105626 1.961678 0 1 5
0.110389 0.124039 1.953347 0 1 6
0.110261 0.125343 1.951072 0 1 6
0.110044 0.126543 1.947235 0 1 6
0.109756 0.127654 1.942134 0 1 6
0.109686 0.129014 1.940891 0 1 6
0.110722 0.141876 1.959234 1 2 7
0.110203 0.142659 1.950054 1 2 7
0.103142 0.151142 1.825103 1 2 7
0.103260 0.152671 1.827184 1 2 6
0.111305 0.173343 1.969542 1 2 7
0.110986 0.174305 1.963895 1 2 7
0.111337 0.176320 1.970105 1 2 7
0.110851 0.177008 1.961518 1 2 7
0.103263 0.177107 1.827250 1 3 6
0.103298 0.178523 1.827854 1 2 6
0.103562 0.180342 1.832541 1 2 6
0.103294 0.181232 1.827790 1 2 6
0.103527 0.183001 1.831908 1 2 6
0.103376 0.184094 1.829250 1 2 5
0.103591 0.185838 1.833053 1 2 4
0.103726 0.188807 1.835440 1 2 3
0.103863 0.190421 1.837861 1 2 3
0.103361 0.192219 1.828986 0 2 1
0.103561 0.193950 1.832508 0 2 1
0.103711 0.195595 1.835173 0 2 1
0.103886 0.197290 1.838265 0 2 1
0.104137 0.199136 1.842710 0 0 1
0.103901 0.200049 1.838528 0 1 2
0.103483 0.200605 1.831136 0 0 2
0.103596 0.202185 1.833129 0 0 3
0.103949 0.204241 1.839382 0 0 3
0.104167 0.206039 1.843241 0 0 3
0.103596 0.206270 1.833129 0 0 3
0.104051 0.208544 1.841185 0 0 3
0.104989 0.211804 1.857786 0 1 5
0.105607 0.214440 1.868727 0 1 5
0.106102 0.216838 1.877478 0 1 5
0.187693 -0.444391 3.278151 20 31 37
0.187937 -0.442532 3.282420 13 23 28
0.131943 -0.307261 2.304457 11 20 26
0.131658 -0.304888 2.299469 9 18 25
0.131871 -0.303671 2.303194 11 20 30
0.132190 -0.302690 2.308758 10 20 33
0.131891 -0.300294 2.303534 10 20 35
0.131935 -0.298684 2.304312 9 21 35
0.131850 -0.296780 2.302822 9 22 36
0.131581 -0.294469 2.298132 9 23 36
0.132072 -0.293854 2.306706 11 24 37
0.131792 -0.291520 2.301808 12 24 38
0.131682 -0.289569 2.299888 11 22 36
0.131222 -0.286855 2.291857 6 17 29
0.131815 -0.286441 2.302211 5 14 26
0.131581 -0.284226 2.298123 3 11 23
0.131749 -0.282881 2.301069 1 8 19
0.131204 -0.280007 2.291538 0 6 17
0.130819 -0.277489 2.284821 0 5 16
0.130367 -0.274838 2.276920 0 5 15
0.130173 -0.272742 2.273540 0 5 15
0.130698 -0.272146 2.282705 0 7 17
0.130968 -0.271009 2.287425 0 7 17
0.131340 -0.270075 2.293916 0 7 17
0.131547 -0.268794 2.297534 0 7 17
0.131541 -0.267075 2.297426 0 6 18
0.131273 -0.264829 2.292756 0 6 18
0.130905 -0.262388 2.286322 0 6 17
0.130204 -0.259293 2.274074 0 7 17
0.129949 -0.257100 2.269632 0 5 13
0.128982 -0.253513 2.252731 0 5 11
0.129137 -0.252143 2.255446 0 5 10
0.130164 -0.252459 2.273381 0 6 10
0.129656 -0.249792 2.264504 0 6 12
0.129527 -0.247863 2.262250 0 6 12
0.129370 -0.245884 2.259511 0 7 13
0.129149 -0.243788 2.255642 0 8 15
0.128895 -0.241638 2.251221 2 14 23
0.128621 -0.239454 2.246421 3 17 26
0.128078 -0.236782 2.236940 4 18 29
0.127950 -0.234885 2.234704 5 21 32
0.127619 -0.232622 2.228921 6 24 34
0.127477 -0.230709 2.226441 8 26 36
0.127276 -0.228696 2.222944 10 28 39
0.127213 -0.226932 2.221840 11 29 41
0.127179 -0.225222 2.221251 9 28 40
0.127233 -0.223666 2.222181 8 25 39
0.127075 -0.221740 2.219430 7 23 38
0.126883 -0.219758 2.216067 5 20 35
0.126921 -0.218177 2.216729 3 17 33
0.126994 -0.216657 2.218019 0 14 31
0.127187 -0.215336 2.221389 0 13 29
0.127129 -0.213587 2.220364 0 12 27
0.127037 -0.211785 2.218760 0 12 23
0.127146 -0.210318 2.220674 0 13 21
0.127399 -0.209084 2.225090 0 12 21
0.127382 -0.207403 2.224783 0 11 20
0.126390 -0.204149 2.207470 0 10 20
0.126140 -0.202109 2.203105 0 9 19
0.126088 -0.200390 2.202197 0 9 18
0.125998 -0.198612 2.200622 0 8 17
0.125908 -0.196836 2.199047 0 9 16
0.125801 -0.195036 2.197170 0 9 16
0.125635 -0.193150 2.194279 0 8 14
0.125783 -0.191745 2.196856 0 7 13
0.125940 -0.190352 2.199609 0 7 13
0.126053 -0.188887 2.201581 0 7 13
0.125793 -0.186866 2.197042 0 7 14
0.125801 -0.185246 2.197185 1 8 16
0.125988 -0.183886 2.200441 1 8 15
0.126116 -0.182437 2.202681 1 8 14
0.126054 -0.180712 2.201602 0 7 13
0.126164 -0.179233 2.203524 0 7 13
0.126082 -0.177481 2.202085 0 7 13
0.126287 -0.176130 2.205656 0 6 12
0.126177 -0.174340 2.203738 0 6 12
0.126020 -0.172489 2.201003 0 5 11
0.125684 -0.170399 2.195141 0 5 11
0.125855 -0.168997 2.198114 2 7 13
0.125854 -0.167363 2.198096 2 7 13
0.125602 -0.165400 2.193707 1 6 12
0.125656 -0.163840 2.194643 1 5 11
0.126187 -0.162895 2.203913 1 4 11
0.126709 -0.161926 2.213039 0 3 10
0.128118 -0.162064 2.237649 0 3 10
0.126967 -0.158961 2.217539 0 3 9
0.126228 -0.156399 2.204643 0 3 7
0.124922 -0.153159 2.181825 0 2 7
0.123423 -0.149721 2.155650 2 2 8
0.127800 -0.151714 2.232088 1 2 10
0.128399 -0.149094 2.242551 0 4 8
0.129453 -0.146959 2.260957 0 1 9
0.129323 -0.145133 2.258686 4 9 21
0.129427 -0.143572 2.260515 26 40 57
0.128872 -0.141284 2.250814 66 86 109
0.127187 -0.137786 2.221378 100 128 156
0.125640 -0.134481 2.194364 113 144 176
0.124951 -0.132123 2.182336 98 128 164
0.124934 -0.130484 2.182031 73 103 135
0.124787 -0.128711 2.179460 55 85 111
0.124402 -0.126700 2.172738 41 68 91
0.123643 -0.124324 2.159493 20 46 66
0.123351 -0.122429 2.154380 7 29 47
0.123798 -0.121267 2.162192 6 26 42
0.123510 -0.119383 2.157162 12 30 42
0.123565 -0.117833 2.158132 13 30 41
0.123660 -0.116319 2.159781 11 27 37
0.123823 -0.114866 2.162622 11 25 34
0.123932 -0.113360 2.164533 10 25 34
0.123597 -0.111450 2.158690 9 26 34
0.122852 -0.109184 2.145668 9 26 34
0.122725 -0.107479 2.143448 9 26 34
0.123153 -0.106256 2.150922 9 26 34
0.122579 -0.104171 2.140905 9 26 33
0.122119 -0.102196 2.132861 8 26 33
0.121610 -0.100193 2.123984 7 26 31
0.122022 -0.097366 2.131179 5 22 29
0.121405 -0.095298 2.120394 9 25 33
0.121036 -0.093439 2.113956 14 28 37
0.120854 -0.091730 2.110776 14 30 38
0.121093 -0.090341 2.114957 11 28 36
0.120894 -0.088624 2.111467 11 29 37
0.121232 -0.087299 2.117371 15 33 42
0.121126 -0.085651 2.115525 12 31 39
0.121695 -0.084475 2.125458 15 34 43
0.121898 -0.083034 2.129003 20 39 50
0.122044 -0.081551 2.131558 20 38 50
0.122032 -0.079960 2.131357 19 36 50
0.121620 -0.078112 2.124144 24 40 55
0.121427 -0.076412 2.120774 28 47 66
0.121404 -0.074824 2.120387 31 53 77
0.121624 -0.073381 2.124231 41 65 91
0.121632 -0.071808 2.124369 57 81 107
0.121193 -0.069977 2.116703 72 97 122
0.121039 -0.068317 2.113997 82 108 133
0.120538 -0.066471 2.105264 88 115 140
0.120155 -0.064701 2.098574 91 118 143
0.120609 -0.063381 2.106489 88 117 142
0.120549 -0.061786 2.105451 82 112 137
0.120612 -0.060253 2.106544 78 108 134
0.120690 -0.058726 2.107902 72 104 129
0.121000 -0.057307 2.113322 67 100 125
0.120697 -0.055598 2.108031 63 97 122
0.120627 -0.054001 2.106811 61 95 119
0.120489 -0.052376 2.104405 61 95 117
0.120702 -0.050903 2.108125 64 93 116
0.120592 -0.049292 2.106206 66 91 114
0.120388 -0.047647 2.102628 66 88 111
0.119853 -0.045880 2.093285 63 85 108
0.119530 -0.044206 2.087647 57 80 103
0.120155 -0.042879 2.098574 51 75 99
0.119976 -0.041258 2.095440 47 70 94
0.120121 -0.039750 2.097980 45 67 89
0.120072 -0.038176 2.097111 41 64 83
0.119541 -0.036456 2.087845 36 59 77
0.119101 -0.034777 2.080149 33 56 73
0.119582 -0.033366 2.088554 32 55 71
0.119571 -0.031812 2.088372 33 56 70
0.118983 -0.027025 2.078100 27 47 63
0.118677 -0.025416 2.072744 16 36 50
0.117692 -0.023678 2.055540 3 22 35
0.118487 -0.022301 2.069442 0 18 29
0.119599 -0.020959 2.088856 0 16 26
0.117375 -0.019046 2.050009 0 15 23
0.117552 -0.017550 2.053111 0 12 19
0.117186 -0.015975 2.046704 0 9 14
0.116942 -0.014425 2.042452 0 6 11
0.119530 -0.011643 2.087647 0 3 8
0.119432 -0.010084 2.085932 0 3 7
0.118983 -0.008502 2.078100 1 3 6
0.118095 -0.003843 2.062589 1 2 7
0.118980 -0.002328 2.078047 1 2 7
0.118176 -0.000779 2.064005 1 2 7
0.116173 0.002248 2.029015 1 2 7
0.115977 0.003749 2.025594 1 2 7
0.115690 0.005240 2.020580 1 2 7
0.119676 0.016289 2.090208 1 2 7
0.119797 0.017859 2.092316 1 2 7
0.119406 0.019350 2.085476 1 2 7
0.119231 0.020868 2.082427 1 2 7
0.118604 0.034606 2.071469 0 2 6
0.114784 0.036470 2.004757 1 4 7
0.114855 0.037982 2.005991 1 4 7
0.114179 0.039240 1.994200 1 4 7
0.113763 0.045000 1.986918 0 2 6
0.116202 0.051995 2.029529 0 2 9
0.116431 0.053608 2.033532 0 2 9
0.116945 0.065982 2.042501 0 5 11
0.114832 0.073728 2.005599 0 4 7
0.114594 0.075061 2.001439 0 4 7
0.114957 0.076790 2.007781 0 4 7
0.117772 0.083254 2.056946 0 4 5
0.117834 0.084827 2.058022 0 3 4
0.118219 0.086637 2.064744 1 2 4
0.117960 0.087978 2.060234 1 2 4
0.117146 0.088890 2.046005 0 1 3
0.116957 0.090265 2.042717 0 0 3
0.115443 0.096584 2.016261 0 0 2
0.117112 0.102538 2.045416 0 0 3
0.116340 0.104881 2.031929 1 2 6
0.110762 0.122842 1.934508 0 1 6
0.110670 0.124177 1.932914 0 1 6
0.110456 0.125369 1.929168 0 1 6
0.110157 0.126459 1.923941 0 1 6
0.110024 0.127734 1.921629 0 1 6
0.111632 0.141186 1.949707 1 2 7
0.112269 0.172576 1.960825 1 2 7
0.111909 0.173475 1.954538 1 2 7
0.112371 0.175650 1.962619 1 2 7
0.108657 0.175483 1.897754 1 2 2
0.108948 0.177366 1.902837 1 2 2
0.108907 0.178712 1.902119 0 3 2
0.104915 0.176244 1.832394 0 3 6
0.104595 0.177063 1.826802 0 3 7
0.104622 0.178465 1.827266 1 3 7
0.104517 0.179643 1.825438 2 3 7
0.104563 0.181079 1.826244 2 3 7
0.104643 0.182575 1.827648 2 3 7
0.104366 0.183445 1.822799 1 2 6
0.104269 0.184627 1.821103 1 2 5
0.104475 0.186348 1.824714 1 2 4
0.104493 0.187735 1.825022 1 2 4
0.104301 0.188743 1.821662 1 2 4
0.104299 0.191446 1.821637 1 3 2
0.104298 0.192797 1.821618 1 3 2
0.104458 0.194448 1.824407 1 2 2
0.104650 0.196164 1.827772 0 1 3
0.104852 0.197902 1.831295 0 0 3
0.104853 0.199263 1.831304 0 0 4
0.104701 0.200333 1.828652 0 0 4
0.104588 0.201473 1.826674 0 0 4
0.104703 0.203054 1.828694 0 0 4
0.105569 0.207471 1.843807 0 0 4
0.106814 0.214077 1.865566 0 1 6
0.189103 -0.441995 3.260476 28 39 45
0.187483 -0.435808 3.232545 14 24 29
0.133239 -0.306304 2.297282 8 17 22
0.133513 -0.305224 2.302007 10 19 25
0.133724 -0.303995 2.305653 12 21 31
0.133007 -0.300661 2.293286 11 20 33
0.133433 -0.299914 2.300621 10 20 35
0.133314 -0.297941 2.298581 9 21 35
0.133903 -0.297541 2.308724 9 22 35
0.133310 -0.294516 2.298503 9 23 36
0.133407 -0.293023 2.300186 10 23 36
0.132816 -0.290023 2.289990 11 23 37
0.133225 -0.289210 2.297040 9 20 34
0.133513 -0.288126 2.302007 4 13 26
0.133092 -0.285512 2.294744 3 11 23
0.133236 -0.284116 2.297239 1 8 20
0.132983 -0.281873 2.292870 0 6 18
0.132667 -0.279503 2.287417 0 5 16
0.131705 -0.275790 2.270829 0 5 15
0.132518 -0.275796 2.284853 0 5 15
0.133143 -0.275390 2.295620 0 5 15
0.132472 -0.272306 2.284049 0 8 17
0.133092 -0.271876 2.294744 0 8 17
0.132607 -0.269188 2.286385 0 8 17
0.132614 -0.267504 2.286505 0 8 17
0.132680 -0.265937 2.287640 0 7 18
0.133092 -0.265059 2.294744 0 6 18
0.132446 -0.262076 2.283611 0 7 17
0.131970 -0.259443 2.275395 0 7 17
0.131251 -0.256349 2.263000 0 5 13
0.131447 -0.255048 2.266377 0 5 13
0.131776 -0.253999 2.272053 0 6 12
0.131690 -0.252148 2.270579 0 7 12
0.131760 -0.250594 2.271781 0 8 13
0.131617 -0.248636 2.269310 0 9 14
0.131365 -0.246478 2.264969 0 9 16
0.130835 -0.243808 2.255830 0 10 18
0.130258 -0.241065 2.245883 3 16 25
0.129891 -0.238723 2.239559 4 18 28
0.129352 -0.236076 2.230269 4 19 31
0.129030 -0.233836 2.224716 4 21 33
0.128836 -0.231833 2.221360 6 24 36
0.128796 -0.230111 2.220669 7 27 38
0.128781 -0.228437 2.220423 8 28 39
0.128856 -0.226919 2.221714 9 29 40
0.128987 -0.225497 2.223969 8 28 39
0.128701 -0.223349 2.219037 7 26 38
0.128459 -0.221285 2.214872 6 24 37
0.128351 -0.219454 2.212996 4 21 35
0.128059 -0.217316 2.207973 2 18 33
0.128402 -0.216253 2.213881 0 16 30
0.128816 -0.215300 2.221020 0 14 29
0.128766 -0.213568 2.220156 0 13 27
0.128037 -0.210719 2.207586 0 13 23
0.128010 -0.209034 2.207117 0 13 21
0.128560 -0.208287 2.216606 0 12 21
0.128478 -0.206509 2.215197 0 11 20
0.127972 -0.204057 2.206474 0 10 20
0.127689 -0.201969 2.201586 0 10 20
0.127446 -0.199953 2.197397 0 9 18
0.127703 -0.198721 2.201830 0 9 18
0.126979 -0.195968 2.189345 0 9 16
0.127033 -0.194425 2.190284 0 9 16
0.127272 -0.193160 2.194393 0 9 15
0.127326 -0.191612 2.195333 1 10 15
0.127297 -0.189938 2.194831 2 11 16
0.127349 -0.188385 2.195736 1 10 15
0.127149 -0.186461 2.192280 0 9 15
0.126886 -0.184450 2.187748 0 8 16
0.126918 -0.182871 2.188291 0 8 15
0.127731 -0.182407 2.202314 1 8 14
0.127365 -0.180252 2.195996 0 7 13
0.127033 -0.178156 2.190284 0 7 13
0.128017 -0.177897 2.207253 0 7 13
0.127638 -0.175735 2.200702 0 6 12
0.127498 -0.173909 2.198289 0 6 12
0.127571 -0.172375 2.199548 0 5 11
0.127247 -0.170308 2.193971 0 5 11
0.127182 -0.168592 2.192850 2 7 13
0.127284 -0.167097 2.194607 2 7 13
0.126886 -0.164950 2.187748 1 6 12
0.127617 -0.164266 2.200346 1 5 11
0.128038 -0.163167 2.207599 1 4 11
0.128538 -0.162159 2.216226 0 3 10
0.128954 -0.161033 2.223408 0 3 10
0.128209 -0.158460 2.210553 0 3 9
0.127809 -0.156329 2.203659 0 3 9
0.126447 -0.153044 2.180178 0 2 8
0.128566 -0.152315 2.216703 2 2 8
0.132334 -0.150001 2.281686 0 3 10
0.130824 -0.146613 2.255642 0 2 12
0.130454 -0.144528 2.249260 8 15 28
0.131140 -0.143609 2.261099 39 55 74
0.129678 -0.140347 2.235882 80 102 128
0.128395 -0.137314 2.213758 104 132 161
0.127199 -0.134406 2.193136 105 135 168
0.126830 -0.132392 2.186787 88 119 152
0.126622 -0.130553 2.183193 68 98 129
0.126537 -0.128845 2.181727 53 81 107
0.126089 -0.126774 2.173997 37 64 86
0.125660 -0.124734 2.166613 17 41 62
0.125131 -0.122606 2.157489 4 25 43
0.124711 -0.120597 2.150248 5 24 39
0.125587 -0.119836 2.165348 11 28 41
0.125167 -0.117832 2.158098 13 30 40
0.124839 -0.115925 2.152453 12 27 37
0.125251 -0.114703 2.159557 11 25 34
0.124926 -0.112806 2.153953 10 25 34
0.124550 -0.110871 2.147476 9 26 34
0.124478 -0.109213 2.146230 9 26 34
0.124100 -0.107292 2.139713 9 26 34
0.123994 -0.105612 2.137873 9 26 34
0.123642 -0.103729 2.131809 9 26 34
0.123202 -0.101782 2.124231 11 29 35
0.122902 -0.099960 2.119049 13 32 37
0.123048 -0.098503 2.121575 9 28 33
0.123096 -0.096965 2.122407 7 24 31
0.122412 -0.094859 2.110607 9 25 33
0.122410 -0.093289 2.110567 12 28 36
0.122208 -0.091571 2.107096 13 30 38
0.122575 -0.090276 2.113424 12 30 38
0.122480 -0.088637 2.111771 11 29 38
0.122713 -0.087234 2.115800 10 30 40
0.122888 -0.085784 2.118807 11 32 43
0.122818 -0.084163 2.117606 16 37 49
0.123162 -0.082821 2.123538 21 41 54
0.123078 -0.081189 2.122094 20 40 55
0.123165 -0.079668 2.123582 21 40 55
0.122914 -0.077932 2.119259 28 46 64
0.122941 -0.076375 2.119731 36 56 78
0.122754 -0.074687 2.116509 43 66 91
0.122782 -0.073131 2.116984 57 82 108
0.122770 -0.071552 2.116775 76 101 127
0.122361 -0.069746 2.109725 91 117 142
0.121973 -0.067963 2.103038 96 122 148
0.121866 -0.066343 2.101187 92 119 146
0.121908 -0.064805 2.101922 84 111 139
0.122039 -0.063311 2.104181 79 107 136
0.122017 -0.061737 2.103790 76 106 134
0.122261 -0.060295 2.107998 73 103 131
0.122265 -0.058731 2.108071 68 99 127
0.122261 -0.057163 2.108007 64 96 121
0.122157 -0.055550 2.106206 61 93 119
0.122091 -0.053957 2.105072 58 92 116
0.122128 -0.052409 2.105714 58 92 114
0.122093 -0.050830 2.105103 61 91 112
0.121985 -0.049223 2.103244 64 89 111
0.121483 -0.047465 2.094587 63 85 108
0.121030 -0.045738 2.086785 59 81 104
0.121101 -0.044214 2.087998 52 76 98
0.121129 -0.042673 2.088484 46 71 93
0.121283 -0.041174 2.091147 43 67 89
0.121558 -0.039710 2.095887 42 64 85
0.121476 -0.038128 2.094463 39 62 82
0.120766 -0.036358 2.082227 35 58 75
0.120785 -0.034817 2.082545 31 54 69
0.120863 -0.033292 2.083892 33 56 70
0.120754 -0.031715 2.082011 36 58 72
0.120549 -0.028574 2.078490 25 44 60
0.120151 -0.026941 2.071614 18 37 53
0.120315 -0.025437 2.074446 10 28 42
0.119833 -0.023800 2.066132 1 18 30
0.120152 -0.022325 2.071632 0 17 26
0.120552 -0.020855 2.078534 0 15 23
0.119967 -0.019218 2.068449 0 13 20
0.119648 -0.016102 2.062943 0 8 14
0.120519 -0.013132 2.077967 0 3 7
0.120453 -0.011582 2.076834 0 2 7
0.120795 -0.010068 2.082718 0 2 6
0.120291 -0.008486 2.074032 1 2 6
0.120150 -0.003860 2.071600 1 2 7
0.119781 -0.002314 2.065245 1 2 7
0.119880 -0.000780 2.066952 1 2 7
0.119096 0.000750 2.053435 1 2 7
0.117585 0.003752 2.027377 1 2 7
0.117265 0.005244 2.021853 1 2 7
0.119764 0.014558 2.064950 1 2 7
0.119961 0.016118 2.068352 1 2 7
0.120523 0.017737 2.078030 1 2 7
0.120023 0.019201 2.069413 1 2 7
0.115525 0.037715 1.991869 1 2 7
0.115507 0.039188 1.991558 1 2 7
0.117019 0.053189 2.017614 0 2 9
0.117574 0.063981 2.027197 0 3 10
0.117610 0.065507 2.027818 0 3 10
0.118360 0.067440 2.040740 0 3 10
0.115935 0.073483 1.998934 0 2 7
0.115500 0.074686 1.991426 0 2 7
0.115880 0.076416 1.997985 0 2 7
0.116517 0.078328 2.008970 0 2 7
0.118841 0.082934 2.049037 0 3 5
0.118855 0.084466 2.049281 0 2 5
0.119250 0.086274 2.056081 1 2 4
0.119107 0.087696 2.053626 1 2 4
0.117639 0.089628 2.028306 0 0 3
0.117284 0.098370 2.022186 0 0 2
0.117542 0.100091 2.026630 0 0 2
0.117359 0.101438 2.023476 0 0 3
0.111297 0.121856 1.918970 0 1 6
0.111074 0.123033 1.915114 0 1 6
0.110852 0.124207 1.911287 0 1 6
0.110564 0.125301 1.906331 0 1 6
0.110472 0.126612 1.904746 0 1 6
0.110239 0.174345 1.900717 1 2 5
0.110041 0.175441 1.897301 1 2 4
0.110288 0.177247 1.901564 1 2 2
0.110705 0.180754 1.908759 0 3 3
0.106005 0.177152 1.827722 0 3 7
0.105753 0.178086 1.823378 0 3 7
0.105690 0.179332 1.822281 0 3 7
0.105765 0.180814 1.823576 0 3 7
0.105705 0.182065 1.822540 0 3 7
0.105606 0.183248 1.820840 0 3 7
0.105626 0.184634 1.821178 0 3 5
0.105710 0.186135 1.822628 0 2 4
0.105751 0.187563 1.823348 0 2 4
0.105362 0.189572 1.816639 0 2 3
0.105597 0.191346 1.820688 1 2 3
0.105464 0.192456 1.818395 1 2 3
0.105640 0.194130 1.821431 1 2 3
0.105618 0.195442 1.821049 0 1 4
0.105873 0.197269 1.825438 0 0 4
0.105994 0.198852 1.827528 0 0 4
0.105826 0.199893 1.824633 0 0 4
0.105763 0.201129 1.823551 0 0 4
0.106057 0.203046 1.828621 0 0 4
0.107382 0.212459 1.851469 0 1 5
0.189499 -0.437322 3.226000 34 45 50
0.188088 -0.431686 3.201971 15 25 30
0.135256 -0.307009 2.302565 7 17 21
0.135335 -0.305477 2.303911 11 20 25
0.135350 -0.303799 2.304164 12 21 31
0.134779 -0.300814 2.294453 11 20 34
0.134848 -0.299262 2.295620 10 20 35
0.136026 -0.300157 2.315680 9 21 35
0.135769 -0.297873 2.311306 8 21 35
0.135340 -0.295221 2.304006 8 22 35
0.135054 -0.292889 2.299131 8 22 35
0.134499 -0.289985 2.289687 10 21 35
0.135486 -0.290398 2.306478 8 18 32
0.135350 -0.288396 2.304164 2 11 23
0.135814 -0.287668 2.312072 1 8 21
0.134813 -0.283843 2.295027 0 6 18
0.134717 -0.281936 2.293387 0 5 17
0.133922 -0.278581 2.279865 0 5 15
0.134197 -0.277456 2.284544 0 5 15
0.134463 -0.276306 2.289078 0 5 14
0.134810 -0.275313 2.294975 0 5 15
0.135066 -0.274129 2.299345 0 9 18
0.134895 -0.272076 2.296429 0 8 18
0.134886 -0.270351 2.296264 0 8 18
0.134421 -0.267721 2.288364 0 8 18
0.134359 -0.265898 2.287301 0 8 19
0.134513 -0.264502 2.289924 0 8 18
0.134248 -0.262284 2.285418 0 9 18
0.133111 -0.258379 2.266055 0 8 17
0.132923 -0.256333 2.262855 0 7 14
0.133240 -0.255260 2.268253 0 7 14
0.132843 -0.252820 2.261499 0 8 13
0.133700 -0.252758 2.276073 0 8 13
0.132913 -0.249590 2.262679 0 9 15
0.133138 -0.248330 2.266512 0 11 16
0.133140 -0.246651 2.266552 1 12 18
0.132001 -0.242871 2.247159 0 13 21
0.131274 -0.239873 2.234783 3 17 26
0.131095 -0.237888 2.231733 5 19 30
0.130975 -0.236014 2.229689 4 20 32
0.130027 -0.232663 2.213560 4 22 34
0.129933 -0.230852 2.211958 5 24 35
0.129777 -0.228933 2.209294 4 26 37
0.129905 -0.227517 2.211481 5 27 38
0.130804 -0.227436 2.226776 6 28 39
0.130486 -0.225233 2.221365 6 28 38
0.130145 -0.222999 2.215557 6 27 37
0.130154 -0.221369 2.215717 6 24 36
0.129637 -0.218850 2.206912 4 22 34
0.129531 -0.217034 2.205109 2 19 32
0.129479 -0.215310 2.204226 0 17 29
0.130159 -0.214794 2.215800 0 15 28
0.129647 -0.212311 2.207089 0 15 27
0.129101 -0.209783 2.197787 0 13 24
0.128754 -0.207591 2.191880 0 12 21
0.129490 -0.207142 2.204420 0 12 21
0.129992 -0.206299 2.212950 0 11 21
0.129420 -0.203756 2.203217 0 10 20
0.129203 -0.201781 2.199526 0 10 20
0.129018 -0.199860 2.196372 0 10 19
0.128797 -0.197890 2.192621 0 10 19
0.128948 -0.196491 2.195189 0 9 17
0.128796 -0.194631 2.192602 0 9 16
0.129081 -0.193429 2.197450 1 10 16
0.129142 -0.191887 2.198485 3 12 17
0.128712 -0.189621 2.191170 4 13 18
0.128992 -0.188403 2.195942 2 11 16
0.128821 -0.186524 2.193029 1 10 16
0.128676 -0.184687 2.190559 0 9 16
0.128950 -0.183450 2.195221 0 8 14
0.129333 -0.182359 2.201738 1 8 14
0.128811 -0.179994 2.192850 0 7 13
0.128968 -0.178583 2.195530 0 7 13
0.129542 -0.177740 2.205303 0 7 13
0.129547 -0.176109 2.205388 0 6 12
0.128919 -0.173624 2.194688 0 6 12
0.129167 -0.172325 2.198917 0 5 11
0.129185 -0.170716 2.199224 0 5 11
0.129048 -0.168903 2.196892 2 7 13
0.129247 -0.167529 2.200269 2 7 13
0.129460 -0.166169 2.203907 1 6 12
0.129533 -0.164624 2.205144 1 5 11
0.129633 -0.163112 2.206844 1 4 11
0.129661 -0.161507 2.207322 0 3 10
0.129713 -0.159932 2.208205 0 3 10
0.129514 -0.158050 2.204827 0 3 10
0.130081 -0.157096 2.214477 0 3 9
0.129244 -0.154451 2.200230 0 3 9
0.128660 -0.152126 2.190284 2 2 8
0.128926 -0.150810 2.194808 2 2 8
0.133845 -0.149794 2.278543 0 3 11
0.132345 -0.146442 2.253011 0 4 14
0.131912 -0.144295 2.245643 11 20 35
0.132094 -0.142824 2.248739 51 68 89
0.130081 -0.139003 2.214477 96 119 145
0.128877 -0.136086 2.193971 111 140 170
0.128660 -0.134231 2.190284 100 132 162
0.128252 -0.132184 2.183344 80 112 141
0.128124 -0.130431 2.181157 62 93 120
0.127607 -0.128291 2.172352 48 77 100
0.127471 -0.126543 2.170045 33 59 80
0.127236 -0.124701 2.166042 13 36 56
0.126287 -0.122174 2.149884 1 21 39
0.126919 -0.119575 2.160639 11 27 40
0.126306 -0.117401 2.150210 15 30 40
0.127091 -0.116523 2.163563 14 28 37
0.126083 -0.112410 2.146410 11 26 35
0.125973 -0.110720 2.144540 10 27 35
0.126253 -0.109369 2.149298 10 27 35
0.126198 -0.107726 2.148370 10 27 35
0.125546 -0.105582 2.137272 10 27 35
0.124762 -0.103345 2.123919 10 27 34
0.124231 -0.101334 2.114886 10 28 35
0.124221 -0.099755 2.114707 11 30 35
0.124221 -0.098184 2.114711 9 28 33
0.124075 -0.096500 2.112220 8 25 32
0.123842 -0.094753 2.108253 9 26 34
0.123883 -0.093218 2.108963 12 29 37
0.124006 -0.091743 2.111053 15 32 41
0.124068 -0.090219 2.112106 16 34 44
0.123934 -0.088555 2.109829 12 31 42
0.124282 -0.087232 2.115754 7 28 41
0.124402 -0.085744 2.117802 12 34 48
0.124258 -0.084073 2.115342 18 40 55
0.124296 -0.082527 2.115991 20 42 59
0.124392 -0.081018 2.117630 20 42 60
0.124343 -0.079413 2.116786 25 46 65
0.124197 -0.077750 2.114299 38 58 79
0.124125 -0.076135 2.113078 52 75 98
0.124095 -0.074548 2.112570 67 91 118
0.124089 -0.072975 2.112459 76 102 129
0.123711 -0.071188 2.106033 87 113 140
0.123418 -0.069459 2.101041 95 121 148
0.123476 -0.067931 2.102038 95 122 149
0.123398 -0.066327 2.100702 88 115 143
0.123308 -0.064720 2.099168 81 108 137
0.123583 -0.063302 2.103859 75 102 132
0.123549 -0.061722 2.103271 72 99 130
0.123753 -0.060259 2.106751 69 97 127
0.123697 -0.058667 2.105795 65 95 124
0.123700 -0.057105 2.105848 63 92 120
