ply
format ascii 1.0
element vertex 1326
property float x
property float y
property float z
property uchar red
property uchar green
property uchar blue
end_header
0.195948 0.115922 2.312390 0 0 7
0.191217 0.114799 2.256565 0 0 7
0.190598 0.116099 2.249260 0 0 8
0.189237 0.116928 2.233191 0 0 8
0.187910 0.117755 2.217539 0 0 9
0.189097 0.120157 2.231542 0 0 10
0.188998 0.121750 2.230372 0 0 10
0.188404 0.123019 2.223360 0 0 10
0.188800 0.124933 2.228038 0 0 11
0.189284 0.126912 2.233754 0 0 12
0.187281 0.127211 2.210118 0 0 12
0.187355 0.128903 2.210988 0 0 12
0.178631 0.132295 2.108031 0 0 10
0.178680 0.133898 2.108607 0 0 10
0.178641 0.135435 2.108150 0 0 10
0.178605 0.136973 2.107732 0 0 10
0.177088 0.140466 2.089823 1 1 9
0.178062 0.142800 2.101324 1 1 9
0.178281 0.144538 2.103902 1 1 9
0.179773 0.147324 2.121510 1 1 9
0.179500 0.148673 2.118284 1 1 9
0.179022 0.149846 2.112647 1 1 11
0.178696 0.151140 2.108804 1 1 12
0.178597 0.152622 2.107635 1 1 13
0.179134 0.154651 2.113968 1 1 13
0.179538 0.156573 2.118736 1 1 13
0.179099 0.157761 2.113562 1 1 13
0.178641 0.158923 2.108150 1 1 12
0.177999 0.159912 2.100573 1 1 11
0.176353 0.161524 2.081146 0 0 10
0.175942 0.162690 2.076296 0 0 10
0.175809 0.164108 2.074727 0 0 10
0.177155 0.166918 2.090616 0 0 9
0.177933 0.169211 2.099795 0 0 8
0.177126 0.171549 2.090274 0 0 7
0.179190 0.178260 2.114633 0 0 8
0.178765 0.179404 2.109616 0 0 8
0.178881 0.181088 2.110985 0 0 8
0.178967 0.182744 2.111996 0 0 8
0.178892 0.184236 2.111116 0 0 7
0.178049 0.184927 2.101162 0 1 6
0.177211 0.188717 2.091277 0 1 5
0.175773 0.190268 2.074306 0 1 5
0.180326 0.198357 2.128035 0 1 4
0.179941 0.199511 2.123497 0 1 3
0.180717 0.205123 2.132648 0 1 5
0.181334 0.212181 2.139928 0 1 5
0.179079 0.211113 2.113322 0 1 5
0.178368 0.211838 2.104930 0 1 5
0.178471 0.213525 2.106142 0 0 5
0.178530 0.215161 2.106844 0 0 5
0.179331 0.217698 2.116296 0 0 5
0.179407 0.219362 2.117190 0 0 5
0.179762 0.221372 2.121380 0 0 5
0.179313 0.222391 2.116080 0 0 5
0.178739 0.223246 2.109307 0 0 5
0.178303 0.224265 2.104168 0 0 5
0.177323 0.224586 2.092600 0 0 4
0.176268 0.224795 2.080149 0 1 4
0.176589 0.226752 2.083932 0 1 4
0.176813 0.228590 2.086582 0 1 5
0.176686 0.229974 2.085082 0 1 5
0.176616 0.231431 2.084256 0 1 5
0.179176 0.241068 2.114465 0 1 6
0.178794 0.242121 2.109952 0 1 6
0.178452 0.243222 2.105922 0 1 6
0.208487 -0.317951 2.438984 59 71 103
0.201137 -0.301499 2.352997 58 77 112
0.201129 -0.299740 2.352914 57 77 110
0.204242 -0.300829 2.389326 54 76 113
0.201385 -0.294872 2.355907 53 75 114
0.201146 -0.292773 2.353102 43 65 102
0.203427 -0.294326 2.379793 33 53 86
0.203519 -0.292691 2.380868 29 50 79
0.203262 -0.290555 2.377858 29 49 75
0.202297 -0.287417 2.366570 28 46 70
0.201755 -0.284895 2.360238 23 39 64
0.201303 -0.282507 2.354945 29 44 67
0.201992 -0.281719 2.363008 22 37 59
0.200650 -0.278103 2.347302 13 25 47
0.201249 -0.277185 2.354314 8 21 40
0.201193 -0.275360 2.353660 9 20 39
0.200810 -0.273091 2.349182 10 22 38
0.199939 -0.270169 2.338986 7 19 34
0.200023 -0.268544 2.339967 3 15 29
0.200232 -0.267085 2.342410 1 13 25
0.200238 -0.265354 2.342490 0 12 24
0.201081 -0.264724 2.352350 0 11 23
0.201129 -0.263039 2.352914 0 11 21
0.200964 -0.261077 2.350979 0 8 19
0.201124 -0.259537 2.352853 0 7 18
0.201067 -0.257716 2.352182 0 6 17
0.199847 -0.254416 2.337909 0 5 16
0.200203 -0.251390 2.342075 0 3 10
0.201432 -0.251183 2.356454 0 4 10
0.202450 -0.250693 2.368364 0 5 11
0.202663 -0.249196 2.370859 1 6 13
0.200753 -0.245103 2.348508 1 6 15
0.200210 -0.242700 2.342153 1 5 14
0.199934 -0.240628 2.338925 0 4 14
0.199915 -0.238868 2.338704 0 2 14
0.199923 -0.237141 2.338804 0 1 15
0.200326 -0.235878 2.343510 0 2 17
0.199487 -0.233157 2.333700 2 3 18
0.199197 -0.231087 2.330309 1 2 16
0.199574 -0.228056 2.334714 17 20 33
0.199535 -0.226277 2.334259 43 49 60
0.199778 -0.224817 2.337100 67 74 83
0.199120 -0.222347 2.329406 83 92 99
0.199175 -0.220678 2.330054 91 100 108
0.199162 -0.218932 2.329899 95 103 112
0.199516 -0.217588 2.334044 95 100 112
0.198495 -0.214750 2.322094 97 99 115
0.198743 -0.213291 2.325001 101 103 119
0.198487 -0.211292 2.322004 104 107 122
0.199186 -0.210305 2.330178 105 108 120
0.198956 -0.208333 2.327491 98 100 113
0.198311 -0.205935 2.319948 80 82 96
0.198071 -0.203965 2.317138 67 70 89
0.197924 -0.202093 2.315410 55 57 80
0.198327 -0.200781 2.320127 41 43 69
0.198388 -0.199119 2.320838 47 49 73
0.198750 -0.197755 2.325078 72 75 95
0.198982 -0.196257 2.327790 90 94 111
0.199053 -0.194597 2.328617 89 95 110
0.198572 -0.192402 2.322996 93 100 113
0.198235 -0.190353 2.319051 96 102 116
0.196548 -0.187025 2.299317 98 104 118
0.195525 -0.184353 2.287349 102 108 122
0.195578 -0.182703 2.287971 107 112 125
0.195386 -0.180826 2.285725 106 110 122
0.195153 -0.178914 2.282993 103 107 119
0.194856 -0.176949 2.279524 109 112 123
0.195005 -0.175390 2.281269 103 105 117
0.194787 -0.173502 2.278718 95 97 106
0.194927 -0.171933 2.280355 82 82 92
0.191648 -0.165710 2.241994 64 63 72
0.192467 -0.164745 2.251572 84 82 91
0.193027 -0.163548 2.258128 109 105 117
0.193179 -0.161998 2.259909 128 119 133
0.193201 -0.160338 2.260169 146 136 150
0.191321 -0.157115 2.238170 141 133 144
0.192545 -0.156447 2.252490 119 115 121
0.193572 -0.155599 2.264504 101 99 102
0.193290 -0.153693 2.261209 102 100 103
0.193785 -0.152403 2.266994 100 96 98
0.194514 -0.151286 2.275520 91 85 89
0.195250 -0.150162 2.284135 88 78 86
0.194399 -0.147819 2.274184 95 83 93
0.195115 -0.146667 2.282552 102 89 102
0.195234 -0.145061 2.283952 116 105 116
0.195302 -0.143414 2.284745 127 119 132
0.194504 -0.141138 2.275408 120 117 128
0.194823 -0.139676 2.279143 114 115 124
0.194420 -0.137698 2.274420 121 126 131
0.194042 -0.135744 2.269999 117 126 126
0.192936 -0.133294 2.257068 119 126 127
0.192560 -0.131361 2.252659 119 124 127
0.192415 -0.129590 2.250971 113 114 122
0.192415 -0.127918 2.250971 101 99 109
0.192810 -0.126505 2.255587 89 84 95
0.193260 -0.125121 2.260856 80 71 84
0.193113 -0.123348 2.259132 75 65 77
0.193299 -0.121787 2.261311 62 51 62
0.193094 -0.119980 2.258912 45 33 44
0.194022 -0.118871 2.269763 44 32 43
0.192692 -0.116382 2.254211 69 57 70
0.192787 -0.114764 2.255317 92 79 94
0.194546 -0.114120 2.275893 96 83 99
0.193975 -0.112100 2.269212 95 84 101
0.193661 -0.110236 2.265542 98 90 105
0.192926 -0.108141 2.256951 94 92 102
0.192023 -0.105966 2.246380 91 92 99
0.192207 -0.104398 2.248540 90 93 97
0.192665 -0.102973 2.253896 90 95 99
0.192846 -0.101393 2.256010 94 99 102
0.192236 -0.099402 2.248872 97 103 105
0.191976 -0.097600 2.245837 99 105 105
0.191575 -0.095731 2.241137 101 105 104
0.191750 -0.094153 2.243188 105 107 107
0.191954 -0.092585 2.245575 107 109 109
0.192088 -0.090980 2.247138 111 111 112
0.192331 -0.089424 2.249982 114 114 115
0.192792 -0.087963 2.255379 115 117 117
0.192427 -0.086124 2.251103 115 118 117
0.192515 -0.084491 2.252138 114 119 118
0.192297 -0.082725 2.249590 114 120 118
0.192103 -0.080972 2.247321 109 115 113
0.191382 -0.079005 2.238882 109 115 113
0.190852 -0.077128 2.232680 108 114 112
0.191073 -0.075557 2.235269 107 113 111
0.193517 -0.073160 2.263865 100 106 104
0.194633 -0.071891 2.276920 96 102 102
0.194222 -0.070052 2.272108 94 100 100
0.193572 -0.068135 2.264504 90 96 96
0.194742 -0.066855 2.278192 78 84 84
0.195156 -0.063606 2.283039 44 50 50
0.195288 -0.061951 2.284575 23 29 29
0.192269 -0.059323 2.249260 4 9 11
0.191699 -0.057482 2.242596 0 1 4
0.191946 -0.055888 2.245481 0 3 3
0.191886 -0.054203 2.244783 0 4 0
0.192080 -0.052589 2.247054 0 3 0
0.193013 -0.051167 2.257965 0 3 0
0.192097 -0.047586 2.247243 1 3 1
0.192391 -0.045987 2.250688 1 3 2
0.196672 -0.043592 2.300767 0 1 3
0.193921 -0.041297 2.268581 2 4 3
0.192284 -0.039278 2.249437 0 2 1
0.192039 -0.037559 2.246572 0 2 0
0.191980 -0.035879 2.245874 1 3 0
0.192305 -0.034269 2.249681 1 3 2
0.191880 -0.032526 2.244715 0 2 1
0.192609 -0.030976 2.253233 0 2 2
0.194527 -0.029594 2.275680 2 4 4
0.196239 -0.028150 2.295702 0 0 2
0.194277 -0.026180 2.272756 0 0 2
0.193342 -0.024374 2.261815 0 0 2
0.191924 -0.022528 2.245230 0 0 2
0.190877 -0.019088 2.232976 0 0 2
0.202169 -0.004406 2.365077 0 0 0
0.195280 -0.000863 2.284482 0 0 0
0.194186 0.004204 2.271689 0 0 1
0.194471 0.005900 2.275017 0 0 3
0.195014 0.007611 2.281371 0 0 4
0.194965 0.010998 2.280803 1 0 6
0.194139 0.012638 2.271139 0 0 5
0.196532 0.017917 2.299131 0 0 4
0.198368 0.019808 2.320615 0 0 4
0.199019 0.021602 2.328227 0 0 4
0.200186 0.023468 2.341878 0 0 3
0.196082 0.029803 2.293869 1 1 1
0.197937 0.031805 2.315569 0 0 0
0.196271 0.040064 2.296078 0 0 4
0.196833 0.047020 2.302652 0 0 8
0.196758 0.060680 2.301770 0 0 2
0.195226 0.066993 2.283852 0 0 5
0.195465 0.068773 2.286643 0 1 6
0.197118 0.088196 2.305987 0 1 6
0.196561 0.089655 2.299469 0 1 6
0.196968 0.091552 2.304230 0 1 6
0.196532 0.096472 2.299131 0 0 8
0.199915 0.112030 2.338704 0 0 5
0.199467 0.113512 2.333467 1 0 6
0.197041 0.115556 2.305091 0 0 5
0.193078 0.114909 2.258728 0 0 5
0.192289 0.116110 2.249490 0 0 7
0.190291 0.116558 2.226125 0 0 8
0.189039 0.117433 2.211471 0 0 9
0.190908 0.120253 2.233342 0 0 10
0.190476 0.121636 2.228285 0 0 11
0.190209 0.123119 2.225164 0 0 11
0.190312 0.124839 2.226363 0 0 11
0.190740 0.126777 2.231378 0 0 12
0.190347 0.128170 2.226776 0 0 12
0.188202 0.128361 2.201678 0 0 12
0.198966 0.139160 2.327603 0 0 12
0.199528 0.141287 2.334185 0 0 12
0.180795 0.146874 2.115037 0 1 9
0.181286 0.148848 2.120774 0 1 10
0.180827 0.150042 2.115403 0 1 12
0.180468 0.151312 2.111202 1 2 14
0.180405 0.152827 2.110470 1 2 14
0.181286 0.155149 2.120774 1 2 14
0.181286 0.156724 2.120774 1 2 14
0.180772 0.157851 2.114764 1 2 14
0.180373 0.159070 2.110098 1 2 13
0.180135 0.161990 2.107314 1 1 11
0.177473 0.164223 2.076172 0 0 10
0.179201 0.168935 2.096379 1 1 9
0.180272 0.171511 2.108907 1 1 9
0.180468 0.173266 2.111202 0 0 8
0.181031 0.175379 2.117787 0 0 8
0.181618 0.177527 2.124664 0 0 8
0.180981 0.178477 2.117211 0 0 8
0.180734 0.179803 2.114312 0 0 8
0.180724 0.181364 2.114196 0 0 8
0.180298 0.182503 2.109219 0 0 8
0.181138 0.184928 2.119049 0 0 7
0.179752 0.188199 2.102834 0 1 6
0.179919 0.189937 2.104788 0 1 5
0.180074 0.197923 2.106593 0 1 3
0.180558 0.207869 2.112262 0 1 5
0.180069 0.210435 2.106537 0 1 5
0.178878 0.210597 2.092600 0 1 5
0.178947 0.212235 2.093418 0 0 4
0.179678 0.214662 2.101959 0 0 4
0.180182 0.216831 2.107864 0 0 4
0.180138 0.218343 2.107350 0 0 4
0.180093 0.219852 2.106816 0 0 4
0.179623 0.220840 2.101324 0 0 4
0.176978 0.220663 2.070376 0 0 4
0.176633 0.221768 2.066341 0 0 4
0.176699 0.223387 2.067118 0 1 3
0.177006 0.225313 2.070705 0 1 3
0.177071 0.226934 2.071469 0 1 3
0.176875 0.228220 2.069179 0 1 4
0.180634 0.240918 2.113153 0 1 6
0.180287 0.242021 2.109087 0 1 6
0.210693 -0.320362 2.443557 73 82 103
0.203474 -0.302374 2.359831 54 71 99
0.202708 -0.299490 2.350949 49 69 98
0.203211 -0.298484 2.356790 49 70 100
0.203480 -0.297125 2.359905 56 77 108
0.206751 -0.298340 2.397845 46 67 98
0.205303 -0.294482 2.381049 30 51 80
0.204206 -0.291149 2.368325 23 44 71
0.203666 -0.288625 2.362063 25 46 72
0.203762 -0.287006 2.363179 25 45 70
0.203330 -0.284645 2.358162 21 38 64
0.203190 -0.282699 2.356540 22 38 63
0.203415 -0.281259 2.359149 15 30 51
0.203325 -0.279384 2.358110 8 23 43
0.202827 -0.276952 2.352335 8 23 40
0.202661 -0.274980 2.350411 9 23 39
0.202038 -0.272394 2.343181 9 22 36
0.201704 -0.270207 2.339314 8 22 35
0.201985 -0.268842 2.342562 11 25 37
0.201957 -0.267065 2.342241 6 20 32
0.202103 -0.265517 2.343931 4 17 30
0.202852 -0.264754 2.352618 2 16 29
0.202847 -0.263000 2.352561 0 13 25
0.202555 -0.260877 2.349182 0 10 21
0.202318 -0.258828 2.346426 0 7 17
0.202050 -0.256745 2.343323 0 4 14
0.201684 -0.254543 2.339080 0 3 12
0.202308 -0.253588 2.346317 0 3 10
0.201994 -0.251453 2.342668 0 3 9
0.203447 -0.251510 2.359524 0 3 9
0.203736 -0.250112 2.362875 0 2 9
0.205041 -0.249948 2.378012 0 2 9
0.202607 -0.245235 2.349777 0 2 10
0.201254 -0.241864 2.334089 0 2 11
0.201493 -0.240416 2.336865 0 1 12
0.201637 -0.238850 2.338531 0 1 13
0.201115 -0.236500 2.332478 0 1 14
0.200958 -0.234584 2.330656 0 2 15
0.200833 -0.232708 2.329211 1 3 16
0.204122 -0.234760 2.367352 0 3 15
0.203357 -0.232129 2.358485 0 3 15
0.202040 -0.228886 2.343211 13 19 31
0.201095 -0.226082 2.332245 47 53 65
0.201648 -0.224966 2.338655 73 82 91
0.200793 -0.222284 2.328747 83 92 99
0.200539 -0.220275 2.325803 92 101 106
0.200761 -0.218789 2.328376 96 105 111
0.200893 -0.217202 2.329899 96 104 111
0.200825 -0.215398 2.329109 97 105 112
0.200412 -0.213229 2.324324 101 108 117
0.199767 -0.210822 2.316844 104 110 119
0.200994 -0.210386 2.331076 102 108 117
0.200352 -0.207988 2.323628 93 97 108
0.199592 -0.205480 2.314817 70 73 87
0.199827 -0.204000 2.317539 40 41 62
0.199639 -0.202088 2.315357 21 21 47
0.200434 -0.201166 2.324577 32 33 60
0.200313 -0.199320 2.323179 61 63 86
0.200230 -0.197512 2.322211 84 87 106
0.200729 -0.196275 2.328004 92 95 111
0.200758 -0.194573 2.328332 93 97 111
0.199945 -0.192063 2.318905 93 98 110
0.199132 -0.189567 2.309481 95 100 112
0.199891 -0.188567 2.318279 98 103 115
0.197915 -0.184999 2.295370 104 108 121
0.196990 -0.182437 2.284633 108 113 124
0.196998 -0.180748 2.284731 109 113 124
0.197548 -0.179551 2.291112 108 112 123
0.196817 -0.177191 2.282633 111 115 126
0.196346 -0.175075 2.277167 115 118 129
0.196455 -0.173480 2.278432 108 112 121
0.196529 -0.171853 2.279294 95 97 105
0.196696 -0.170304 2.281231 77 77 83
0.194431 -0.166667 2.254953 57 58 63
0.192943 -0.163730 2.237697 66 64 71
0.194726 -0.163566 2.258382 96 93 99
0.195204 -0.162286 2.263923 118 111 120
0.194619 -0.160123 2.257139 135 127 137
0.196257 -0.159780 2.276135 136 130 137
0.194539 -0.156705 2.256207 124 119 123
0.194359 -0.154886 2.254119 112 108 112
0.195158 -0.153842 2.263393 109 105 109
0.195923 -0.152757 2.272264 99 94 98
0.196022 -0.151146 2.273413 84 78 84
0.196407 -0.149750 2.277870 81 72 81
0.196183 -0.147890 2.275282 91 81 91
0.196539 -0.146465 2.279410 105 95 106
0.196495 -0.144740 2.278902 119 110 122
0.196626 -0.143142 2.280414 126 119 132
0.196810 -0.141581 2.282552 119 116 128
0.195752 -0.139133 2.270274 117 117 128
0.196611 -0.138050 2.280244 123 127 134
0.196048 -0.135966 2.273711 121 129 134
0.194344 -0.133110 2.253948 122 131 135
0.193718 -0.131012 2.246686 125 131 136
0.193660 -0.129305 2.246014 121 125 132
0.194088 -0.127919 2.250980 108 109 117
0.194522 -0.126529 2.256010 90 88 97
0.194972 -0.125142 2.261230 76 72 80
0.194915 -0.123427 2.260576 69 64 70
0.195141 -0.121889 2.263193 54 49 55
0.194863 -0.120036 2.259966 44 36 42
0.194769 -0.118301 2.258882 45 38 43
0.193714 -0.115991 2.246646 70 63 69
0.194261 -0.114645 2.252992 92 84 93
0.195189 -0.113512 2.263752 93 84 97
0.195461 -0.111986 2.266905 91 84 98
0.194522 -0.109772 2.256010 98 93 106
0.195200 -0.108473 2.263881 94 94 101
0.194619 -0.106474 2.257139 91 94 98
0.194230 -0.104588 2.252630 92 96 98
0.194036 -0.102812 2.250383 94 99 101
0.194158 -0.101204 2.251787 98 103 105
0.193624 -0.099258 2.245605 101 107 107
0.193780 -0.097668 2.247408 103 108 109
0.193324 -0.095773 2.242123 103 107 109
0.194036 -0.094454 2.250383 105 109 110
0.194063 -0.092796 2.250694 108 110 112
0.193875 -0.091036 2.248513 111 112 115
0.194257 -0.089541 2.252937 114 115 117
0.194509 -0.087982 2.255867 114 118 119
0.194254 -0.086194 2.252908 115 119 118
0.194098 -0.084452 2.251092 114 119 118
0.194082 -0.082773 2.250905 114 120 118
0.193961 -0.081051 2.249509 109 115 113
0.193505 -0.079194 2.244225 109 115 113
0.192881 -0.077276 2.236980 107 113 112
0.193953 -0.076035 2.249418 107 112 111
0.194685 -0.074645 2.257908 103 109 107
0.195325 -0.073208 2.265330 100 106 106
0.195401 -0.071553 2.266211 96 102 102
0.196922 -0.070414 2.283852 92 101 100
0.196390 -0.068532 2.277682 89 98 97
0.196650 -0.066928 2.280697 76 85 82
0.198007 -0.065684 2.296429 58 67 64
0.197151 -0.063702 2.286505 38 47 44
0.196629 -0.061840 2.280450 17 25 24
0.194887 -0.059613 2.260249 1 7 7
0.193397 -0.057491 2.242969 0 2 2
0.193554 -0.055870 2.244783 0 3 4
0.194179 -0.054378 2.252035 0 2 0
0.194376 -0.052759 2.254319 0 2 0
0.194347 -0.051077 2.253988 1 3 0
0.194540 -0.047776 2.256222 1 3 1
0.198619 -0.043645 2.303534 0 1 3
0.197203 -0.041635 2.287109 1 3 2
0.194080 -0.039303 2.250884 0 1 0
0.193682 -0.037554 2.246268 0 2 0
0.193500 -0.034185 2.244163 2 4 3
0.193831 -0.030904 2.247999 0 1 0
0.195603 -0.027817 2.268550 0 0 2
0.194741 -0.026016 2.258552 0 0 2
0.194522 -0.024311 2.256010 0 0 2
0.203387 -0.004395 2.358824 0 0 0
0.203158 -0.002640 2.356175 0 0 0
0.196036 -0.000858 2.273568 0 0 0
0.195852 0.007578 2.271438 0 0 4
0.195781 0.010949 2.270611 1 0 6
0.194654 0.012562 2.257550 0 0 5
0.196449 0.016063 2.278362 0 0 4
0.200637 0.021590 2.326928 0 0 4
0.202166 0.023496 2.344672 0 0 3
0.196177 0.039700 2.275212 0 0 5
0.194835 0.066283 2.259643 0 0 5
0.196721 0.087260 2.281513 0 1 6
0.195831 0.088552 2.271197 0 1 6
0.197203 0.090871 2.287109 0 1 6
0.196262 0.092128 2.276191 0 1 6
0.215415 0.114109 2.498324 0 0 8
0.201548 0.111972 2.337501 0 0 5
0.199041 0.112294 2.308419 1 0 5
0.194158 0.114556 2.251787 0 0 5
0.190578 0.117369 2.210268 0 0 9
0.192820 0.120411 2.236273 0 0 10
0.192140 0.121642 2.228390 0 0 11
0.191607 0.122955 2.222205 0 0 12
0.191887 0.124788 2.225451 0 0 12
0.192069 0.126561 2.227565 0 0 12
0.192412 0.128444 2.231542 0 0 12
0.198848 0.137879 2.306183 0 0 13
0.199150 0.139804 2.309683 0 0 12
0.199889 0.142045 2.318254 0 0 12
0.185840 0.144869 2.155319 0 2 11
0.183629 0.149473 2.129680 0 2 11
0.182913 0.150466 2.121380 0 2 12
0.182481 0.151682 2.116364 0 2 14
0.182493 0.153265 2.116509 0 2 15
0.182799 0.155096 2.120050 0 2 15
0.182683 0.156571 2.118710 0 2 14
0.183016 0.158433 2.122570 0 2 14
0.183213 0.160182 2.124861 0 2 14
0.182483 0.162688 2.116393 1 1 13
0.182629 0.165965 2.118085 1 1 12
0.181065 0.167663 2.099948 1 1 11
0.180947 0.169112 2.098574 1 1 11
0.181973 0.171638 2.110470 1 1 11
0.182654 0.173855 2.118373 0 0 10
0.182491 0.175272 2.116486 0 0 10
0.182810 0.177153 2.120184 0 0 9
0.182946 0.178861 2.121764 0 0 9
0.182907 0.180398 2.121308 0 0 8
0.182671 0.181739 2.118569 0 0 8
0.182728 0.183369 2.119228 0 0 8
0.182564 0.184778 2.117328 0 0 7
0.182965 0.186759 2.121976 0 1 6
0.182299 0.187650 2.114250 0 1 5
0.181723 0.188623 2.107579 0 1 5
0.181438 0.189890 2.104270 0 1 5
0.181485 0.191502 2.104810 0 1 5
0.181594 0.193182 2.106079 0 1 4
0.181360 0.194495 2.103360 0 1 3
0.181444 0.196149 2.104343 0 1 3
0.181333 0.197590 2.103051 0 1 3
0.181158 0.208323 2.101018 0 1 4
0.181727 0.210544 2.107625 0 1 4
0.181179 0.216152 2.101267 0 0 3
0.179258 0.216948 2.078988 0 0 3
0.178665 0.217770 2.072112 0 0 3
0.178333 0.218902 2.068264 0 0 3
0.177706 0.219662 2.060983 0 0 3
0.177522 0.220964 2.058851 0 0 3
0.176989 0.221825 2.052670 0 1 3
0.177236 0.223662 2.055540 0 1 3
0.177757 0.225851 2.061579 0 1 3
0.178048 0.227754 2.064950 0 1 4
0.182104 0.237649 2.111996 0 1 5
0.181925 0.240549 2.109915 0 1 6
0.181788 0.241934 2.108326 0 1 6
0.212397 -0.320196 2.442285 76 83 99
0.208475 -0.298258 2.397183 44 65 92
0.207345 -0.294871 2.384196 31 52 79
0.205812 -0.290933 2.366570 24 45 72
0.204973 -0.287996 2.356918 25 46 73
0.205679 -0.287231 2.365034 24 45 71
0.205540 -0.285281 2.363437 19 39 64
0.203744 -0.281049 2.342790 18 34 59
0.205351 -0.281512 2.361266 11 26 48
0.205532 -0.280004 2.363348 7 22 41
0.205350 -0.278002 2.361253 7 23 39
0.203102 -0.273224 2.335399 8 24 38
0.203876 -0.272524 2.344302 7 23 36
0.204039 -0.271000 2.346180 7 23 34
0.203627 -0.268713 2.341443 9 26 36
0.204109 -0.267606 2.346981 4 20 33
0.204385 -0.266223 2.350160 2 18 31
0.204586 -0.264737 2.352467 2 16 29
0.204915 -0.263413 2.356256 0 13 25
0.204390 -0.260992 2.350212 0 10 21
0.203482 -0.258094 2.339769 0 7 15
0.203776 -0.254986 2.343149 0 3 10
0.204022 -0.251810 2.345989 0 3 9
0.204295 -0.250402 2.349128 0 2 9
0.205743 -0.250418 2.365768 0 2 9
0.205560 -0.248441 2.363671 0 1 9
0.203217 -0.243873 2.336722 0 1 9
0.203455 -0.242421 2.339466 0 1 10
0.203330 -0.240535 2.338021 0 1 11
0.204112 -0.239718 2.347023 0 1 12
0.203273 -0.236996 2.337373 0 2 14
0.202721 -0.234621 2.331022 0 2 14
0.202785 -0.232963 2.331761 0 4 16
0.204027 -0.232647 2.346041 0 3 15
0.203461 -0.228527 2.339535 13 20 32
0.203546 -0.226883 2.340511 48 56 68
0.203177 -0.224736 2.336264 75 83 92
0.202693 -0.222470 2.330696 84 93 99
0.202449 -0.220474 2.327900 92 102 104
0.202601 -0.218908 2.329639 96 106 107
0.202584 -0.217160 2.329445 95 105 108
0.202213 -0.215035 2.325183 96 107 109
0.202369 -0.213473 2.326977 100 110 114
0.201847 -0.211198 2.320971 102 111 117
0.202088 -0.209724 2.323739 100 108 114
0.201210 -0.207095 2.313651 89 95 105
0.201524 -0.205696 2.317255 63 65 82
0.201580 -0.204032 2.317901 27 27 50
0.201838 -0.202569 2.320867 8 9 35
0.202379 -0.201383 2.327089 27 28 55
0.201617 -0.198904 2.318332 64 66 90
0.202248 -0.197798 2.325578 87 90 108
0.202550 -0.196364 2.329056 91 94 109
0.202351 -0.194443 2.326767 94 98 110
0.201281 -0.191696 2.314466 93 97 109
0.201858 -0.190521 2.321102 93 97 109
0.201488 -0.188451 2.316844 97 101 113
0.199757 -0.185125 2.296935 104 108 119
0.199439 -0.183128 2.293286 108 112 123
0.198597 -0.180658 2.283599 110 114 125
0.198404 -0.178789 2.281388 111 115 126
0.198205 -0.176916 2.279092 112 118 128
0.197919 -0.174970 2.275804 118 123 134
0.197463 -0.172881 2.270560 112 116 125
0.197947 -0.171614 2.276127 102 106 112
0.197743 -0.169748 2.273779 85 88 92
0.196936 -0.167373 2.264504 58 59 63
0.194117 -0.163320 2.232088 56 56 59
0.195158 -0.162529 2.244063 85 84 85
0.196457 -0.161933 2.259001 108 104 107
0.197968 -0.161487 2.276371 123 118 121
0.197361 -0.159306 2.269387 127 123 125
0.196294 -0.156769 2.257124 117 112 116
0.195987 -0.154850 2.253595 107 102 106
0.197196 -0.154120 2.267492 100 95 100
0.197859 -0.152949 2.275119 92 87 92
0.198949 -0.152092 2.287653 82 77 84
0.200378 -0.151473 2.304077 79 72 81
0.198470 -0.148336 2.282142 90 82 93
0.198115 -0.146379 2.278065 108 100 112
0.198225 -0.144767 2.279328 122 115 127
0.198739 -0.143444 2.285233 123 118 132
0.198430 -0.141527 2.281686 118 115 128
0.199525 -0.140604 2.294279 118 118 130
0.198167 -0.137954 2.278660 122 126 136
0.197821 -0.136023 2.274675 122 132 139
0.196793 -0.133636 2.262855 121 133 140
0.196414 -0.131701 2.258502 126 136 143
0.195282 -0.129274 2.245481 127 133 139
0.195753 -0.127914 2.250905 115 119 125
0.196443 -0.126687 2.258834 95 96 103
0.197198 -0.125490 2.267518 77 77 80
0.197209 -0.123813 2.267641 68 67 69
0.197171 -0.122104 2.267200 44 42 42
0.197060 -0.120353 2.265926 41 41 39
0.197755 -0.119089 2.273922 45 44 43
0.195622 -0.116133 2.249397 67 66 66
0.196532 -0.114995 2.259863 89 87 91
0.196603 -0.113357 2.260674 88 86 94
0.196538 -0.111641 2.259932 88 83 95
0.196845 -0.110134 2.263461 99 97 107
0.197159 -0.108626 2.267065 104 105 108
0.196936 -0.106821 2.264504 101 105 105
0.197494 -0.105437 2.270917 100 104 105
0.196382 -0.103166 2.258128 99 103 104
0.195577 -0.101073 2.248872 100 104 105
0.195236 -0.099229 2.244957 102 106 107
0.195314 -0.097601 2.245852 105 109 110
0.195701 -0.096122 2.250300 107 111 114
0.196371 -0.094774 2.258003 111 114 119
0.195757 -0.092806 2.250944 113 116 121
0.195703 -0.091109 2.250324 115 118 123
0.195982 -0.089565 2.253539 116 119 124
0.195854 -0.087834 2.252056 117 121 124
0.195427 -0.085973 2.247151 117 121 122
0.195647 -0.084399 2.249681 116 120 121
0.195735 -0.082765 2.250694 114 120 120
0.195478 -0.080987 2.247738 114 121 120
0.195355 -0.079267 2.246320 110 116 116
0.195725 -0.077746 2.250583 106 112 112
0.196288 -0.076293 2.257052 108 112 114
0.197392 -0.075037 2.269748 109 113 116
0.196398 -0.072981 2.258320 106 112 112
0.196370 -0.071294 2.257993 95 104 103
0.198430 -0.070347 2.281686 85 95 94
0.198315 -0.068612 2.280355 78 90 86
0.198362 -0.066934 2.280899 69 84 77
0.198837 -0.065396 2.286356 51 66 59
0.198861 -0.063706 2.286643 29 41 35
0.196734 -0.061344 2.262181 9 18 14
0.196158 -0.059489 2.255553 2 8 4
0.196418 -0.056213 2.258552 0 2 1
0.196275 -0.054496 2.256901 0 2 0
0.195505 -0.052612 2.248046 0 1 2
0.195782 -0.051014 2.251237 0 1 2
0.198847 -0.043321 2.286476 0 1 3
0.198430 -0.041536 2.281686 0 0 0
0.196401 -0.039434 2.258347 0 0 0
0.195579 -0.037598 2.248900 0 0 0
0.194966 -0.035815 2.241847 0 1 0
0.196004 -0.034332 2.253785 0 1 1
0.195727 -0.032612 2.250602 0 0 0
0.195673 -0.030931 2.249982 0 0 0
0.196788 -0.029427 2.262800 0 1 0
0.196260 -0.027672 2.256727 0 0 0
0.196320 -0.026003 2.257421 0 0 0
0.196105 -0.024300 2.254953 0 0 0
0.202981 -0.007816 2.334008 0 0 0
0.202996 -0.004349 2.334185 0 0 0
0.202424 -0.002608 2.327603 0 0 0
0.198638 0.009317 2.284076 0 0 5
0.200715 0.011129 2.307953 0 0 5
0.195485 0.014178 2.247819 0 0 5
0.203489 0.023448 2.339857 0 0 5
0.200263 0.035049 2.302755 0 0 0
0.195872 0.040973 2.252273 0 1 5
0.196382 0.086365 2.258128 0 1 6
0.202895 0.111757 2.333020 0 0 5
0.197372 0.112087 2.269520 1 0 5
0.195922 0.112937 2.252841 0 0 5
0.194845 0.113980 2.240463 0 0 5
0.195673 0.116136 2.249982 0 0 6
0.193678 0.121568 2.227039 0 0 12
0.193109 0.122860 2.220493 0 0 12
0.193233 0.124590 2.221928 0 0 12
0.193727 0.126563 2.227600 0 0 12
0.193753 0.128235 2.227901 0 0 12
0.194162 0.130164 2.232610 0 0 12
0.198195 0.134560 2.278984 0 0 13
0.200043 0.139232 2.300230 0 0 13
0.200512 0.141271 2.305625 0 0 13
0.198148 0.142990 2.278444 0 0 13
0.186408 0.140887 2.143448 1 1 12
0.186408 0.142479 2.143448 0 2 12
0.187612 0.145001 2.157287 0 2 11
0.185770 0.146751 2.136107 0 2 11
0.186663 0.149050 2.146378 0 3 12
0.184116 0.150161 2.117085 0 1 13
0.184261 0.151854 2.118762 0 2 14
0.183659 0.152926 2.111838 0 2 15
0.183622 0.154464 2.111414 0 2 15
0.183615 0.156026 2.111333 0 2 14
0.184135 0.158040 2.117303 0 2 14
0.184277 0.159736 2.118936 0 2 14
0.184054 0.161115 2.116376 1 2 14
0.183877 0.162531 2.114347 1 1 13
0.183446 0.163717 2.109389 1 1 13
0.183348 0.165195 2.108263 1 1 12
0.183243 0.166666 2.107057 1 1 11
0.183132 0.168129 2.105780 1 1 11
0.182448 0.169059 2.097908 1 1 11
0.183145 0.171269 2.105922 1 1 11
0.183193 0.172878 2.106472 1 1 11
0.183186 0.174436 2.106398 0 0 10
0.183366 0.176174 2.108468 0 0 10
0.183556 0.177924 2.110652 0 0 9
0.183696 0.179629 2.112262 0 0 8
0.183965 0.181462 2.115349 0 0 8
0.184078 0.183146 2.116649 0 0 8
0.183587 0.184226 2.111004 0 0 7
0.183296 0.185499 2.107658 0 1 6
0.183788 0.187567 2.113322 0 1 5
0.182567 0.187881 2.099283 0 1 5
0.182726 0.189605 2.101112 0 1 5
0.182212 0.190628 2.095200 0 1 5
0.181421 0.191349 2.086096 0 1 4
0.181353 0.192827 2.085321 0 1 3
0.181278 0.194295 2.084455 0 1 3
0.181571 0.196160 2.087826 0 1 3
0.181519 0.197654 2.087229 0 1 3
0.181472 0.199153 2.086685 0 1 3
0.181056 0.200243 2.081908 0 1 3
0.181223 0.201975 2.083827 0 1 3
0.181262 0.203566 2.084267 0 1 3
0.181668 0.205574 2.088938 0 1 3
0.183973 0.211325 2.115446 0 1 3
0.183788 0.212683 2.113322 0 1 3
0.183983 0.214480 2.115562 0 0 2
0.183668 0.215681 2.111936 0 0 2
0.183518 0.217072 2.110212 0 0 2
0.183466 0.218578 2.109616 0 0 2
0.183591 0.220294 2.111049 0 0 2
0.182839 0.220953 2.102401 0 0 2
0.183124 0.222862 2.105684 0 0 2
0.183169 0.224482 2.106206 0 0 2
0.183332 0.226247 2.108071 0 0 2
0.187108 0.243692 2.151499 0 1 5
0.214887 -0.324846 2.449993 99 105 120
0.208714 -0.296072 2.379616 41 62 89
0.209373 -0.295233 2.387125 32 54 78
0.208214 -0.291835 2.373907 28 48 73
0.207037 -0.288432 2.360490 27 47 72
0.206981 -0.286601 2.359849 23 43 69
0.207126 -0.285048 2.361501 20 38 64
0.206239 -0.273349 2.351393 7 23 36
0.206076 -0.271388 2.349537 6 23 33
0.206511 -0.270211 2.354490 7 24 34
0.206214 -0.268076 2.351102 3 20 32
0.206134 -0.266227 2.350199 2 18 31
0.206987 -0.265576 2.359922 2 16 29
0.207737 -0.264779 2.368476 0 12 25
0.206620 -0.261605 2.355735 0 10 21
0.206967 -0.260292 2.359696 0 7 16
0.206857 -0.258402 2.358444 0 4 13
0.206462 -0.256160 2.353940 0 3 10
0.208612 -0.257061 2.378452 0 3 9
0.208737 -0.253679 2.379872 0 2 9
0.207858 -0.250851 2.369852 0 2 9
0.207526 -0.248692 2.366062 0 1 9
0.207156 -0.246494 2.361843 0 1 9
0.205842 -0.243189 2.346871 0 1 10
0.205628 -0.241194 2.344430 1 1 11
0.205437 -0.239230 2.342246 0 1 11
0.205043 -0.237035 2.337759 0 2 13
0.206371 -0.236823 2.352902 0 3 14
0.205031 -0.231813 2.337625 0 3 14
0.206595 -0.231831 2.355448 1 5 17
0.206915 -0.230438 2.359101 16 23 36
0.206036 -0.227714 2.349081 50 58 70
0.207258 -0.227309 2.363008 76 84 94
0.204530 -0.222585 2.331903 86 95 101
0.204441 -0.220758 2.330898 92 102 105
0.204036 -0.218592 2.326277 95 105 107
0.204118 -0.216951 2.327213 95 105 106
0.203522 -0.214595 2.320420 96 107 109
0.204645 -0.214045 2.333215 100 110 113
0.203616 -0.211245 2.321487 102 111 117
0.202707 -0.208585 2.311120 101 107 116
0.202457 -0.206613 2.308270 88 92 104
0.202313 -0.204752 2.306626 54 56 73
0.203113 -0.203843 2.315752 18 18 41
0.203129 -0.202139 2.315937 5 5 33
0.204170 -0.201445 2.327804 23 24 52
0.202874 -0.198448 2.313025 63 65 88
0.203373 -0.197214 2.318713 86 89 107
0.204055 -0.196148 2.326495 92 96 110
0.204062 -0.194426 2.326569 92 96 108
0.202578 -0.191297 2.309658 91 95 107
0.202882 -0.189865 2.313114 92 96 108
0.202157 -0.187476 2.304858 97 101 113
0.202550 -0.186125 2.309338 104 108 119
0.202916 -0.184742 2.313502 109 113 124
0.201100 -0.181386 2.292800 112 116 127
0.200201 -0.178880 2.282552 112 117 128
0.199685 -0.176728 2.276668 111 118 128
0.200043 -0.175350 2.280746 116 122 132
0.199417 -0.173113 2.273617 112 116 124
0.198556 -0.170684 2.263794 106 109 116
0.199592 -0.169884 2.275604 93 94 99
0.199463 -0.168085 2.274137 63 64 67
0.195717 -0.163271 2.231423 54 53 55
0.196522 -0.162278 2.240602 76 75 76
0.197960 -0.161790 2.257006 102 98 101
0.198728 -0.160734 2.265753 116 112 116
0.197886 -0.158377 2.256156 121 116 120
0.197521 -0.156413 2.252001 111 106 111
0.198920 -0.155836 2.267945 100 96 101
0.199221 -0.154384 2.271376 95 91 98
0.199557 -0.152955 2.275212 91 86 92
0.201132 -0.152459 2.293162 84 79 86
0.201622 -0.151123 2.298757 85 77 88
0.199973 -0.148194 2.279956 95 87 98
0.199935 -0.146472 2.279524 109 103 115
0.200187 -0.144962 2.282393 122 116 128
0.200113 -0.143213 2.281547 123 119 132
0.201298 -0.142356 2.295057 118 116 128
0.200229 -0.139905 2.282867 119 119 131
0.200405 -0.138331 2.284879 122 125 137
0.199032 -0.135698 2.269226 122 132 140
0.198899 -0.133922 2.267706 120 132 140
0.199437 -0.132596 2.273844 124 134 140
0.198081 -0.130017 2.258382 125 132 140
0.197281 -0.127821 2.249260 119 124 130
0.197908 -0.126552 2.256413 102 105 110
0.198835 -0.125460 2.266982 82 83 86
0.198434 -0.123527 2.262409 67 69 68
0.198579 -0.121935 2.264055 41 41 39
0.198338 -0.120108 2.261311 37 38 33
0.199813 -0.119309 2.278127 38 39 35
0.197767 -0.116412 2.254802 59 60 58
0.197612 -0.114648 2.253034 84 84 86
0.198473 -0.113467 2.262855 85 84 90
0.198618 -0.111867 2.264504 83 80 90
0.198298 -0.110008 2.260856 90 89 97
0.198951 -0.108685 2.268300 106 107 109
0.198516 -0.106766 2.263342 103 107 106
0.198987 -0.105334 2.268705 104 108 107
0.198618 -0.103457 2.264504 104 108 107
0.197572 -0.101239 2.252577 105 109 110
0.196950 -0.099252 2.245481 106 110 111
0.197302 -0.097759 2.249504 107 111 114
0.198245 -0.096547 2.260249 108 112 115
0.198229 -0.094861 2.260065 112 115 120
0.198107 -0.093125 2.258681 114 117 123
0.197882 -0.091343 2.256106 116 119 125
0.197885 -0.089669 2.256142 117 120 125
0.197554 -0.087846 2.252375 118 122 125
0.196935 -0.085903 2.245311 118 122 125
0.196977 -0.084253 2.245799 117 121 122
0.197313 -0.082726 2.249630 115 121 121
0.197563 -0.081158 2.252477 113 122 121
0.197557 -0.079482 2.252409 109 118 117
0.197730 -0.077877 2.254380 108 113 116
0.197930 -0.076280 2.256661 109 113 116
0.198230 -0.074717 2.260079 110 114 117
0.198051 -0.072972 2.258038 106 111 114
0.198567 -0.071481 2.263923 94 103 102
0.200223 -0.070381 2.282804 84 96 92
0.199872 -0.068565 2.278805 73 88 81
0.200008 -0.066918 2.280355 67 83 76
0.200378 -0.065345 2.284575 50 66 57
0.199490 -0.063366 2.274449 25 40 31
0.198216 -0.061283 2.259922 6 17 9
0.197702 -0.059450 2.254059 1 7 1
0.198523 -0.058015 2.263416 2 4 2
0.199576 -0.056633 2.275428 1 2 0
0.197725 -0.054433 2.254319 0 1 1
0.197213 -0.052622 2.248484 0 1 3
0.197474 -0.051020 2.251463 0 1 4
0.201463 -0.043520 2.296935 0 0 2
0.199894 -0.041488 2.279055 0 0 0
0.198075 -0.039433 2.258309 0 0 0
0.197145 -0.037578 2.247709 0 0 0
0.197959 -0.034381 2.256987 0 0 0
0.197425 -0.032616 2.250896 0 0 0
0.197429 -0.030945 2.250944 0 0 0
0.197701 -0.029313 2.254047 0 0 0
0.197226 -0.027572 2.248630 0 0 0
0.197444 -0.025931 2.251122 0 0 0
0.204786 -0.011287 2.334832 0 0 0
0.205285 -0.009576 2.340511 0 0 0
0.202131 -0.006005 2.304552 0 0 0
0.202253 -0.002583 2.305942 0 0 0
0.200017 -0.000861 2.280450 0 0 2
0.204235 0.019876 2.328544 0 1 6
0.204568 0.021641 2.332342 0 0 6
0.205135 0.023438 2.338804 0 0 6
0.202515 0.024853 2.308938 0 0 5
0.199999 0.034707 2.280244 0 0 0
0.198274 0.083101 2.260576 0 1 6
0.197116 0.084285 2.247384 0 1 6
0.195757 0.085361 2.231879 0 1 6
0.196822 0.090827 2.244031 0 1 6
0.194948 0.091613 2.222661 0 0 7
0.211285 0.108236 2.408926 0 0 7
0.197269 0.111080 2.249128 0 0 5
0.196335 0.112217 2.238476 0 0 5
0.196108 0.113747 2.235882 0 0 5
0.196002 0.118665 2.234673 0 0 8
0.196822 0.120829 2.244031 0 0 9
0.195188 0.121479 2.225402 0 0 10
0.194731 0.122843 2.220181 0 0 10
0.194881 0.124588 2.221897 0 0 10
0.195276 0.126495 2.226401 0 0 10
0.195628 0.128379 2.230419 0 0 10
0.195962 0.130258 2.234221 0 0 10
0.197702 0.133089 2.254059 0 0 12
0.200397 0.139994 2.284782 1 0 13
0.200773 0.141957 2.289067 1 0 13
0.199536 0.142772 2.274973 1 0 13
0.191538 0.140293 2.183777 1 1 12
0.189520 0.140420 2.160775 1 1 11
0.188218 0.141050 2.145929 1 1 12
0.187922 0.142419 2.142550 0 2 11
0.188740 0.144638 2.151884 0 2 11
0.188857 0.146327 2.153215 0 2 11
0.187333 0.146732 2.135836 0 2 11
0.188943 0.149593 2.154196 0 2 11
0.188933 0.151185 2.154078 0 1 12
0.187001 0.151223 2.132051 0 1 13
0.185774 0.151804 2.118065 0 2 15
0.185688 0.153306 2.117085 0 2 15
0.185557 0.154769 2.115588 0 2 15
0.185236 0.156071 2.111936 0 2 15
0.185349 0.162444 2.113221 0 1 13
0.184913 0.163628 2.108253 1 1 13
0.184461 0.164790 2.103098 1 1 13
0.184246 0.166159 2.100648 1 1 13
0.184801 0.168224 2.106976 1 1 12
0.184361 0.169385 2.101959 1 1 11
0.184396 0.170979 2.102356 1 1 11
0.184451 0.172591 2.102977 1 1 11
0.184291 0.174003 2.101162 0 0 10
0.184034 0.175318 2.098231 0 0 10
0.185216 0.178013 2.111708 0 0 9
0.185012 0.179384 2.109379 0 0 8
0.185304 0.181235 2.112703 0 0 8
0.185220 0.182722 2.111743 0 0 8
0.184883 0.185521 2.107909 0 1 6
0.184480 0.186679 2.103309 0 1 5
0.182501 0.189313 2.080753 0 1 3
0.181424 0.189732 2.068472 0 1 3
0.181277 0.191114 2.066798 0 1 3
0.181417 0.192798 2.068393 0 1 2
0.182722 0.197279 2.083271 0 1 2
0.182453 0.198534 2.080201 0 1 3
0.182267 0.199874 2.078076 0 1 3
0.182029 0.201156 2.075368 0 1 3
0.181928 0.202584 2.074214 0 1 3
0.182846 0.205156 2.084687 0 1 3
0.185125 0.210847 2.110663 0 1 3
0.185237 0.212544 2.111941 0 1 3
0.185275 0.214156 2.112372 0 1 3
0.185258 0.215706 2.112180 1 1 3
0.185186 0.217190 2.111356 1 1 3
0.184738 0.218229 2.106253 1 1 3
0.184987 0.220089 2.109087 1 1 3
0.184547 0.221130 2.104080 1 1 3
0.184319 0.222417 2.101479 1 1 3
0.184536 0.224241 2.103945 1 1 3
0.184663 0.225959 2.105396 0 1 2
0.185098 0.229627 2.110356 0 1 3
0.186864 0.233401 2.130496 0 1 3
0.185737 0.238284 2.117637 0 1 5
0.186012 0.241787 2.120774 0 1 5
0.185510 0.242706 2.115050 0 1 5
0.185210 0.243882 2.111635 0 1 6
0.213486 -0.305676 2.413578 44 66 90
0.208975 -0.293952 2.362577 37 59 83
0.209933 -0.293537 2.373415 33 55 79
0.210859 -0.293061 2.383881 30 50 75
0.209238 -0.289051 2.365554 27 47 72
0.208656 -0.286495 2.358975 23 42 67
0.208561 -0.284612 2.357894 20 38 62
0.210257 -0.285161 2.377068 8 24 47
0.210102 -0.279659 2.375325 7 23 38
0.210701 -0.278687 2.382097 9 25 39
0.207499 -0.270966 2.345891 5 22 32
0.207181 -0.268812 2.342302 6 23 33
0.207354 -0.267295 2.344254 3 19 32
0.207584 -0.265849 2.346858 2 18 31
0.208338 -0.265064 2.355380 2 16 29
0.208919 -0.264048 2.361941 0 12 25
0.208889 -0.262256 2.361603 0 10 20
0.208913 -0.260533 2.361881 0 7 15
0.208253 -0.257961 2.354418 0 5 12
0.207272 -0.255005 2.343323 0 3 10
0.211229 -0.258100 2.388063 0 3 9
0.208702 -0.249754 2.359493 0 2 9
0.209219 -0.248616 2.365342 0 2 9
0.208268 -0.245737 2.354588 0 2 9
0.207620 -0.243229 2.347258 0 1 10
0.206330 -0.239985 2.332676 1 1 11
0.206794 -0.238788 2.337924 0 2 11
0.207933 -0.229627 2.350803 20 27 39
0.209207 -0.227520 2.365203 78 86 95
0.207499 -0.223920 2.345891 89 98 104
0.206169 -0.220753 2.330851 94 103 107
0.206372 -0.219238 2.333155 95 105 106
0.205612 -0.216704 2.324563 94 104 106
0.205510 -0.214871 2.323407 96 107 109
0.205798 -0.213444 2.326660 101 111 114
0.204808 -0.210697 2.315471 102 111 117
0.205375 -0.209555 2.321875 100 107 115
0.204385 -0.206829 2.310682 85 90 100
0.204286 -0.205013 2.309564 44 47 63
0.204586 -0.203596 2.312956 9 10 33
0.204688 -0.201980 2.314115 2 3 30
0.206788 -0.202315 2.337857 21 23 50
0.205356 -0.199189 2.321660 62 64 87
0.205317 -0.197428 2.321224 87 90 108
0.206034 -0.196387 2.329328 95 98 112
0.206213 -0.194826 2.331351 91 95 107
0.205386 -0.192320 2.322004 90 94 106
0.205549 -0.189021 2.323850 97 101 113
0.205505 -0.187254 2.323353 104 108 119
0.205016 -0.185087 2.317818 110 114 125
0.202514 -0.181127 2.289531 113 117 128
0.201959 -0.178935 2.283261 113 118 129
0.201043 -0.176435 2.272897 111 118 128
0.201777 -0.175385 2.281205 114 120 130
0.200867 -0.172908 2.270917 112 116 124
0.200227 -0.170675 2.263680 111 115 121
0.201017 -0.169661 2.272611 101 103 108
0.200812 -0.167801 2.270295 69 70 74
0.200411 -0.162417 2.265753 96 92 98
0.200229 -0.160589 2.263705 111 106 113
0.199583 -0.158394 2.256395 116 111 118
0.199840 -0.156920 2.259306 107 102 108
0.200300 -0.155599 2.264504 96 93 99
0.201425 -0.154782 2.277221 94 91 98
0.202036 -0.153555 2.284127 94 89 96
0.202360 -0.152102 2.287790 90 85 93
0.202588 -0.150572 2.290375 94 87 97
0.201652 -0.148183 2.279785 101 94 104
0.201765 -0.146572 2.281068 113 107 119
0.201709 -0.144837 2.280437 123 118 130
0.201908 -0.143285 2.282685 123 121 132
0.201812 -0.141522 2.281600 119 118 129
0.201629 -0.139700 2.279524 120 120 132
0.201453 -0.137886 2.277534 122 125 137
0.201640 -0.136321 2.279651 122 131 140
0.200068 -0.133579 2.261884 119 131 139
0.201820 -0.133053 2.281686 121 131 137
0.199890 -0.130102 2.259863 125 132 139
0.198989 -0.127845 2.249681 125 129 135
0.199391 -0.126429 2.254230 112 115 120
0.200005 -0.125139 2.261173 91 92 96
0.200428 -0.123720 2.265953 70 72 71
0.200102 -0.121839 2.262262 45 45 43
0.200723 -0.120531 2.269283 37 38 33
0.201523 -0.119319 2.278325 33 35 32
0.199722 -0.116576 2.257965 52 54 53
0.199046 -0.114510 2.250328 81 81 83
0.199934 -0.113342 2.260364 87 86 92
0.200596 -0.112032 2.267845 85 83 92
0.199910 -0.109971 2.260092 91 90 98
0.199964 -0.108321 2.260709 108 110 111
0.200039 -0.106682 2.261557 108 112 111
0.199871 -0.104914 2.259658 110 114 113
0.199937 -0.103270 2.260401 111 115 114
0.199189 -0.101211 2.251943 111 115 116
0.198659 -0.099273 2.245951 110 114 115
0.198896 -0.097721 2.248630 110 114 117
0.199077 -0.096139 2.250678 109 113 116
0.199899 -0.094857 2.259975 114 117 122
0.200004 -0.093227 2.261160 115 118 123
0.199539 -0.091335 2.255900 117 120 125
0.199267 -0.089537 2.252820 119 122 127
0.198889 -0.087697 2.248556 120 124 127
0.198527 -0.085870 2.244458 120 124 126
0.197602 -0.083811 2.233998 119 123 123
0.198368 -0.082470 2.242666 117 122 121
0.199230 -0.081155 2.252409 116 122 122
0.199466 -0.079577 2.255080 111 120 119
0.199329 -0.077848 2.253524 110 116 116
0.199574 -0.076268 2.256297 110 116 116
0.199727 -0.074649 2.258027 111 115 116
0.200968 -0.073425 2.272053 105 111 111
0.200506 -0.071573 2.266832 95 104 103
0.200867 -0.070015 2.270917 86 96 95
0.201247 -0.068457 2.275212 70 82 78
0.201495 -0.066850 2.278013 65 80 73
0.201295 -0.065093 2.275750 49 64 57
0.200408 -0.063123 2.265723 23 36 29
0.200387 -0.059751 2.265489 0 5 1
0.200433 -0.058082 2.266010 2 4 1
0.200689 -0.056470 2.268898 2 2 2
0.199907 -0.054572 2.260065 0 1 2
0.198575 -0.052541 2.244998 0 1 3
0.198803 -0.050932 2.247579 0 1 5
0.202940 -0.043470 2.294346 0 0 2
0.201611 -0.041493 2.279328 0 0 0
0.199563 -0.039396 2.256173 0 0 0
0.199924 -0.034430 2.260249 0 0 0
0.199031 -0.032605 2.250156 0 0 0
0.198737 -0.030888 2.246835 0 0 0
0.197511 -0.027380 2.232976 0 0 0
0.203023 -0.024735 2.295292 0 0 0
0.205769 -0.011246 2.326333 0 0 0
0.205523 -0.009507 2.323557 0 0 0
0.205722 -0.007788 2.325803 0 0 0
0.205543 -0.004329 2.323774 0 0 0
0.200646 -0.000856 2.268413 0 0 2
0.206361 0.019914 2.333020 0 1 6
0.206618 0.021674 2.335927 0 0 6
0.206969 0.023449 2.339895 0 0 7
0.208545 0.051647 2.357714 0 1 5
0.194332 0.066078 2.197034 0 1 5
0.194077 0.067621 2.194150 0 1 5
0.196418 0.070086 2.220609 0 1 6
0.208370 0.079600 2.355735 0 1 6
0.197925 0.082258 2.237649 0 1 6
0.196495 0.083314 2.221488 0 1 6
0.195219 0.086051 2.207058 0 1 6
0.196758 0.090034 2.224459 0 1 6
0.195067 0.090899 2.205342 0 1 6
0.206746 0.099813 2.337373 0 1 6
0.208318 0.102321 2.355150 0 1 6
0.209160 0.104491 2.364666 0 1 6
0.211693 0.107535 2.393311 0 1 6
0.213183 0.110082 2.410151 0 1 6
0.197374 0.111863 2.231423 0 0 5
0.196930 0.114919 2.226401 0 0 6
0.196675 0.118073 2.223526 0 0 6
0.197276 0.120090 2.230315 0 0 7
0.196486 0.121259 2.221378 0 0 8
0.195497 0.122291 2.210205 0 0 8
0.196096 0.124312 2.216976 0 0 8
0.196357 0.126127 2.219926 0 0 8
0.196309 0.127744 2.219380 0 0 8
0.197262 0.130021 2.230153 0 0 8
0.200095 0.140289 2.262181 0 0 11
0.199787 0.141752 2.258706 0 0 11
0.192126 0.139542 2.172090 0 0 10
0.190502 0.139963 2.153737 0 0 10
0.190051 0.141228 2.148636 0 0 9
0.189818 0.142648 2.145998 0 0 9
0.190203 0.144534 2.150346 0 1 9
0.189705 0.145749 2.144722 0 1 9
0.190717 0.149730 2.156167 0 1 9
0.190636 0.151267 2.155251 0 1 9
0.187835 0.150622 2.123582 0 2 12
0.187216 0.151697 2.116576 0 3 14
0.188276 0.155719 2.128568 0 3 14
0.188468 0.163790 2.130733 0 2 13
0.186745 0.163862 2.111261 0 1 13
0.185802 0.164595 2.100599 0 1 13
0.185518 0.165901 2.097387 0 1 13
0.185810 0.167722 2.100683 0 1 13
0.186103 0.169549 2.103995 1 1 12
0.185942 0.170964 2.102175 1 1 11
0.185254 0.171887 2.094398 1 1 11
0.184833 0.173049 2.089646 0 0 12
0.184841 0.174608 2.089731 0 0 11
0.186404 0.177650 2.107398 0 0 11
0.186836 0.179630 2.112283 0 0 9
0.187177 0.181531 2.116142 0 0 9
0.186701 0.182637 2.110765 0 0 9
0.187339 0.184834 2.117973 0 0 9
0.186698 0.185769 2.110726 0 0 7
0.185361 0.185995 2.095610 0 0 7
0.185623 0.187817 2.098574 0 1 5
0.184303 0.188029 2.083650 0 0 4
0.181670 0.188394 2.053877 0 0 3
0.181279 0.189510 2.049457 0 0 3
0.181043 0.190785 2.046796 0 0 2
0.184082 0.198624 2.081146 0 0 2
0.183765 0.199825 2.077564 0 0 2
0.183489 0.202607 2.074446 0 1 3
0.186732 0.210892 2.111107 0 1 3
0.186557 0.212261 2.109133 0 1 3
0.186336 0.213575 2.106636 0 0 3
0.186244 0.215033 2.105598 0 0 3
0.186796 0.217239 2.111838 0 0 3
0.186251 0.218169 2.105672 0 0 3
0.186382 0.219887 2.107152 0 0 3
0.186110 0.221130 2.104080 0 0 3
0.185923 0.222468 2.101959 0 0 2
0.185800 0.223882 2.100573 0 0 2
0.185948 0.225621 2.102242 0 1 1
0.186824 0.228253 2.112150 0 1 1
0.187081 0.230138 2.115050 0 1 1
0.187776 0.232570 2.122913 0 1 1
0.187871 0.234265 2.123984 0 1 2
0.186940 0.237813 2.113457 0 1 5
0.186985 0.241011 2.113968 0 1 5
0.186859 0.242418 2.112540 0 1 5
0.186136 0.243043 2.104371 0 1 6
0.214429 -0.304469 2.404050 42 62 87
0.210473 -0.295346 2.359696 35 55 80
0.210900 -0.294190 2.364488 35 55 80
0.211913 -0.293837 2.375838 34 54 78
0.212103 -0.292335 2.377975 31 51 75
0.212482 -0.291089 2.382228 25 45 69
0.210630 -0.283289 2.361461 7 23 45
0.212010 -0.283379 2.376932 3 18 39
0.212068 -0.279925 2.377581 6 22 38
0.212727 -0.279023 2.384969 9 25 40
0.212126 -0.276469 2.378237 7 23 36
0.211729 -0.274188 2.373779 5 22 32
0.208904 -0.268790 2.342106 5 22 32
0.209303 -0.267561 2.346586 3 19 32
0.209828 -0.266484 2.352467 2 18 31
0.210523 -0.265614 2.360263 2 16 27
0.212229 -0.265999 2.379387 0 12 24
0.212081 -0.264047 2.377727 0 10 20
0.212634 -0.262964 2.383922 0 6 16
0.212325 -0.260814 2.380461 0 4 13
0.211161 -0.257627 2.367417 0 3 10
0.212528 -0.257524 2.382734 0 3 9
0.212167 -0.255320 2.378695 0 3 9
0.212719 -0.254213 2.384885 0 2 9
0.213091 -0.252883 2.389052 0 2 9
0.211874 -0.249674 2.375407 0 2 9
0.211183 -0.247101 2.367659 0 2 9
0.210296 -0.244312 2.357714 0 1 9
0.212564 -0.234557 2.383146 4 9 20
0.210544 -0.228820 2.360490 55 63 74
0.211870 -0.228497 2.375357 80 89 98
0.210595 -0.225368 2.361065 93 102 108
0.210860 -0.223896 2.364033 95 105 108
0.207807 -0.218924 2.329808 95 105 107
0.207778 -0.217163 2.329480 95 105 108
0.206791 -0.214410 2.318420 98 109 113
0.207304 -0.213215 2.324169 103 113 118
0.206399 -0.210566 2.314029 103 112 119
0.207852 -0.210317 2.330309 101 107 115
0.207755 -0.208489 2.329226 82 86 96
0.206174 -0.205185 2.311501 36 39 54
0.205982 -0.203279 2.309353 3 4 26
0.205487 -0.201080 2.303803 3 3 30
0.208377 -0.202172 2.336201 24 26 53
0.207431 -0.199527 2.325594 63 66 89
0.207822 -0.198172 2.329979 89 92 109
0.207914 -0.196528 2.331004 97 101 115
0.207556 -0.194461 2.326992 91 95 107
0.206651 -0.191892 2.316844 90 94 106
0.207564 -0.191013 2.327089 93 97 109
0.206935 -0.188710 2.320036 98 102 114
0.206345 -0.186454 2.313416 105 109 120
0.206850 -0.185187 2.319077 111 115 126
0.205332 -0.182119 2.302064 115 119 130
0.204144 -0.179365 2.288741 114 119 130
0.203182 -0.176828 2.277954 111 118 128
0.202959 -0.174943 2.275452 113 119 129
0.203021 -0.173306 2.276154 112 116 125
0.203077 -0.171663 2.276778 116 119 127
0.202711 -0.169665 2.272672 109 110 116
0.204176 -0.167491 2.289099 52 51 56
0.203490 -0.165234 2.281415 64 61 68
0.201544 -0.161976 2.259596 94 89 98
0.202405 -0.160982 2.269251 110 105 115
0.202711 -0.159537 2.272672 116 112 121
0.204060 -0.157200 2.287804 99 96 105
0.203772 -0.155282 2.284575 99 96 105
0.204008 -0.153762 2.287216 101 97 106
0.204656 -0.152547 2.294487 101 95 106
0.204757 -0.150917 2.295620 103 97 108
0.203720 -0.148456 2.283985 107 101 113
0.203837 -0.146843 2.285298 116 111 123
0.204087 -0.145324 2.288102 124 121 132
0.203961 -0.143536 2.286687 124 122 133
0.203548 -0.141550 2.282063 120 120 131
0.203428 -0.139772 2.280709 121 121 132
0.203917 -0.138411 2.286196 122 126 137
0.203488 -0.136425 2.281388 121 131 140
0.203735 -0.134894 2.284162 119 130 139
0.203304 -0.132916 2.279328 119 129 135
0.203215 -0.131165 2.278325 123 130 138
0.202718 -0.129156 2.272756 128 133 139
0.201807 -0.126895 2.262539 121 124 129
0.202290 -0.125514 2.267953 99 100 104
0.202129 -0.123731 2.266155 75 77 76
0.202793 -0.122449 2.273591 51 51 49
0.202846 -0.120792 2.274190 40 41 37
0.203422 -0.119441 2.280653 31 33 31
0.202211 -0.117045 2.267065 47 49 48
0.202181 -0.115345 2.266731 78 78 81
0.202524 -0.113854 2.270579 93 92 99
0.201950 -0.111850 2.264149 95 94 102
0.202186 -0.110296 2.266790 101 100 107
0.201662 -0.108331 2.260913 112 113 115
0.201205 -0.106410 2.255796 112 116 115
0.202117 -0.105210 2.266021 114 118 117
0.200926 -0.102916 2.252659 116 120 119
0.201111 -0.101336 2.254736 116 120 120
0.200645 -0.099430 2.249509 114 118 119
0.200186 -0.097536 2.244372 112 116 119
0.200718 -0.096124 2.250336 111 115 118
0.202198 -0.095149 2.266927 115 118 123
0.201797 -0.093280 2.262432 117 120 125
0.201198 -0.091327 2.255708 119 122 127
0.200926 -0.089531 2.252669 121 124 128
0.200500 -0.087671 2.247891 121 125 128
0.199595 -0.085613 2.237741 121 125 125
0.199374 -0.083858 2.235269 119 124 123
0.199268 -0.082154 2.234074 118 123 122
0.200927 -0.081165 2.252677 115 123 120
0.201198 -0.079599 2.255718 113 121 120
0.200868 -0.077796 2.252009 112 118 118
0.200977 -0.076164 2.253239 112 117 117
0.202415 -0.075023 2.269354 111 115 116
0.201982 -0.073181 2.264504 105 111 111
0.201703 -0.071400 2.261376 95 104 103
0.203515 -0.070347 2.281686 87 98 94
0.202348 -0.068259 2.268604 66 78 74
0.201792 -0.066391 2.262375 61 76 69
0.201823 -0.064720 2.262721 45 60 53
