ply
format ascii 1.0
element vertex 1367
property float x
property float y
property float z
property uchar red
property uchar green
property uchar blue
end_header
0.369395 0.199787 2.269999 140 157 139
0.371184 0.202449 2.280994 142 159 141
0.373638 0.207199 2.296078 144 158 141
0.372460 0.208245 2.288837 144 158 140
0.370488 0.208834 2.276720 144 157 140
0.369583 0.215071 2.271155 140 155 135
0.353718 0.215526 2.173660 145 167 141
0.354016 0.217324 2.175495 140 162 137
0.357753 0.224517 2.198460 147 162 143
0.309268 0.206794 1.900510 147 162 137
0.308288 0.207545 1.894486 157 170 146
0.308308 0.208966 1.894608 170 183 159
0.308114 0.210241 1.893417 180 192 168
0.308577 0.211965 1.896260 176 188 167
0.307782 0.212824 1.891380 164 178 157
0.306672 0.213456 1.884553 151 164 144
0.307431 0.215388 1.889222 131 144 126
0.308364 0.217449 1.894952 114 127 109
0.308696 0.219092 1.896992 90 103 86
0.435894 -0.082210 2.666478 42 41 56
0.339113 -0.054712 2.074446 1 1 14
0.390006 -0.048747 2.385772 44 42 51
0.391707 -0.047180 2.396176 8 7 18
0.390445 -0.045254 2.388453 42 39 51
0.389073 -0.043327 2.380065 117 112 122
0.351898 -0.029593 2.152654 181 175 167
0.337710 -0.002314 2.065859 0 3 10
0.337921 -0.000780 2.067153 0 3 10
0.337418 0.000754 2.064074 0 4 10
0.337674 0.002289 2.065641 0 4 10
0.338103 0.003828 2.068264 0 4 10
0.337152 0.005349 2.062445 0 4 10
0.336965 0.006877 2.061304 0 4 10
0.336731 0.008402 2.059873 0 4 9
0.337663 0.009960 2.065572 0 4 8
0.340484 0.011590 2.082828 0 3 8
0.339504 0.013099 2.076834 0 3 8
0.341809 0.014741 2.090939 0 3 7
0.340553 0.016235 2.083250 0 4 7
0.339906 0.017748 2.079296 0 4 7
0.340965 0.019353 2.085775 0 4 7
0.337238 0.020673 2.062972 0 3 7
0.335574 0.022096 2.052795 1 2 7
0.334404 0.023539 2.045635 1 2 7
0.331694 0.024855 2.029062 1 2 7
0.329998 0.026227 2.018688 1 2 7
0.329586 0.027692 2.016165 1 2 7
0.329452 0.029178 2.015345 0 2 7
0.329619 0.030690 2.016368 0 2 7
0.328537 0.033575 2.009748 0 2 9
0.327964 0.035007 2.006242 0 2 9
0.328904 0.036601 2.011990 0 2 9
0.327508 0.037934 2.003452 0 2 9
0.327667 0.039442 2.004424 0 2 9
0.328402 0.041022 2.008924 0 2 9
0.340965 0.078224 2.085775 1 1 12
0.330377 0.080299 2.021004 0 2 11
0.329934 0.081690 2.018291 0 3 12
0.326401 0.082298 1.996682 1 4 13
0.325234 0.084960 1.989543 1 4 11
0.324282 0.086184 1.983717 1 4 11
0.323012 0.087314 1.975948 1 4 11
0.322502 0.088642 1.972831 0 4 11
0.323231 0.090311 1.977292 0 5 11
0.324309 0.092086 1.983884 0 5 11
0.324849 0.093715 1.987186 0 5 11
0.327139 0.097349 2.001194 0 5 11
0.325025 0.099673 1.988266 0 5 11
0.324674 0.101041 1.986118 0 5 11
0.330127 0.110238 2.019472 1 6 12
0.344543 0.118183 2.107658 1 6 12
0.342590 0.119069 2.095712 1 6 12
0.341469 0.121783 2.088856 0 6 10
0.320614 0.120172 1.961278 0 7 9
0.321292 0.121886 1.965427 0 7 9
0.318619 0.122320 1.949079 0 7 9
0.319429 0.124082 1.954030 0 7 10
0.318306 0.125092 1.947161 0 7 10
0.314341 0.124962 1.922907 0 7 13
0.320044 0.128683 1.957791 0 7 13
0.319876 0.130070 1.956768 0 7 13
0.321378 0.135061 1.965953 0 7 15
0.317808 0.139337 1.944118 1 6 12
0.323937 0.146439 1.981606 1 5 13
0.323950 0.149390 1.981690 1 5 12
0.327274 0.156871 2.002023 0 8 9
0.327050 0.158249 2.000654 0 5 14
0.375383 0.188458 2.296315 70 83 72
0.376323 0.190640 2.302064 90 105 89
0.373558 0.190937 2.285154 111 128 110
0.373591 0.192651 2.285354 141 158 139
0.372842 0.193959 2.280775 148 165 146
0.373558 0.196029 2.285154 141 158 139
0.373174 0.197523 2.282804 139 156 137
0.375789 0.202322 2.298799 143 157 140
0.376244 0.205986 2.301583 144 159 143
0.377205 0.208226 2.307461 144 158 143
0.375425 0.208950 2.296577 144 157 142
0.330548 0.198991 2.022049 150 174 145
0.353350 0.215929 2.161535 142 163 135
0.315664 0.202940 1.930999 136 143 124
0.315458 0.204241 1.929741 140 149 128
0.315331 0.205591 1.928962 151 161 140
0.314936 0.206765 1.926546 162 174 152
0.314725 0.208056 1.925257 169 183 161
0.309623 0.210311 1.894048 166 179 161
0.309044 0.211322 1.890503 127 139 121
0.308886 0.212617 1.889535 87 98 81
0.308753 0.213929 1.888726 55 66 51
0.308471 0.215135 1.887000 27 37 26
0.310223 0.217766 1.897718 25 35 23
0.310103 0.219091 1.896981 17 27 16
0.339522 -0.054531 2.067553 37 36 49
0.381382 -0.057804 2.322461 159 159 164
0.353244 -0.029572 2.151114 181 177 169
0.452547 -0.025604 2.755826 1 3 8
0.338963 -0.002313 2.064149 0 3 10
0.339388 -0.000780 2.066735 0 3 10
0.338564 0.000753 2.061719 0 4 10
0.339029 0.002287 2.064548 0 4 10
0.338871 0.003819 2.063586 0 4 10
0.338320 0.005343 2.060234 0 4 10
0.338356 0.006874 2.060453 0 4 10
0.338109 0.008399 2.058945 0 3 9
0.343269 0.013185 2.090369 0 3 8
0.341341 0.017743 2.078629 0 4 7
0.341225 0.019280 2.077924 0 4 7
0.337806 0.020615 2.057102 0 3 7
0.335496 0.021991 2.043034 1 2 7
0.334285 0.023424 2.035662 1 2 7
0.332437 0.024798 2.024405 1 2 7
0.331544 0.026231 2.018969 1 2 7
0.329543 0.029054 2.006784 1 2 7
0.328566 0.030454 2.000834 1 2 7
0.328333 0.031917 1.999416 0 2 7
0.327629 0.033331 1.995130 0 2 9
0.326517 0.034695 1.988356 0 2 9
0.339664 0.079110 2.068416 1 1 11
0.332661 0.080488 2.025769 0 2 11
0.329479 0.081208 2.006396 0 2 11
0.323915 0.081302 1.972513 0 3 12
0.323810 0.082740 1.971869 0 3 10
0.324251 0.084320 1.974558 0 3 10
0.323111 0.086946 1.967617 0 3 10
0.322761 0.088312 1.965484 0 3 10
0.324177 0.090166 1.974106 0 3 10
0.324348 0.091680 1.975148 0 4 10
0.326935 0.096848 1.990899 0 5 11
0.343060 0.118694 2.089098 1 6 12
0.343493 0.121951 2.091732 0 6 11
0.321786 0.120066 1.959547 0 7 9
0.322289 0.121711 1.962609 0 7 9
0.321378 0.122821 1.957062 0 7 9
0.320557 0.123957 1.952060 0 7 10
0.319411 0.124959 1.945085 0 6 10
0.315322 0.124785 1.920186 0 6 12
0.321089 0.128520 1.955300 0 7 13
0.321808 0.130263 1.959680 0 7 13
0.319358 0.132161 1.944763 0 7 15
0.320662 0.134151 1.952703 0 7 15
0.316370 0.136648 1.926563 0 6 12
0.316916 0.138317 1.929890 1 6 12
0.323402 0.145536 1.969386 1 5 13
0.327226 0.157618 1.992675 0 5 12
0.374280 0.185362 2.279216 40 51 50
0.376304 0.188066 2.291538 78 92 80
0.376000 0.189615 2.289687 101 117 100
0.374062 0.190329 2.277884 123 140 121
0.374069 0.192025 2.277928 144 161 142
0.374065 0.193715 2.277905 147 164 145
0.374901 0.195844 2.282993 140 157 138
0.374889 0.197533 2.282923 138 155 136
0.375514 0.199561 2.286730 141 157 138
0.374213 0.200562 2.278805 144 158 141
0.375463 0.202930 2.286417 145 159 143
0.378064 0.206046 2.302253 145 159 144
0.376482 0.206887 2.292620 145 158 143
0.373579 0.206981 2.274944 145 157 142
0.372867 0.208274 2.270611 144 157 142
0.317672 0.203307 1.934491 159 165 148
0.317611 0.204704 1.934120 168 176 156
0.316566 0.205463 1.927760 172 181 161
0.316677 0.206967 1.928431 175 186 166
0.310760 0.207317 1.892401 91 104 87
0.310947 0.208848 1.893539 61 74 57
0.310517 0.209964 1.890920 42 55 38
0.310783 0.211550 1.892542 28 40 25
0.310574 0.212812 1.891267 16 26 13
0.309912 0.213760 1.887239 7 16 7
0.310051 0.215259 1.888087 0 7 0
0.311524 0.217690 1.897053 0 7 0
0.311666 0.219199 1.897918 0 6 0
0.380597 -0.059139 2.307245 168 166 175
0.341149 0.000755 2.068105 0 3 10
0.341817 0.002296 2.072155 0 3 10
0.341277 0.003829 2.068880 0 3 10
0.340509 0.005354 2.064223 0 3 10
0.341557 0.006908 2.070578 0 3 10
0.341383 0.008442 2.069525 0 3 10
0.345452 0.016320 2.094190 0 4 8
0.343071 0.017752 2.079755 0 4 8
0.333275 0.024749 2.020372 1 1 7
0.327694 0.028761 1.986537 1 2 7
0.326584 0.031604 1.979808 0 2 7
0.325442 0.032959 1.972883 0 2 9
0.324502 0.034325 1.967191 0 2 9
0.344522 0.078328 2.088554 1 1 10
0.341704 0.079226 2.071469 1 1 11
0.337034 0.079661 2.043161 0 1 11
0.333828 0.080407 2.023724 0 2 11
0.324652 0.081120 1.968097 0 3 12
0.324555 0.082557 1.967512 0 3 10
0.325078 0.084154 1.970677 0 3 10
0.324865 0.085562 1.969386 0 3 10
0.325032 0.089996 1.970400 0 3 10
0.325397 0.091563 1.972616 0 4 10
0.324758 0.092845 1.968741 0 5 11
0.326791 0.096369 1.981063 0 5 11
0.344162 0.110790 2.086369 1 6 12
0.345604 0.112810 2.095111 1 6 12
0.345393 0.117407 2.093835 1 6 12
0.344373 0.118611 2.087647 1 6 12
0.345384 0.122070 2.093780 0 6 11
0.323497 0.121618 1.961096 0 7 10
0.321032 0.122136 1.946149 0 7 10
0.319544 0.123009 1.937134 0 7 10
0.318008 0.123850 1.927820 0 6 10
0.316298 0.124608 1.917453 0 6 12
0.318683 0.126982 1.931910 0 6 12
0.319597 0.128786 1.937454 0 6 12
0.318699 0.129859 1.932008 0 6 12
0.318547 0.131231 1.931085 0 6 14
0.316576 0.136121 1.919141 0 6 12
0.378662 0.183278 2.295517 0 6 15
0.376857 0.184101 2.284575 15 24 32
0.376601 0.185671 2.283019 50 61 60
0.377994 0.188060 2.291466 85 99 87
0.376410 0.188967 2.281862 113 128 112
0.375423 0.190162 2.275882 135 152 133
0.375804 0.192047 2.278192 148 165 146
0.375704 0.193688 2.277586 145 162 143
0.376381 0.195731 2.281686 139 156 137
0.376872 0.197684 2.284666 138 155 136
0.376220 0.199036 2.280709 141 157 138
0.375944 0.200583 2.279036 144 158 141
0.376795 0.202733 2.284194 146 160 143
0.378116 0.205146 2.292202 145 159 144
0.376184 0.205792 2.280493 145 158 143
0.374197 0.206390 2.268446 145 157 142
0.375567 0.208837 2.276750 144 157 140
0.352085 0.217975 2.134399 150 159 140
0.319532 0.203577 1.937059 163 167 152
0.317421 0.205090 1.924262 163 172 153
0.312866 0.207782 1.896647 29 40 25
0.311611 0.208352 1.889039 9 19 7
0.311777 0.209866 1.890045 4 12 3
0.312433 0.211715 1.894025 2 11 1
0.311756 0.212660 1.889922 0 8 0
0.311239 0.213709 1.886782 0 6 0
0.311555 0.215329 1.888702 0 6 0
0.312058 0.217081 1.891749 0 6 0
0.311924 0.218393 1.890939 0 6 0
0.525170 -0.085945 3.169402 126 122 137
0.356480 -0.032771 2.151355 175 179 169
0.345923 0.002313 2.087647 0 3 10
0.345532 0.008506 2.085287 0 3 10
0.324846 0.031295 1.960448 0 2 7
0.324608 0.032727 1.959008 0 2 9
0.323599 0.034076 1.952920 0 2 9
0.323243 0.035488 1.950770 0 2 9
0.322757 0.036881 1.947837 0 2 9
9.160227 1.210981 55.281963 0 2 9
3.667592 0.583498 22.133915 1 2 6
3.662680 0.599135 22.104273 1 2 6
0.344936 0.078071 2.081686 1 1 9
0.341381 0.078797 2.060234 1 1 9
0.325168 0.080885 1.962389 0 2 9
0.325416 0.082405 1.963887 0 2 9
0.325610 0.083914 1.965057 0 2 9
0.325759 0.085412 1.965953 0 2 9
0.326064 0.089877 1.967798 0 2 9
0.325901 0.091293 1.966810 0 3 10
0.325002 0.092498 1.961387 0 4 11
0.345923 0.117060 2.087647 1 6 12
0.345401 0.118432 2.084496 1 6 12
0.346284 0.120287 2.089823 1 6 12
0.346359 0.121866 2.090274 0 6 11
0.321820 0.120445 1.942186 0 6 10
0.321141 0.121630 1.938086 0 6 10
0.317794 0.123212 1.917889 0 6 10
0.316764 0.124232 1.911672 0 6 12
0.318666 0.126406 1.923146 0 6 12
0.379756 0.182983 2.291830 3 10 18
0.378849 0.184244 2.286356 24 34 39
0.377717 0.185387 2.279524 60 72 69
0.378794 0.187614 2.286022 92 105 94
0.378650 0.189240 2.285154 122 137 121
0.376577 0.189892 2.272644 144 161 143
0.377837 0.192220 2.280244 149 166 147
0.377909 0.193951 2.280680 143 160 141
0.378699 0.196054 2.285449 138 155 136
0.377951 0.197361 2.280934 139 156 137
0.378524 0.199357 2.284394 141 157 139
0.378041 0.200797 2.281475 144 158 141
0.378124 0.202537 2.281980 146 160 144
0.376765 0.203498 2.273779 145 159 144
0.377462 0.205566 2.277982 145 158 143
0.377122 0.207071 2.275930 145 157 141
0.374767 0.207458 2.261717 144 157 140
0.374659 0.209078 2.261066 143 156 138
0.375635 0.214674 2.266960 142 156 133
0.353965 0.207050 2.136181 142 160 136
0.336343 0.199757 2.029831 143 164 138
0.321785 0.201208 1.941972 158 160 147
0.321682 0.202585 1.941349 150 154 140
0.320643 0.203369 1.935079 141 145 131
0.321429 0.205308 1.939821 118 123 108
0.318348 0.204767 1.921231 87 95 79
0.318055 0.206005 1.919464 36 46 32
0.314270 0.209188 1.896617 0 8 0
0.313299 0.209946 1.890758 0 8 0
0.313337 0.211376 1.890986 0 8 0
0.312786 0.212407 1.887666 0 8 0
0.312869 0.213865 1.888165 0 7 1
0.311968 0.214647 1.882725 0 5 0
0.313363 0.217012 1.891145 0 5 0
0.313483 0.218501 1.891873 0 5 0
0.355866 -0.030981 2.138070 172 176 165
0.346872 0.003857 2.084031 0 4 10
0.347621 0.005417 2.088529 0 3 10
0.352000 0.013339 2.114838 1 5 11
0.354119 0.016580 2.127568 1 5 12
0.338048 0.027896 2.031014 1 2 7
0.337272 0.029337 2.026354 1 2 7
0.324053 0.032526 1.946933 0 2 9
0.323453 0.033909 1.943330 0 2 9
0.337007 0.039842 2.024758 0 2 9
0.343696 0.077443 2.064950 1 1 9
0.327529 0.089878 1.967817 0 2 9
0.326952 0.091179 1.964347 0 3 10
0.326014 0.092372 1.958712 1 4 11
0.326355 0.093925 1.960764 0 4 11
0.340851 0.107224 2.047858 0 5 11
0.342769 0.109357 2.059379 1 6 12
0.340931 0.111813 2.048339 1 6 12
0.342769 0.113946 2.059379 1 6 12
0.344805 0.117700 2.071614 1 6 12
0.326507 0.120197 1.961678 0 6 12
0.317762 0.124068 1.909138 0 6 12
0.382147 0.183313 2.295965 7 16 22
0.380195 0.184074 2.284235 34 45 48
0.381507 0.188114 2.292121 98 112 100
0.382187 0.190155 2.296205 128 144 127
0.378390 0.189954 2.273393 150 167 148
0.380032 0.192475 2.283261 149 166 147
0.380381 0.194349 2.285354 141 158 139
0.380501 0.196108 2.286077 138 155 136
0.380302 0.197703 2.284879 141 158 139
0.383824 0.201246 2.306040 142 158 140
0.381798 0.201888 2.293869 144 158 141
0.380426 0.202860 2.285627 145 159 143
0.380277 0.204478 2.284731 145 159 143
0.383107 0.207709 2.301730 145 158 142
0.378260 0.206769 2.272611 145 158 140
0.376012 0.207218 2.259106 144 157 139
0.375831 0.208796 2.258020 143 156 137
0.374221 0.211241 2.248343 142 156 132
0.378097 0.216804 2.271632 141 156 134
0.339912 0.199459 2.042215 146 164 140
0.336187 0.198773 2.019834 146 166 141
0.322562 0.203673 1.937974 87 90 79
0.315549 0.207694 1.895841 0 5 0
0.315696 0.209199 1.896720 0 5 0
0.314093 0.209539 1.887093 0 5 0
0.312683 0.209993 1.878618 0 5 0
0.314058 0.212319 1.886885 0 5 0
0.315879 0.217778 1.897823 0 4 0
0.315767 0.219110 1.897148 0 4 0
0.357179 -0.030957 2.136420 120 124 113
0.357312 -0.029381 2.137216 168 170 160
0.349083 0.002313 2.087998 0 5 11
0.347938 0.005398 2.081146 0 4 10
0.348662 0.006958 2.085476 0 4 10
0.348823 0.008511 2.086440 0 4 10
0.352522 0.011733 2.108569 1 6 12
0.353120 0.014891 2.112141 1 5 13
0.338569 0.027815 2.025110 1 2 7
0.338715 0.029332 2.025979 1 2 7
0.345114 0.066684 2.064255 1 2 7
0.346269 0.068446 2.071167 1 2 7
0.340861 0.074949 2.038816 1 1 9
0.342778 0.076893 2.050284 1 1 9
0.341220 0.082608 2.040967 0 1 9
0.340938 0.084054 2.039278 0 1 9
0.341266 0.085651 2.041242 0 1 9
0.340668 0.087014 2.037663 0 2 9
0.340632 0.088519 2.037450 0 2 9
0.340530 0.105134 2.036838 0 4 10
0.341469 0.106941 2.042452 0 5 11
0.341904 0.108596 2.045056 0 5 11
0.341244 0.109903 2.041107 0 5 11
0.341169 0.111394 2.040661 0 5 11
0.342612 0.113388 2.049294 0 5 11
0.345131 0.115755 2.064359 0 5 11
0.345839 0.117528 2.068592 0 5 11
0.344894 0.118740 2.062943 0 5 11
0.329094 0.122073 1.968436 0 6 12
0.382785 0.182804 2.289582 12 22 26
0.379628 0.182982 2.270695 45 56 58
0.381999 0.187520 2.284879 106 119 107
0.379990 0.189910 2.272863 152 169 151
0.383780 0.193509 2.295534 148 165 146
0.380994 0.193797 2.278871 139 156 137
0.381186 0.195588 2.280015 139 156 137
0.383761 0.200319 2.295418 144 160 141
0.392763 0.208508 2.349261 145 159 142
0.384334 0.205741 2.298847 145 159 142
0.381119 0.205713 2.279618 145 158 141
0.377900 0.205655 2.260364 145 158 140
0.377096 0.206893 2.255553 144 157 139
0.377665 0.215594 2.258957 139 154 130
0.338827 0.197939 2.026651 150 167 143
0.339786 0.215105 2.032386 4 7 2
0.316813 0.207599 1.894977 1 7 4
0.316126 0.208553 1.890868 1 6 3
0.316466 0.210184 1.892900 1 7 4
0.316108 0.211350 1.890758 2 7 4
0.315477 0.215133 1.886985 0 3 1
0.315885 0.216815 1.889426 0 3 1
0.315730 0.218111 1.888498 0 3 1
0.358668 -0.029362 2.135836 101 104 94
0.358822 -0.027788 2.136756 162 164 156
0.350211 0.003860 2.085476 0 5 11
0.350683 0.008518 2.088287 0 5 12
0.353232 0.011705 2.103467 0 6 13
0.353438 0.013275 2.104694 0 5 14
0.353150 0.014826 2.102977 0 5 15
0.356565 0.016547 2.123316 0 5 15
0.356252 0.018108 2.121454 0 5 15
0.358132 0.019788 2.132648 0 5 15
0.343945 0.025089 2.048162 0 2 7
0.340355 0.027838 2.026788 0 2 7
0.332312 0.046288 1.978890 0 2 7
0.345837 0.068058 2.059430 1 2 7
0.339877 0.074402 2.023941 1 1 7
0.342840 0.078083 2.041585 1 1 9
0.333225 0.090633 1.984330 0 2 9
0.333055 0.092059 1.983315 0 2 9
0.339634 0.105896 2.022491 0 4 10
0.341322 0.107932 2.032544 0 5 11
0.341186 0.109398 2.031733 0 5 11
0.340643 0.110731 2.028502 0 5 11
0.342549 0.112865 2.039854 0 5 11
0.345650 0.116945 2.058317 0 5 11
0.334028 0.120400 1.989112 0 6 14
0.330735 0.122139 1.969498 0 6 13
0.331313 0.123817 1.972939 0 5 13
0.332833 0.125858 1.981995 0 5 13
0.332728 0.127290 1.981366 0 5 13
0.334605 0.154648 1.992548 1 10 9
0.384034 0.187685 2.286892 111 125 111
0.384549 0.193039 2.289960 147 164 145
0.383191 0.194053 2.281874 138 155 136
0.384526 0.198130 2.289818 145 162 143
0.385942 0.200567 2.298252 144 160 142
0.391995 0.207180 2.334299 145 159 142
0.386224 0.205838 2.299930 145 159 141
0.379122 0.205407 2.257638 145 158 139
0.376218 0.205498 2.240349 144 157 138
0.326564 0.198598 1.944661 103 109 99
0.324049 0.199935 1.929683 12 14 9
0.324298 0.202957 1.931168 0 2 0
0.318360 0.206282 1.895810 0 5 5
0.317595 0.207191 1.891253 0 5 5
0.318106 0.208932 1.894297 1 5 5
0.317874 0.210185 1.892912 1 5 5
0.314272 0.213364 1.871466 0 3 3
0.359066 -0.029265 2.128793 26 28 20
0.360135 -0.027767 2.135131 77 80 72
0.361068 -0.026249 2.140665 130 132 124
0.352004 0.002312 2.086923 0 8 13
0.350302 0.006929 2.076834 0 5 13
0.351251 0.008495 2.082462 0 5 13
0.352055 0.010064 2.087229 0 6 14
0.354620 0.011699 2.102435 0 6 14
0.352943 0.013198 2.092489 0 6 15
0.356516 0.014902 2.113676 0 6 16
0.356081 0.016452 2.111096 0 6 16
0.357357 0.018084 2.118659 0 6 16
0.357443 0.019663 2.119172 0 6 15
0.346872 0.023664 2.056499 0 3 8
0.343841 0.024971 2.038527 0 3 8
0.344190 0.026512 2.040596 0 3 8
0.343040 0.027934 2.033781 0 3 8
0.341857 0.029343 2.026767 0 3 8
0.344717 0.067539 2.043720 1 2 7
0.348430 0.069801 2.065738 1 2 7
0.351485 0.071961 2.083850 0 2 6
0.345435 0.082892 2.047981 0 1 7
0.345367 0.085917 2.047577 0 1 8
0.339007 0.106728 2.009870 0 5 11
0.338929 0.108196 2.009408 0 5 11
0.336843 0.116430 1.997038 0 5 11
0.333976 0.119851 1.980043 0 6 14
0.332687 0.120853 1.972400 0 6 14
0.331676 0.121947 1.966404 0 6 14
0.331187 0.123226 1.963508 0 5 14
0.333132 0.125416 1.975039 1 5 14
0.331917 0.126420 1.967834 1 5 13
0.332374 0.128058 1.970543 1 6 12
0.333840 0.130093 1.979237 1 6 12
0.335136 0.148308 1.986918 1 5 13
0.333971 0.149263 1.980011 1 5 12
0.333897 0.152171 1.979572 0 5 7
0.332601 0.153045 1.971893 1 8 9
0.334148 0.155228 1.981063 0 5 6
0.384126 0.181828 2.277366 31 42 42
0.381268 0.183833 2.260419 94 109 100
0.384563 0.187116 2.279956 122 139 125
0.384594 0.190518 2.280141 143 160 141
0.385615 0.192722 2.286196 143 160 141
0.385220 0.194221 2.283852 142 159 140
0.386904 0.196774 2.293836 142 159 140
0.384971 0.197486 2.282379 143 160 141
0.388180 0.202551 2.301401 143 158 140
0.386320 0.204983 2.290375 142 156 138
0.384126 0.207202 2.277366 145 158 140
0.382858 0.208204 2.269846 144 157 137
0.327990 0.197142 1.944553 73 81 70
0.325918 0.203073 1.932267 8 10 6
0.319347 0.208823 1.893309 0 3 6
0.318470 0.209652 1.888111 0 3 5
0.525430 -0.044941 3.101459 41 40 34
0.522830 -0.042426 3.086112 11 12 7
0.360435 -0.027668 2.127541 9 12 6
0.362500 -0.026237 2.139731 42 44 37
0.498797 -0.031728 2.944249 169 166 162
0.363445 -0.016745 2.145308 0 1 8
0.364621 -0.015200 2.152246 1 6 15
0.365781 -0.013645 2.159099 7 16 26
0.368144 -0.012119 2.173043 10 20 31
0.369049 -0.010531 2.178384 6 19 31
0.368715 -0.008905 2.176413 4 17 28
0.351845 0.005386 2.076834 0 7 14
0.353677 0.006965 2.087647 0 7 14
0.352627 0.008490 2.081455 0 7 14
0.353277 0.010055 2.085287 0 6 15
0.354551 0.011646 2.092809 0 6 15
0.356060 0.013256 2.101717 0 6 16
0.356253 0.017949 2.102854 0 5 16
0.357067 0.019556 2.107658 0 6 16
0.346144 0.025028 2.043185 0 3 8
0.346119 0.026544 2.043039 0 3 8
0.343802 0.027873 2.029363 0 3 8
0.343268 0.029335 2.026211 0 3 8
0.335039 0.043321 1.977634 0 2 8
36.957359 6.723061 218.148285 1 2 7
0.353282 0.073560 2.085321 0 3 6
0.345767 0.081092 2.040962 0 2 7
0.345549 0.082555 2.039675 0 2 7
0.345735 0.084116 2.040770 0 2 7
0.345682 0.085618 2.040457 0 2 8
0.344385 0.098886 2.032803 0 3 10
0.337746 0.107346 1.993616 0 5 11
0.340328 0.109658 2.008853 0 5 11
0.335201 0.116824 1.978590 0 6 14
0.333146 0.119029 1.966459 0 6 15
0.332422 0.120228 1.962190 0 6 15
0.332114 0.121573 1.960373 0 6 14
0.330546 0.122448 1.951114 0 5 14
0.332074 0.124470 1.960135 0 5 14
0.331870 0.125848 1.958928 0 5 13
0.331703 0.127239 1.957945 1 5 13
0.332587 0.129037 1.963164 1 5 13
0.332357 0.130405 1.961806 1 6 12
0.334655 0.147446 1.975369 1 5 13
0.334119 0.148674 1.972204 1 5 12
0.333525 0.149872 1.968696 1 6 10
0.332878 0.151041 1.964882 0 7 9
0.332661 0.152401 1.963599 0 7 9
0.332681 0.153869 1.963716 0 6 7
0.332687 0.155330 1.963750 10 18 18
0.382622 0.183677 2.258502 101 116 105
0.387726 0.187828 2.288632 129 146 130
0.387444 0.189390 2.286967 142 159 141
0.386652 0.190698 2.282292 141 158 139
0.387054 0.192593 2.284666 141 158 139
0.387768 0.194649 2.288881 141 158 139
0.387814 0.196372 2.289149 142 159 140
0.389952 0.200874 2.301770 142 159 140
0.398800 0.208929 2.354001 143 158 139
0.393470 0.209586 2.322537 143 158 139
0.385764 0.207173 2.277051 145 158 138
0.384058 0.207941 2.266982 143 156 134
0.336114 0.196719 1.983980 155 166 150
0.326226 0.202374 1.925615 1 3 0
0.320936 0.207535 1.894390 0 2 6
0.320645 0.208752 1.892670 0 2 6
0.363151 -0.026169 2.134212 4 6 1
0.494927 -0.029184 2.908652 106 104 101
0.366131 -0.018393 2.151730 66 66 69
0.366808 -0.016826 2.155708 9 10 17
0.366289 -0.015203 2.152654 1 6 16
0.369321 -0.012105 2.170473 10 21 33
0.370279 -0.010520 2.176106 9 21 33
0.370012 -0.008897 2.174537 6 20 31
0.371358 -0.007308 2.182449 6 20 30
0.352171 0.003830 2.069687 0 9 16
0.353180 0.005383 2.075617 0 8 15
0.353720 0.006935 2.078792 0 8 15
0.354284 0.008493 2.082107 0 7 15
0.354203 0.010037 2.081626 0 6 16
0.357164 0.011680 2.099032 0 6 16
0.356013 0.013197 2.092263 0 6 16
0.354652 0.016243 2.084267 0 5 17
0.355874 0.017852 2.091446 0 5 17
0.346936 0.024976 2.038923 0 3 8
0.345123 0.026352 2.028266 0 3 8
0.344571 0.027814 2.025021 0 3 8
0.344698 0.029329 2.025769 0 3 8
0.348573 0.069220 2.048539 1 2 7
0.347727 0.079677 2.043567 0 2 6
0.347761 0.082721 2.043768 0 2 7
0.347196 0.084102 2.040449 0 2 7
0.348107 0.091921 2.045801 0 2 9
0.345380 0.092708 2.029773 0 2 9
0.344569 0.093995 2.025007 0 2 9
0.346534 0.096043 2.036557 0 3 10
0.347648 0.097870 2.043102 0 3 10
0.347423 0.099323 2.041783 0 3 10
0.347771 0.100940 2.043825 0 3 10
0.347512 0.102382 2.042305 0 3 10
0.346918 0.103722 2.038816 0 3 10
0.347095 0.105290 2.039854 0 3 10
0.348147 0.107129 2.046040 0 3 10
0.347446 0.112979 2.041915 0 5 11
0.348620 0.116405 2.048818 0 5 11
0.390442 0.181500 2.294603 19 29 28
0.391912 0.183894 2.303240 55 67 62
0.388982 0.185916 2.286022 110 125 112
0.391362 0.188761 2.300010 138 155 138
0.392350 0.190951 2.305817 145 162 144
0.389993 0.191506 2.291962 138 155 136
0.390476 0.193448 2.294801 138 155 136
0.388781 0.194305 2.284838 139 156 137
0.392284 0.197768 2.305425 140 158 138
0.393163 0.199928 2.310595 141 159 138
0.400260 0.207031 2.352302 145 160 141
0.400222 0.208758 2.352080 144 159 140
0.394075 0.207272 2.315952 141 156 137
0.337353 0.195109 1.982599 164 175 159
0.322416 0.206174 1.894819 0 2 7
0.321695 0.207118 1.890583 0 2 7
0.321422 0.208345 1.888976 0 2 7
0.448596 -0.034136 2.624911 83 85 76
0.450090 -0.032293 2.633654 29 30 23
0.451008 -0.030399 2.639028 5 5 2
0.370331 -0.018523 2.166952 39 39 43
0.369378 -0.016870 2.161377 12 13 20
0.369248 -0.015259 2.160617 1 5 15
0.370846 -0.013714 2.169963 5 15 27
0.371075 -0.010496 2.171306 10 23 35
0.371093 -0.008884 2.171413 8 22 33
0.371276 -0.007275 2.172482 8 21 32
0.354736 0.005383 2.075702 0 9 17
0.354856 0.006927 2.076404 1 9 18
0.355008 0.008473 2.077292 0 8 17
0.356921 0.010070 2.088484 0 6 16
0.357709 0.011647 2.093096 0 5 16
0.357274 0.013186 2.090550 0 5 16
0.345905 0.027800 2.024027 0 3 8
0.336461 0.043127 1.968764 0 2 8
0.346665 0.082102 2.028474 0 2 7
0.346495 0.083568 2.027476 0 2 7
0.353101 0.089765 2.066132 0 2 9
0.352395 0.091117 2.062000 0 2 9
0.350327 0.092105 2.049901 0 2 9
0.346447 0.092590 2.027197 0 2 9
0.346020 0.093980 2.024697 0 2 9
0.347902 0.096004 2.035711 0 3 10
0.349202 0.097880 2.043319 0 3 10
0.349054 0.099356 2.042452 0 3 10
0.348994 0.100855 2.042099 0 3 10
0.348988 0.102370 2.042063 0 3 10
0.349636 0.104080 2.045859 0 3 10
0.349410 0.105531 2.044534 0 3 10
0.347298 0.110931 2.032178 0 5 11
0.328616 0.123531 1.922861 0 5 14
0.388525 0.176447 2.273413 0 4 7
0.392021 0.181442 2.293869 30 40 37
0.393171 0.183683 2.300596 68 80 73
0.392171 0.188329 2.294744 143 160 143
0.394320 0.191075 2.307321 145 162 144
0.390856 0.191095 2.287050 135 152 133
0.390618 0.192677 2.285661 136 153 134
0.393811 0.197675 2.304344 139 157 137
0.403525 0.209566 2.361185 145 160 141
0.397199 0.209734 2.324169 143 157 137
0.408478 0.222791 2.390168 135 150 122
0.339794 0.194190 1.988266 148 159 142
0.332058 0.205644 1.942999 0 1 1
0.323502 0.205969 1.892935 0 2 7
0.323162 0.207158 1.890947 0 2 7
0.323770 0.217398 1.894504 1 2 6
0.453378 -0.034351 2.641411 158 158 150
0.454860 -0.032495 2.650047 109 109 102
0.453494 -0.030434 2.642091 55 53 47
0.372497 -0.018551 2.170196 5 4 10
0.373371 -0.016979 2.175286 0 0 10
0.373286 -0.015359 2.174788 1 4 16
0.373350 -0.013746 2.175161 7 15 27
0.374077 -0.012154 2.179399 11 22 34
0.374259 -0.010541 2.180457 11 24 36
0.372871 -0.008888 2.172371 10 24 34
0.373058 -0.007278 2.173464 9 23 32
0.535960 -0.003498 3.122539 0 13 18
0.354392 0.005355 2.064714 1 10 19
0.354703 0.006895 2.066527 2 9 19
0.357466 0.013136 2.082623 0 5 16
0.350375 0.021973 2.041308 0 5 10
0.535709 0.079960 3.121081 0 3 2
0.348177 0.067036 2.028502 0 2 7
0.345995 0.080092 2.015794 0 2 6
0.345480 0.082962 2.012791 0 2 7
0.351865 0.089063 2.049988 0 2 8
0.351575 0.090511 2.048298 0 2 9
0.350771 0.091823 2.043618 0 2 9
0.349737 0.096092 2.037591 0 3 10
0.350396 0.097790 2.041435 0 3 10
0.349797 0.099136 2.037944 0 3 10
0.350530 0.100861 2.042215 0 3 10
0.350948 0.102500 2.044650 0 3 10
0.351052 0.104049 2.045253 0 3 10
0.351018 0.105558 2.045056 0 3 10
0.351997 0.107376 2.050761 0 3 10
0.351233 0.110183 2.046308 0 4 11
0.347724 0.110587 2.025867 0 5 11
0.327996 0.122764 1.910925 0 5 14
0.327255 0.123903 1.906610 1 5 14
0.389785 0.176253 2.270917 0 3 7
0.395691 0.184061 2.305323 77 89 80
0.395838 0.189268 2.306183 145 162 145
0.395743 0.194360 2.305625 136 153 134
0.394817 0.195614 2.300230 137 154 135
0.327595 0.203420 1.908594 0 1 3
0.324673 0.205821 1.891568 0 2 7
0.325147 0.207528 1.894331 0 2 7
0.454775 -0.030389 2.638137 164 156 154
0.452420 -0.028282 2.624475 99 91 92
0.507298 -0.029527 2.942817 39 32 37
0.376544 -0.018672 2.184318 3 0 10
0.376284 -0.017037 2.182809 1 0 13
0.375782 -0.015396 2.179902 0 1 15
0.376665 -0.012186 2.185024 13 21 34
0.376220 -0.010550 2.182440 18 29 40
0.375205 -0.008905 2.176552 13 27 35
0.374910 -0.007283 2.174839 6 21 27
0.359109 0.011592 2.083181 0 7 17
0.532211 0.076802 3.087338 0 3 4
0.531998 0.079064 3.086102 0 3 4
0.357521 0.062377 2.073969 0 2 6
0.353279 0.064681 2.049360 0 2 7
0.352880 0.066128 2.047045 0 2 7
0.347449 0.081579 2.015542 0 2 6
0.347436 0.083072 2.015463 0 2 7
0.351868 0.087165 2.041178 0 2 7
0.352975 0.088960 2.047596 0 2 8
0.352018 0.090235 2.042047 0 2 9
0.351914 0.091725 2.041444 0 2 9
0.351412 0.093108 2.038527 0 2 9
0.350748 0.094444 2.034678 0 3 10
0.350340 0.095843 2.032311 1 4 11
0.349959 0.097247 2.030100 1 4 11
0.349619 0.098659 2.028129 1 4 11
0.350847 0.100517 2.035252 1 4 11
0.351093 0.102100 2.036679 1 4 11
0.350583 0.104973 2.033718 1 4 11
0.353941 0.107504 2.053201 1 4 11
0.349173 0.110569 2.025542 0 5 11
0.347973 0.111688 2.018581 0 5 11
0.349207 0.116598 2.025739 0 4 11
0.346528 0.117197 2.010196 0 4 13
0.349390 0.134725 2.026800 1 6 12
0.392966 0.173540 2.279586 0 6 12
0.396724 0.182036 2.301381 51 63 58
0.397280 0.184003 2.304607 82 97 88
0.395219 0.186455 2.292653 137 153 137
0.396525 0.188780 2.300230 145 162 144
0.397139 0.194206 2.303793 137 154 135
0.412368 0.210536 2.392132 145 160 139
0.325659 0.205556 1.889138 0 2 6
0.325854 0.207084 1.890271 0 2 6
0.452158 -0.026205 2.611701 152 144 151
0.377034 -0.018616 2.177777 54 49 62
0.377199 -0.017006 2.178732 20 17 31
0.377834 -0.015413 2.182400 2 2 15
0.379029 -0.013836 2.189301 0 2 14
0.378281 -0.012185 2.184979 7 12 24
0.377312 -0.010535 2.179383 15 24 34
0.376763 -0.008904 2.176212 14 26 34
0.376379 -0.007280 2.173997 8 22 28
0.376457 -0.005666 2.174446 7 23 28
0.668481 0.012882 3.861202 0 8 20
0.665473 0.015679 3.843823 0 9 19
0.527265 0.078024 3.045524 0 3 5
0.358700 0.062314 2.071881 0 3 6
0.352415 0.065758 2.035577 0 2 6
0.352049 0.085325 2.033464 0 3 8
0.352478 0.086941 2.035943 0 3 8
0.353380 0.088680 2.041152 0 3 9
0.353335 0.090184 2.040892 0 3 9
0.353030 0.091621 2.039129 0 2 9
0.352789 0.093072 2.037736 0 2 9
0.351368 0.095712 2.029529 0 4 11
0.351831 0.097348 2.032203 0 4 11
0.351580 0.098786 2.030752 0 4 11
0.354961 0.107351 2.050284 0 4 11
0.345825 0.109039 1.997511 0 5 11
0.345193 0.116245 1.993864 0 4 13
0.343507 0.117150 1.984122 0 5 16
0.395814 0.172349 2.286251 0 6 11
0.393783 0.173154 2.274520 0 6 12
0.394007 0.174943 2.275815 0 3 9
0.397353 0.181543 2.295142 63 75 70
0.398597 0.183822 2.302331 88 103 92
0.399060 0.189171 2.305005 146 163 145
0.398721 0.192432 2.303043 140 157 138
0.411608 0.209247 2.377479 145 160 139
0.333301 0.202327 1.925171 0 2 1
0.330823 0.220694 1.910859 1 2 3
0.451824 -0.028004 2.598624 226 217 220
0.451977 -0.026082 2.599504 224 215 221
0.377186 -0.018544 2.169348 145 140 151
0.377664 -0.016954 2.172100 95 93 104
0.378162 -0.015361 2.174963 49 48 60
0.379612 -0.013798 2.183302 15 16 28
0.379584 -0.012175 2.183143 2 5 16
0.378979 -0.010537 2.179664 8 15 25
0.377390 -0.008880 2.170522 13 24 32
0.378056 -0.007281 2.174354 10 24 31
0.357169 0.023637 2.054224 0 6 12
0.359262 0.062145 2.066261 0 3 6
0.359041 0.063641 2.064992 0 3 6
0.350720 0.084639 2.017131 0 5 11
0.352518 0.086579 2.027476 0 5 11
0.353873 0.088424 2.035268 0 5 11
0.352875 0.091190 2.029529 0 5 11
0.351163 0.092247 2.019680 0 5 11
0.350407 0.093545 2.015330 0 5 11
0.350555 0.095083 2.016183 0 5 11
0.352681 0.097166 2.028413 0 5 11
0.350657 0.098106 2.016768 0 5 11
0.352847 0.106256 2.029363 0 5 11
0.352616 0.107693 2.028039 1 5 11
0.349339 0.108184 2.009189 0 5 11
0.347969 0.109246 2.001309 0 5 11
0.348404 0.110871 2.003810 0 5 11
0.347627 0.112109 1.999343 0 5 11
0.348675 0.113937 2.005370 0 5 11
0.347597 0.115069 1.999171 0 5 12
0.346675 0.116245 1.993869 0 4 14
0.396342 0.170149 2.279524 0 5 12
0.395734 0.171578 2.276029 0 5 13
0.395020 0.172956 2.271918 0 6 13
0.394823 0.174556 2.270786 0 4 12
0.395518 0.176553 2.274782 14 22 26
0.400451 0.183887 2.303155 92 107 96
0.410815 0.209707 2.362766 144 159 138
0.521314 0.337378 2.998290 0 3 3
0.332447 0.220830 1.912036 0 2 3
0.378926 -0.015326 2.170087 139 137 147
0.380166 -0.013759 2.177188 72 74 83
0.380410 -0.012150 2.178585 17 20 29
0.380225 -0.010527 2.177523 2 6 14
0.377854 -0.008854 2.163949 11 19 28
0.376819 -0.007226 2.158020 16 29 37
0.376819 -0.005623 2.158020 10 24 32
0.372833 -0.003978 2.135191 7 21 30
0.356225 0.021959 2.040080 0 6 12
0.358465 0.023622 2.052909 0 6 12
0.357550 0.025083 2.047667 0 6 12
0.357248 0.060014 2.045940 0 3 6
0.358109 0.061682 2.050867 0 2 6
0.357354 0.063072 2.046547 0 2 6
0.356169 0.064378 2.039756 0 2 6
0.357316 0.066105 2.046329 0 2 6
0.359439 0.068027 2.058485 0 2 6
0.358454 0.083088 2.052842 0 4 10
0.356103 0.084058 2.039382 0 5 11
0.355789 0.085498 2.037580 0 5 11
0.355654 0.086978 2.036806 0 5 11
0.356415 0.088680 2.041165 0 5 11
0.356159 0.090132 2.039703 0 5 11
0.356352 0.091696 2.040809 0 5 11
0.354982 0.092854 2.032959 0 5 11
0.353218 0.095397 2.022858 0 5 11
0.355158 0.104986 2.033967 0 5 11
0.350149 0.107974 2.005281 1 6 12
0.348709 0.109013 1.997038 1 6 12
0.347553 0.114565 1.990415 1 5 12
0.346135 0.115570 1.982294 1 5 13
0.343538 0.139546 1.967419 0 4 8
0.399246 0.172364 2.286457 0 4 16
0.396907 0.173043 2.273063 2 7 19
0.397766 0.175110 2.277982 0 4 14
0.396747 0.176349 2.272149 30 39 45
0.401813 0.182019 2.301161 76 89 86
0.402228 0.183918 2.303534 107 122 113
0.404077 0.189920 2.314124 142 157 137
0.414890 0.209121 2.376052 142 157 137
0.411271 0.209046 2.355326 142 157 136
0.405556 0.209592 2.322596 144 158 134
0.411626 0.219733 2.357359 147 159 131
0.331077 0.207717 1.896056 0 3 4
0.521980 0.336372 2.989348 0 3 3
0.334341 0.221143 1.914749 0 2 2
0.381604 -0.013753 2.176167 143 143 150
0.381491 -0.012133 2.175522 59 62 69
0.381629 -0.010521 2.176309 9 12 19
0.380210 -0.008871 2.168218 4 10 19
0.378861 -0.007235 2.160522 14 24 34
0.377887 -0.004015 2.154968 10 23 35
0.384380 -0.000828 2.191994 10 21 35
0.355762 0.059511 2.028795 0 3 6
0.356251 0.061102 2.031585 0 2 6
0.356096 0.062584 2.030701 1 2 6
0.357701 0.065896 2.039854 1 2 6
0.376956 0.082217 2.149660 0 3 10
0.359584 0.081474 2.050593 0 3 10
0.359015 0.082866 2.047348 0 4 10
0.357499 0.084030 2.038702 0 5 11
0.357719 0.085597 2.039956 0 5 11
0.357060 0.086952 2.036198 0 5 11
0.357966 0.088689 2.041368 0 5 11
0.357471 0.090080 2.038543 0 5 11
0.356562 0.091362 2.033361 0 5 11
0.350889 0.107744 2.001009 1 6 12
0.351326 0.109366 2.003500 1 6 12
0.351759 0.110990 2.005967 1 6 12
0.399449 0.171721 2.277928 0 3 15
0.399986 0.173647 2.280994 0 6 18
0.398740 0.174795 2.273889 3 11 21
0.398630 0.176435 2.273258 36 46 53
0.405052 0.180993 2.309880 66 78 81
0.402782 0.181685 2.296935 84 99 96
0.404081 0.183982 2.304344 117 133 124
0.403825 0.187287 2.302883 150 166 146
0.404849 0.189477 2.308724 141 156 133
0.408248 0.192797 2.328106 138 155 133
0.412760 0.207166 2.353839 140 155 136
0.412026 0.208543 2.349655 139 154 135
0.400716 0.209608 2.285154 144 154 127
0.330909 0.198323 1.887068 0 2 1
0.333578 0.208400 1.902291 0 3 4
0.382158 -0.012103 2.170131 114 117 120
0.381393 -0.010470 2.165792 32 37 42
0.380494 -0.008840 2.160683 1 6 14
0.380905 -0.007243 2.163016 7 14 25
0.379848 -0.005621 2.157014 15 25 38
0.378870 -0.004008 2.151464 16 28 41
0.380169 -0.002419 2.158836 15 27 41
0.384054 -0.000823 2.180897 13 23 38
0.368784 0.003876 2.094190 3 12 27
0.354837 0.059106 2.014986 0 2 6
0.355456 0.060709 2.018505 0 2 6
0.354146 0.061979 2.011066 1 2 6
0.353521 0.063360 2.007513 1 2 6
0.361073 0.067760 2.050401 1 2 6
0.378470 0.079006 2.149193 0 3 10
0.373137 0.082614 2.118906 0 3 10
0.358741 0.082454 2.037159 0 4 10
0.358439 0.086920 2.035444 0 5 11
0.359374 0.088662 2.040749 0 5 11
0.357123 0.089613 2.027967 0 5 11
0.358153 0.091382 2.033818 0 5 11
0.354294 0.103847 2.011903 0 5 11
0.353605 0.105137 2.007991 0 5 11
0.352621 0.106331 2.002401 1 6 12
0.352565 0.107801 2.002083 1 6 12
0.353390 0.109544 2.006768 1 6 12
0.353743 0.111146 2.008775 1 6 12
0.400879 0.173300 2.276443 0 4 16
0.401042 0.175062 2.277366 15 23 33
0.400197 0.176382 2.272572 45 56 61
0.404074 0.181499 2.294588 97 112 109
0.404874 0.183566 2.299131 127 143 134
0.405684 0.185645 2.303731 147 164 149
0.405812 0.189126 2.304457 142 157 134
0.406354 0.192807 2.307532 141 159 138
0.332412 0.189971 1.887642 0 2 1
0.335618 0.196050 1.905849 0 2 1
0.334312 0.196697 1.898431 0 2 1
0.330529 0.197259 1.876950 0 2 1
0.456985 0.280438 2.595046 0 3 5
0.333905 0.206316 1.896122 0 4 7
0.333747 0.207626 1.895226 0 4 6
0.523878 0.332537 2.974910 0 3 4
0.381909 -0.012044 2.159611 158 161 161
0.381837 -0.010438 2.159205 78 83 86
0.382712 -0.008854 2.164151 17 22 29
0.382262 -0.007238 2.161607 2 7 18
0.382596 -0.005638 2.163495 13 21 35
0.380897 -0.004013 2.153888 20 30 45
0.380915 -0.002413 2.153987 17 29 43
0.383740 -0.000819 2.169963 14 25 40
0.383584 0.000792 2.169080 11 20 35
0.694001 0.018923 3.924420 0 11 20
0.365944 0.023811 2.069331 0 6 12
0.376908 0.051437 2.131334 0 2 7
0.377035 0.053038 2.132051 0 2 7
0.350535 0.062561 1.982198 1 2 7
0.381128 0.080828 2.155195 0 3 10
0.380296 0.082248 2.150486 0 3 10
0.373286 0.082300 2.110850 0 3 10
0.361819 0.084331 2.046005 0 5 11
0.363195 0.086177 2.053785 0 5 11
0.362554 0.087548 2.050163 0 5 11
0.361326 0.088769 2.043217 0 5 11
0.360059 0.089970 2.036056 0 5 11
0.361069 0.091739 2.041767 0 5 11
0.360977 0.093232 2.041247 0 5 11
0.360937 0.094738 2.041019 0 5 11
0.361805 0.096485 2.045926 0 5 11
0.363020 0.098334 2.052795 0 5 11
0.362133 0.099615 2.047781 0 5 11
0.362047 0.101112 2.047293 0 5 11
0.360833 0.102288 2.040431 0 5 11
0.355233 0.109653 2.008763 1 6 12
0.355373 0.111189 2.009554 1 6 12
0.362244 0.116382 2.048407 1 6 12
0.354525 0.116880 2.004757 1 5 13
0.366457 0.137745 2.072234 1 6 12
0.357398 0.140344 2.021004 1 6 12
0.357458 0.141869 2.021344 1 6 12
0.369027 0.151111 2.086767 0 3 9
0.403319 0.171929 2.280680 0 1 12
0.402206 0.173144 2.274385 0 6 16
0.401696 0.174611 2.271502 28 38 45
0.401593 0.176253 2.270917 57 68 72
0.404586 0.180966 2.287846 110 125 121
0.406760 0.183646 2.300135 137 153 143
0.406811 0.188795 2.300424 142 157 134
0.334087 0.185916 1.889186 0 2 1
0.334891 0.193397 1.893734 0 2 1
0.334816 0.194760 1.893309 0 2 1
0.329700 0.194554 1.864383 0 2 1
0.453816 0.277324 2.566230 0 3 5
0.333759 0.205360 1.887334 0 4 6
0.333676 0.206710 1.886865 0 4 6
0.338114 0.220821 1.911957 0 4 0
0.383376 -0.010436 2.158836 128 132 133
0.383101 -0.008826 2.157287 48 52 58
0.383950 -0.007240 2.162069 5 9 20
0.383666 -0.004025 2.160469 20 30 45
0.382983 -0.000814 2.156624 16 26 41
0.385366 0.000793 2.170045 13 22 37
0.375794 0.051071 2.116142 0 3 9
0.349193 0.056219 1.966349 1 1 8
0.349503 0.060654 1.968097 1 1 8
0.350198 0.062240 1.972011 1 1 8
0.381304 0.074147 2.147171 0 2 9
0.382447 0.075969 2.153607 0 3 10
0.382156 0.077510 2.151970 0 3 10
0.381924 0.080658 2.150662 0 3 10
0.374531 0.082230 2.109031 0 3 10
0.359332 0.081898 2.023442 0 4 10
0.360125 0.083586 2.027912 0 5 11
0.361552 0.085429 2.035943 0 5 11
0.360532 0.086696 2.030199 0 5 11
0.361327 0.088398 2.034678 0 5 11
0.360062 0.089595 2.027555 0 5 11
0.359387 0.090930 2.023753 0 5 11
0.358598 0.092230 2.019308 0 5 11
0.358417 0.093683 2.018291 0 5 11
0.363753 0.098120 2.048339 0 5 11
0.356887 0.100747 2.009676 0 5 11
0.358417 0.104177 2.018291 0 5 11
0.360157 0.106189 2.028092 0 5 11
0.359244 0.107422 2.022946 1 6 12
0.357391 0.108363 2.012515 1 6 12
0.357452 0.109877 2.012857 1 6 12
0.357279 0.111318 2.011885 1 6 12
0.353312 0.115993 1.989543 1 5 13
0.355613 0.140547 2.002499 1 6 12
0.401762 0.168869 2.262375 0 3 12
0.403830 0.171427 2.274018 0 2 11
0.403991 0.185013 2.274922 136 152 131
0.334101 0.192134 1.881364 0 2 1
0.334789 0.193930 1.885240 0 2 1
0.332233 0.193839 1.870845 0 2 1
0.328578 0.193080 1.850264 0 2 1
0.336069 0.207322 1.892446 0 4 5
0.339775 0.219556 1.913314 0 4 0
0.383813 -0.008806 2.152299 102 105 110
0.384317 -0.007217 2.155123 33 36 46
0.383521 -0.000812 2.150662 18 28 42
0.384120 0.000787 2.154019 16 25 40
0.383339 0.002382 2.149636 11 20 36
0.379582 0.073505 2.128568 0 3 10
0.380322 0.075232 2.132718 0 3 10
0.380096 0.076771 2.131454 0 3 10
0.379295 0.079769 2.126961 0 3 10
0.377828 0.081034 2.118736 0 3 10
0.376202 0.082252 2.109616 0 3 10
0.360564 0.083339 2.021922 0 5 11
0.361088 0.084964 2.024863 0 5 11
0.364916 0.088904 2.046329 0 5 11
0.365502 0.096659 2.049613 0 5 11
0.365267 0.098119 2.048298 0 5 11
0.364562 0.099447 2.044342 0 5 11
0.362379 0.104890 2.032100 0 5 11
0.364143 0.106917 2.041993 0 5 11
0.360602 0.110383 2.022136 1 6 12
0.368735 0.117480 2.067747 1 6 12
0.365155 0.136112 2.047667 1 6 12
0.354963 0.139705 1.990516 1 6 12
0.437153 0.213933 2.451410 142 157 138
0.436036 0.215202 2.445148 140 155 137
0.406578 0.209131 2.279956 147 157 130
0.334336 0.191468 1.874844 0 1 1
0.333424 0.192335 1.869733 0 1 1
0.330638 0.192105 1.854110 0 1 1
0.354006 0.213054 1.985149 0 2 2
0.382742 0.000781 2.137386 21 30 45
0.382822 0.002369 2.137834 13 22 38
0.363357 0.020334 2.029134 0 7 16
0.364139 0.021889 2.033499 0 7 14
0.366984 0.023582 2.049390 0 7 13
0.362687 0.042863 2.025395 1 6 12
0.362687 0.044367 2.025395 1 5 12
0.362510 0.045849 2.024405 0 4 10
0.363063 0.059473 2.027493 0 1 9
0.378599 0.074581 2.114250 1 4 11
0.377047 0.078967 2.105587 0 4 10
0.376477 0.080409 2.102401 0 4 11
0.376310 0.081935 2.101468 0 4 11
0.363206 0.082095 2.028290 0 4 10
0.360828 0.083054 2.015014 0 4 10
0.359773 0.084303 2.009122 0 4 10
0.362018 0.086331 2.021657 0 4 10
0.362968 0.089569 2.026964 0 5 11
0.365660 0.094783 2.041993 0 5 11
0.366027 0.096397 2.044047 0 5 11
0.365975 0.097901 2.043753 0 5 11
0.362195 0.098392 2.022645 0 5 11
0.362104 0.104375 2.022136 0 5 11
0.365348 0.108341 2.040253 1 6 12
0.363181 0.109205 2.028152 1 6 12
0.362815 0.110600 2.026110 1 6 12
0.367857 0.116714 2.054264 1 6 12
0.363394 0.133386 2.029339 1 5 13
0.363612 0.134975 2.030557 1 6 12
0.363350 0.136384 2.029094 1 6 12
0.362999 0.137758 2.027135 1 6 12
0.416267 0.190780 2.324605 140 156 132
0.437728 0.211510 2.444453 144 159 140
0.437103 0.213021 2.440964 142 157 138
0.404570 0.207235 2.259284 167 179 152
0.340653 0.192863 1.902345 1 1 1
0.329334 0.190553 1.839135 1 1 1
0.344880 0.202409 1.925950 1 1 1
0.353183 0.213142 1.972317 0 3 2
0.344035 0.221892 1.921231 0 4 0
0.380113 -0.007079 2.113941 135 136 142
0.382747 0.002358 2.128586 9 18 34
0.384051 0.003953 2.135836 8 17 34
0.365728 0.021893 2.033941 0 7 14
0.366141 0.023431 2.036238 0 7 13
0.366792 0.024987 2.039854 0 7 13
0.364659 0.027855 2.027996 0 7 13
0.367871 0.034178 2.045859 0 6 12
0.366326 0.035548 2.037263 0 6 12
0.361855 0.044083 2.012398 0 5 11
0.363180 0.045744 2.019770 0 4 10
0.363847 0.047331 2.023476 0 5 11
0.368072 0.049401 2.046973 0 5 11
0.367533 0.050847 2.043977 0 3 10
0.364540 0.060974 2.027330 0 1 11
0.360842 0.082714 2.006768 0 3 10
0.361097 0.085756 2.008183 0 3 10
0.363930 0.087932 2.023941 0 3 10
0.364122 0.089482 2.025007 0 3 10
0.368007 0.093477 2.046611 0 3 10
0.367290 0.094812 2.042625 0 4 10
0.366960 0.096243 2.040790 0 5 11
0.365576 0.097390 2.033091 0 5 11
0.363824 0.098426 2.023349 0 5 11
0.365067 0.100271 2.030263 0 5 11
0.366807 0.102264 2.039942 0 5 11
0.363455 0.102831 2.021299 0 5 11
0.362996 0.104200 2.018743 0 5 11
0.364881 0.106248 2.029227 0 5 11
0.365024 0.110814 2.030026 1 6 12
0.365256 0.112393 2.031312 1 6 12
0.366392 0.114256 2.037632 1 6 12
0.367352 0.116073 2.042972 1 6 12
0.365861 0.117113 2.034678 1 5 12
0.363930 0.117998 2.023941 0 5 13
0.364304 0.119624 2.026021 0 5 15
0.362816 0.132624 2.017744 1 5 13
0.363072 0.134218 2.019170 1 6 12
0.363357 0.135824 2.020753 1 6 12
0.363313 0.137308 2.020510 1 6 12
0.411108 0.168957 2.286312 0 5 10
0.409267 0.169891 2.276073 0 4 8
0.409895 0.207402 2.279565 151 165 137
0.404835 0.206514 2.251426 179 192 164
0.340517 0.190584 1.893734 1 1 1
0.339561 0.191451 1.888414 1 1 1
0.349559 0.215859 1.944015 0 3 2
0.346518 0.219707 1.927107 0 4 0
0.365840 0.006760 2.026191 8 19 32
0.366443 0.023353 2.029529 0 7 13
0.366241 0.024847 2.028413 0 7 13
0.365254 0.027785 2.022946 0 7 13
0.366907 0.029420 2.032100 0 7 13
0.364413 0.045711 2.018291 0 5 12
0.365979 0.047413 2.026964 1 5 13
0.366994 0.049054 2.032580 1 5 13
0.366882 0.050548 2.031965 1 4 12
0.367787 0.052186 2.036975 1 4 12
0.366716 0.059577 2.031041 0 2 12
0.367528 0.061221 2.035539 0 1 12
0.370140 0.067747 2.050009 0 1 11
0.370295 0.072345 2.050867 0 5 11
0.369844 0.075300 2.048369 0 4 10
0.370506 0.076959 2.052033 0 4 10
0.372229 0.078848 2.061579 0 5 11
0.356837 0.082927 1.976328 0 3 10
0.358583 0.084808 1.985999 0 3 10
0.360243 0.086683 1.995192 0 3 10
0.362952 0.088828 2.010196 0 3 10
0.368719 0.091756 2.042140 0 3 10
0.368619 0.093248 2.041585 0 3 10
0.368185 0.094652 2.039177 0 4 10
0.365712 0.095521 2.025482 0 5 11
0.365376 0.096936 2.023619 0 5 11
0.363252 0.097867 2.011858 0 5 11
0.367203 0.100442 2.033740 0 5 11
0.366190 0.101672 2.028129 0 5 11
0.362717 0.103692 2.008893 0 5 11
0.365359 0.105950 2.023530 0 5 11
0.366943 0.110938 2.032298 1 6 12
0.366443 0.112294 2.029529 1 6 12
0.365581 0.113534 2.024758 1 6 12
0.366178 0.115226 2.028062 1 6 12
0.366785 0.116926 2.031423 1 5 12
0.363328 0.117318 2.012279 0 5 13
0.360943 0.129912 1.999069 1 5 14
0.361791 0.131705 2.003767 1 5 13
0.362500 0.133455 2.007694 1 6 12
0.361545 0.134590 2.002401 1 6 12
0.359303 0.139668 1.989988 1 6 12
0.358555 0.140852 1.985842 1 5 13
0.358784 0.142419 1.987114 0 2 11
0.411699 0.168504 2.280182 0 4 8
0.410414 0.169666 2.273063 0 2 5
0.341186 0.190172 1.889644 1 1 1
0.339396 0.190571 1.879732 1 1 1
0.341157 0.192963 1.889485 1 1 1
0.347950 0.213982 1.927107 0 3 0
0.347950 0.215413 1.927107 0 2 0
0.344842 0.217745 1.909896 0 3 0
0.346106 0.219967 1.916898 0 3 0
0.346997 0.221961 1.921829 0 3 0
0.371744 0.000749 2.050454 15 21 36
0.370489 0.002264 2.043534 34 43 59
0.369497 0.003772 2.038063 26 35 52
0.366385 0.020252 2.020898 0 9 17
0.367071 0.023298 2.024682 0 8 13
0.367727 0.024846 2.028300 0 8 13
0.367671 0.026348 2.027989 0 7 13
0.367406 0.027835 2.026529 0 7 13
0.367405 0.029340 2.026522 0 7 13
0.368705 0.030954 2.033695 0 7 13
0.366794 0.044318 2.023151 0 6 12
0.367502 0.045909 2.027059 0 6 14
0.366627 0.047302 2.022229 0 6 14
0.366992 0.048853 2.024243 1 5 14
0.368105 0.050509 2.030385 1 5 14
0.369092 0.052157 2.035826 1 5 14
0.370221 0.059900 2.042055 0 2 14
0.367500 0.065482 2.027046 0 2 14
0.369092 0.067278 2.035826 0 2 14
0.371144 0.069173 2.047144 0 2 12
0.367330 0.069967 2.026110 0 4 11
0.367171 0.071441 2.025234 0 5 11
0.367878 0.074593 2.029134 0 4 10
0.370841 0.076713 2.045473 0 4 10
0.371689 0.078411 2.050150 0 5 11
0.359163 0.084597 1.981063 0 3 10
0.359954 0.086258 1.985422 0 3 10
0.362970 0.088468 2.002061 0 3 10
0.367527 0.091085 2.027197 0 3 10
0.365028 0.093456 2.013410 0 4 10
0.365177 0.094991 2.014235 0 5 11
0.365177 0.096487 2.014235 0 5 11
0.366097 0.098230 2.019308 0 5 11
0.367190 0.100027 2.025335 0 5 11
0.363665 0.102047 2.005896 0 5 11
0.363998 0.103632 2.007729 0 5 11
0.366026 0.105709 2.018917 0 5 11
0.367145 0.110544 2.025087 1 6 12
0.366713 0.116424 2.022703 1 5 12
0.362949 0.116716 2.001944 0 5 13
0.362499 0.118056 1.999465 0 6 14
0.363066 0.119728 2.002587 0 6 16
0.359311 0.128795 1.981878 1 5 14
0.360771 0.130796 1.989930 1 5 13
0.361845 0.132668 1.995854 1 6 12
0.358387 0.140210 1.976784 1 5 15
0.359599 0.142157 1.983464 0 2 12
0.393995 0.163826 2.173189 36 44 43
0.342451 0.190095 1.888882 1 1 1
0.343165 0.191897 1.892817 1 1 1
0.343217 0.193333 1.893107 1 1 1
0.352567 0.204377 1.944679 1 1 1
0.353630 0.206443 1.950544 1 1 1
0.349886 0.208557 1.929890 0 2 0
0.347606 0.208622 1.917316 1 3 0
0.346762 0.209537 1.912662 1 3 0
0.346795 0.210977 1.912841 1 3 0
0.347448 0.212798 1.916442 1 3 0
0.348335 0.214768 1.921336 0 2 0
0.347948 0.215955 1.919201 0 2 0
0.347267 0.219801 1.915446 1 3 0
0.347710 0.221506 1.917889 1 3 0
0.370613 0.002256 2.035876 20 29 45
0.370353 0.003765 2.034446 27 36 53
0.368306 0.021778 2.023203 0 8 15
0.369165 0.024841 2.027920 0 8 15
0.369584 0.026377 2.030223 0 8 15
0.368984 0.027840 2.026927 0 8 15
0.370090 0.029434 2.033005 0 8 15
0.368415 0.030804 2.023804 0 8 15
0.368758 0.032337 2.025684 0 8 14
0.373612 0.038860 2.052352 0 7 13
0.372723 0.040288 2.047466 0 6 13
0.373572 0.041904 2.052128 0 6 13
0.369802 0.042991 2.031423 0 6 13
0.371509 0.044705 2.040798 0 6 13
0.369111 0.045922 2.027623 0 6 15
0.366061 0.047036 2.010869 0 6 15
0.367681 0.048745 2.019770 1 6 15
0.367637 0.050239 2.019529 0 5 15
0.371318 0.052257 2.039748 0 5 15
0.372335 0.053919 2.045338 1 6 15
0.373068 0.055548 2.049360 0 5 16
0.369978 0.059616 2.032386 0 2 14
0.358392 0.062136 1.968741 0 2 14
0.374833 0.069575 2.059059 0 2 14
0.376245 0.082119 2.066812 0 5 11
0.376485 0.083707 2.068130 0 3 10
0.358699 0.085607 1.970429 0 3 10
0.367978 0.090824 2.021404 0 3 10
0.366953 0.092069 2.015770 0 3 10
0.365060 0.093083 2.005370 0 4 10
0.365450 0.094674 2.007513 0 5 11
0.368819 0.097051 2.026021 0 5 11
0.368870 0.098570 2.026300 0 5 11
0.368939 0.109126 2.026679 1 6 12
0.367366 0.110159 2.018037 1 6 12
0.363629 0.116457 1.997511 0 5 14
0.361498 0.117250 1.985805 0 6 15
0.358040 0.126355 1.966810 0 5 14
0.357732 0.127705 1.965117 1 5 14
0.359370 0.129757 1.974117 1 5 13
